ply
format ascii 1.0
element vertex 1576
property float32 x
property float32 y
property float32 z
property float32 I
end_header
-0.0792 -12.8066 -2.3358 0.9493
0.1584 -12.8059 -2.3358 0.9493
0.3959 -12.8007 -2.3358 0.9493
0.4751 -12.7980 -2.3358 0.9493
0.6333 -12.7911 -2.3358 0.9493
0.7124 -12.7870 -2.3358 0.9493
0.7915 -12.7823 -2.3358 0.9493
0.8705 -12.7772 -2.3358 0.9493
1.1074 -12.7588 -2.3358 0.9493
1.3439 -12.7361 -2.3358 0.9493
1.5013 -12.7185 -2.3358 0.9493
1.6585 -12.6990 -2.3358 0.9493
1.8155 -12.6775 -2.3358 0.9493
1.8938 -12.6660 -2.3358 0.9493
2.1285 -12.6287 -2.3358 0.9493
2.2065 -12.6153 -2.3358 0.9493
2.2845 -12.6014 -2.3358 0.9493
2.5179 -12.5569 -2.3358 0.9493
2.5955 -12.5411 -2.3358 0.9493
2.6730 -12.5248 -2.3358 0.9493
2.7504 -12.5080 -2.3358 0.9493
2.8277 -12.4908 -2.3358 0.9493
3.0590 -12.4361 -2.3358 0.9493
3.3656 -12.3567 -2.3358 0.9493
3.4420 -12.3356 -2.3358 0.9493
3.7460 -12.2467 -2.3358 0.9493
4.0478 -12.1503 -2.3358 0.9493
4.4958 -11.9918 -2.3358 0.9493
4.5698 -11.9637 -2.3358 0.9493
4.7174 -11.9063 -2.3358 0.9493
4.7910 -11.8769 -2.3358 0.9493
4.9375 -11.8168 -2.3358 0.9493
5.0833 -11.7548 -2.3358 0.9493
5.2283 -11.6910 -2.3358 0.9493
5.3725 -11.6254 -2.3358 0.9493
5.4443 -11.5920 -2.3358 0.9493
5.8000 -11.4181 -2.3358 0.9493
6.0109 -11.3086 -2.3358 0.9493
6.0807 -11.2712 -2.3358 0.9493
6.2887 -11.1565 -2.3358 0.9493
6.4946 -11.0379 -2.3358 0.9493
6.6983 -10.9155 -2.3358 0.9493
6.8328 -10.8318 -2.3358 0.9493
6.8996 -10.7893 -2.3358 0.9493
7.0325 -10.7031 -2.3358 0.9493
7.0986 -10.6595 -2.3358 0.9493
7.1644 -10.6154 -2.3358 0.9493
7.2299 -10.5709 -2.3358 0.9493
7.2951 -10.5260 -2.3358 0.9493
7.3601 -10.4806 -2.3358 0.9493
7.4248 -10.4349 -2.3358 0.9493
7.5532 -10.3423 -2.3358 0.9493
7.6171 -10.2954 -2.3358 0.9493
7.6806 -10.2481 -2.3358 0.9493
7.7438 -10.2004 -2.3358 0.9493
7.8694 -10.1038 -2.3358 0.9493
8.0555 -9.9561 -2.3358 0.9493
8.1780 -9.8557 -2.3358 0.9493
8.2388 -9.8050 -2.3358 0.9493
8.2993 -9.7538 -2.3358 0.9493
8.3594 -9.7023 -2.3358 0.9493
8.9431 -9.1671 -2.3358 0.9493
9.1671 -8.9431 -2.3358 0.9493
9.2770 -8.8290 -2.3358 0.9493
9.3855 -8.7136 -2.3358 0.9493
9.4395 -8.6554 -2.3358 0.9493
9.4925 -8.5969 -2.3358 0.9493
9.5981 -8.4788 -2.3358 0.9493
9.6506 -8.4193 -2.3358 0.9493
9.8049 -8.2388 -2.3358 0.9493
9.9561 -8.0555 -2.3358 0.9493
10.0057 -7.9938 -2.3358 0.9493
10.1038 -7.8694 -2.3358 0.9493
10.2481 -7.6806 -2.3358 0.9493
10.2953 -7.6171 -2.3358 0.9493
10.3888 -7.4892 -2.3358 0.9493
10.4349 -7.4248 -2.3358 0.9493
10.5708 -7.2299 -2.3358 0.9493
10.6594 -7.0986 -2.3358 0.9493
10.7031 -7.0326 -2.3358 0.9493
10.7464 -6.9662 -2.3358 0.9493
10.7893 -6.8997 -2.3358 0.9493
10.8318 -6.8328 -2.3358 0.9493
10.8738 -6.7657 -2.3358 0.9493
10.9154 -6.6983 -2.3358 0.9493
11.1173 -6.3576 -2.3358 0.9493
11.1564 -6.2888 -2.3358 0.9493
11.2712 -6.0807 -2.3358 0.9493
11.3455 -5.9408 -2.3358 0.9493
11.4890 -5.6584 -2.3358 0.9493
11.5581 -5.5159 -2.3358 0.9493
11.8167 -4.9375 -2.3358 0.9493
11.8769 -4.7910 -2.3358 0.9493
11.9063 -4.7175 -2.3358 0.9493
12.0193 -4.4215 -2.3358 0.9493
12.0464 -4.3471 -2.3358 0.9493
12.0731 -4.2725 -2.3358 0.9493
12.0993 -4.1978 -2.3358 0.9493
12.1503 -4.0478 -2.3358 0.9493
12.1994 -3.8972 -2.3358 0.9493
12.2233 -3.8217 -2.3358 0.9493
12.2696 -3.6703 -2.3358 0.9493
12.2921 -3.5943 -2.3358 0.9493
12.3566 -3.3656 -2.3358 0.9493
12.3772 -3.2892 -2.3358 0.9493
12.3973 -3.2126 -2.3358 0.9493
12.4548 -2.9820 -2.3358 0.9493
12.4907 -2.8278 -2.3358 0.9493
12.5080 -2.7504 -2.3358 0.9493
12.5247 -2.6731 -2.3358 0.9493
12.5410 -2.5955 -2.3358 0.9493
12.5568 -2.5179 -2.3358 0.9493
12.5722 -2.4402 -2.3358 0.9493
12.5870 -2.3624 -2.3358 0.9493
12.6014 -2.2846 -2.3358 0.9493
12.6153 -2.2066 -2.3358 0.9493
12.6287 -2.1285 -2.3358 0.9493
12.6540 -1.9722 -2.3358 0.9493
12.6660 -1.8939 -2.3358 0.9493
12.6775 -1.8155 -2.3358 0.9493
12.6884 -1.7371 -2.3358 0.9493
12.7090 -1.5800 -2.3358 0.9493
12.7275 -1.4227 -2.3358 0.9493
12.7361 -1.3439 -2.3358 0.9493
12.7517 -1.1864 -2.3358 0.9493
12.7823 -0.7915 -2.3358 0.9493
12.7870 -0.7125 -2.3358 0.9493
12.2661 -0.6074 -2.2399 0.9513
12.2631 -0.4553 -2.2382 0.9513
12.8029 -0.3168 -2.3358 0.9493
12.8058 -0.1584 -2.3358 0.9493
12.8065 -0.0792 -2.3358 0.9493
12.8029 0.3167 -2.3358 0.9493
12.7980 0.4751 -2.3358 0.9493
12.7948 0.5542 -2.3358 0.9493
12.7911 0.6333 -2.3358 0.9493
12.7870 0.7124 -2.3358 0.9493
12.7823 0.7915 -2.3358 0.9493
12.2599 0.9115 -2.2422 0.9512
12.7517 1.1862 -2.3358 0.9493
12.7442 1.2651 -2.3358 0.9493
12.7361 1.3439 -2.3358 0.9493
12.4673 1.4716 -2.2897 0.9502
11.8704 1.5503 -2.1834 0.9525
11.8503 1.6970 -2.1834 0.9525
11.8047 1.9896 -2.1834 0.9525
11.7792 2.1354 -2.1834 0.9525
11.7376 2.3536 -2.1834 0.9525
11.7076 2.4986 -2.1834 0.9525
11.6592 2.7154 -2.1834 0.9525
11.5885 3.0029 -2.1834 0.9525
11.5504 3.1460 -2.1834 0.9525
11.5308 3.2174 -2.1834 0.9525
11.5106 3.2886 -2.1834 0.9525
11.4691 3.4307 -2.1834 0.9525
11.4476 3.5016 -2.1834 0.9525
11.3474 3.8584 -2.1860 0.9524
11.2735 4.0681 -2.1860 0.9524
11.2480 4.1377 -2.1859 0.9524
11.2221 4.2072 -2.1859 0.9524
11.1958 4.2765 -2.1859 0.9524
11.1691 4.3456 -2.1859 0.9524
11.0289 4.6886 -2.1858 0.9524
10.9996 4.7567 -2.1858 0.9524
10.9397 4.8922 -2.1857 0.9524
10.9091 4.9598 -2.1857 0.9524
10.7827 5.2279 -2.1856 0.9524
10.7501 5.2945 -2.1856 0.9524
10.7170 5.3608 -2.1856 0.9524
10.6836 5.4269 -2.1856 0.9524
10.6497 5.4928 -2.1855 0.9524
10.4743 5.8192 -2.1854 0.9524
10.4380 5.8838 -2.1854 0.9524
10.3643 6.0123 -2.1854 0.9524
10.3268 6.0763 -2.1854 0.9524
10.2507 6.2034 -2.1853 0.9525
10.0937 6.4548 -2.1852 0.9525
10.0535 6.5170 -2.1852 0.9525
10.0129 6.5790 -2.1852 0.9525
9.9720 6.6408 -2.1852 0.9525
9.9306 6.7023 -2.1852 0.9525
9.8889 6.7635 -2.1851 0.9525
9.8043 6.8851 -2.1851 0.9525
9.7182 7.0057 -2.1851 0.9525
9.5863 7.1846 -2.1850 0.9525
9.4511 7.3610 -2.1849 0.9525
9.3592 7.4772 -2.1849 0.9525
9.3127 7.5349 -2.1849 0.9525
9.2658 7.5923 -2.1849 0.9525
9.1711 7.7062 -2.1848 0.9525
9.1231 7.7627 -2.1848 0.9525
8.9773 7.9304 -2.1847 0.9525
8.9280 7.9856 -2.1847 0.9525
8.8284 8.0953 -2.1847 0.9525
8.7781 8.1497 -2.1847 0.9525
8.7275 8.2037 -2.1846 0.9525
8.5735 8.3640 -2.1846 0.9525
8.4167 8.5214 -2.1845 0.9525
8.3637 8.5732 -2.1845 0.9525
8.2030 8.7267 -2.1844 0.9525
7.8732 9.0245 -2.1843 0.9525
7.8172 9.0729 -2.1843 0.9525
7.7609 9.1210 -2.1843 0.9525
7.7043 9.1688 -2.1843 0.9525
7.6473 9.2162 -2.1843 0.9525
7.5901 9.2632 -2.1842 0.9525
7.5327 9.3099 -2.1842 0.9525
7.4749 9.3562 -2.1842 0.9525
7.3584 9.4478 -2.1842 0.9525
7.0625 9.6703 -2.1841 0.9525
7.0025 9.7138 -2.1841 0.9525
6.9423 9.7568 -2.1840 0.9525
6.8818 9.7995 -2.1840 0.9525
6.8210 9.8417 -2.1840 0.9525
6.6370 9.9663 -2.1839 0.9525
6.3883 10.1271 -2.1839 0.9525
4.8882 7.8564 -1.6876 0.9631
4.4132 7.1917 -1.5390 0.9663
4.1909 7.1225 -1.5073 0.9670
3.9202 6.9546 -1.4561 0.9681
3.8616 6.9508 -1.4503 0.9682
3.8502 7.0322 -1.4623 0.9679
3.8154 7.0722 -1.4656 0.9679
3.7042 7.0742 -1.4564 0.9681
3.5944 7.0761 -1.4476 0.9682
3.5269 7.0509 -1.4379 0.9685
3.4322 7.0789 -1.4349 0.9685
3.3787 7.0798 -1.4308 0.9686
3.3255 7.0808 -1.4268 0.9687
3.2727 7.0817 -1.4229 0.9688
3.1146 6.9646 -1.3915 0.9695
3.0407 7.0315 -1.3972 0.9693
2.9987 7.0538 -1.3980 0.9693
2.9146 7.0986 -1.3996 0.9693
2.8725 7.1209 -1.4005 0.9693
2.8303 7.1434 -1.4014 0.9692
2.7881 7.1658 -1.4024 0.9692
2.7034 7.2109 -1.4046 0.9692
2.6075 7.2258 -1.4011 0.9692
2.5268 7.2830 -1.4060 0.9691
2.5417 7.4751 -1.4400 0.9684
2.4717 7.5751 -1.4533 0.9681
2.3853 7.6292 -1.4579 0.9680
2.3641 7.7288 -1.4741 0.9677
2.3275 7.7810 -1.4813 0.9675
2.2533 7.8870 -1.4961 0.9672
2.2137 7.9336 -1.5023 0.9671
2.0733 8.2097 -1.5444 0.9662
2.0240 8.4535 -1.5854 0.9653
1.8049 8.4568 -1.5772 0.9655
1.3319 6.4356 -1.1987 0.9736
1.2909 6.4377 -1.1975 0.9737
1.1819 6.2971 -1.1686 0.9743
1.1682 6.4437 -1.1944 0.9737
1.0867 6.4475 -1.1925 0.9738
1.0515 6.4831 -1.1979 0.9736
1.1013 7.0663 -1.3044 0.9713
1.0633 7.4247 -1.3680 0.9700
0.9700 7.4267 -1.3661 0.9700
0.8305 7.4297 -1.3635 0.9701
0.7841 7.4307 -1.3628 0.9701
0.7378 7.4317 -1.3621 0.9701
0.5528 7.4357 -1.3599 0.9701
0.4145 7.4387 -1.3588 0.9702
0.3684 7.4396 -1.3586 0.9702
0.2763 7.4416 -1.3582 0.9702
0.2302 7.4426 -1.3581 0.9702
0.1842 7.4436 -1.3581 0.9702
0.0000 7.4476 -1.3584 0.9702
-0.0461 7.4486 -1.3586 0.9702
-0.0921 7.4496 -1.3588 0.9702
-0.1382 7.4506 -1.3591 0.9702
-0.1844 7.4515 -1.3595 0.9701
-0.2005 6.4808 -1.1826 0.9740
-0.2406 6.4810 -1.1829 0.9740
-0.2807 6.4812 -1.1832 0.9740
-0.3137 6.3358 -1.1570 0.9745
-0.4819 6.4819 -1.1855 0.9739
-0.5105 6.3365 -1.1595 0.9745
-0.5500 6.3365 -1.1601 0.9745
-0.6031 6.4824 -1.1874 0.9739
-0.7873 7.4614 -1.3684 0.9700
-0.4349 3.8903 -0.7140 0.9842
-0.5454 3.8084 -0.7017 0.9845
-0.5689 3.8047 -0.7017 0.9845
-0.5932 3.8062 -0.7026 0.9845
-0.6181 3.8112 -0.7042 0.9844
-0.6713 3.8382 -0.7107 0.9843
-1.3914 7.4134 -1.3757 0.9698
-1.5745 7.3777 -1.3759 0.9698
-1.8475 7.3156 -1.3762 0.9698
-1.9176 7.2159 -1.3618 0.9701
-1.9228 6.8912 -1.3049 0.9713
-1.9251 6.7382 -1.2782 0.9719
-1.8908 6.4664 -1.2288 0.9730
-1.9323 6.4598 -1.2298 0.9730
-1.9754 6.4582 -1.2318 0.9729
-2.0187 6.4565 -1.2338 0.9729
-2.0584 6.3084 -1.2103 0.9734
-2.1492 6.4513 -1.2402 0.9727
-1.5698 4.4360 -0.8583 0.9810
-1.5665 4.3409 -0.8417 0.9814
-1.5746 4.2803 -0.8318 0.9816
-1.6001 4.2681 -0.8314 0.9816
-1.6194 4.0873 -0.8019 0.9823
-1.6206 4.0176 -0.7901 0.9825
-1.6230 3.8842 -0.7678 0.9830
-1.6241 3.8203 -0.7571 0.9833
-1.6252 3.7581 -0.7468 0.9835
-1.6283 3.5814 -0.7175 0.9841
-1.6292 3.5255 -0.7084 0.9843
-1.5843 3.3198 -0.6709 0.9852
-1.5970 3.2939 -0.6677 0.9852
-1.5917 3.1821 -0.6489 0.9856
-1.5925 3.1351 -0.6414 0.9858
-1.6084 3.1184 -0.6400 0.9858
-1.6475 3.1464 -0.6478 0.9857
-1.6726 3.1468 -0.6500 0.9856
-1.6952 3.1423 -0.6512 0.9856
-1.7083 3.1202 -0.6488 0.9856
-4.0641 7.2098 -1.5095 0.9669
-2.6621 4.5243 -0.9574 0.9789
-2.6632 4.4627 -0.9479 0.9791
-2.7393 4.4639 -0.9552 0.9789
-2.7663 4.4459 -0.9551 0.9789
-2.8310 4.4879 -0.9678 0.9787
-2.8704 4.4886 -0.9717 0.9786
-2.9501 4.4899 -0.9799 0.9784
-2.9905 4.4906 -0.9840 0.9783
-3.0313 4.4914 -0.9883 0.9782
-3.1138 4.4928 -0.9970 0.9780
-3.1556 4.4935 -1.0015 0.9779
-3.1978 4.4943 -1.0060 0.9778
-3.2404 4.4950 -1.0107 0.9777
-3.2834 4.4958 -1.0154 0.9776
-3.3268 4.4965 -1.0202 0.9775
-3.4148 4.4981 -1.0300 0.9773
-3.4594 4.4988 -1.0351 0.9772
-3.5045 4.4996 -1.0402 0.9771
-3.5961 4.5012 -1.0508 0.9768
-3.6896 4.5029 -1.0618 0.9766
-3.7370 4.5037 -1.0674 0.9765
-3.7693 4.4858 -1.0686 0.9765
-3.8630 4.4835 -1.0794 0.9762
-3.8881 4.4567 -1.0787 0.9762
-4.0329 4.5088 -1.1033 0.9757
-4.0842 4.5097 -1.1097 0.9756
-4.1886 4.5116 -1.1228 0.9753
-4.2417 4.5125 -1.1296 0.9751
-4.3499 4.5144 -1.1434 0.9748
-4.4050 4.5154 -1.1505 0.9747
-4.4608 4.5163 -1.1578 0.9745
-4.5745 4.5183 -1.1727 0.9742
-4.6325 4.5193 -1.1804 0.9740
-4.6913 4.5203 -1.1882 0.9739
-4.7508 4.5214 -1.1962 0.9737
-4.8111 4.5224 -1.2043 0.9735
-4.9720 4.5029 -1.2235 0.9731
-4.9039 4.3863 -1.2000 0.9736
-4.9254 4.1909 -1.1795 0.9740
-4.9263 4.1394 -1.1736 0.9742
-4.9272 4.0884 -1.1678 0.9743
-4.9289 3.9880 -1.1564 0.9746
-4.9298 3.9385 -1.1509 0.9747
-4.9179 3.7817 -1.1315 0.9751
-4.8893 3.7118 -1.1196 0.9753
-4.8909 3.6186 -1.1097 0.9756
-4.9932 3.6467 -1.1277 0.9752
-9.3508 6.7409 -2.1024 0.9542
-9.3524 6.6546 -2.0935 0.9544
-9.3540 6.5689 -2.0847 0.9546
-9.3557 6.4841 -2.0761 0.9548
-9.3631 6.1521 -2.0434 0.9555
-10.1256 6.3873 -2.1835 0.9525
-10.1649 6.3245 -2.1835 0.9525
-10.2038 6.2615 -2.1835 0.9525
-10.2423 6.1982 -2.1835 0.9525
-10.2804 6.1348 -2.1835 0.9525
-10.3181 6.0711 -2.1835 0.9525
-10.3554 6.0071 -2.1835 0.9525
-10.4649 5.8139 -2.1835 0.9525
-10.5007 5.7491 -2.1835 0.9525
-10.5360 5.6840 -2.1835 0.9525
-10.5709 5.6187 -2.1835 0.9525
-10.6054 5.5532 -2.1834 0.9525
-10.6395 5.4875 -2.1834 0.9525
-10.7394 5.2891 -2.1834 0.9525
-10.8040 5.1560 -2.1834 0.9525
-10.8357 5.0890 -2.1834 0.9525
-10.8978 4.9546 -2.1834 0.9525
-10.9282 4.8871 -2.1834 0.9525
-10.9582 4.8194 -2.1834 0.9525
-11.0170 4.6835 -2.1834 0.9525
-11.0458 4.6153 -2.1834 0.9525
-11.1295 4.4096 -2.1834 0.9525
-11.1565 4.3407 -2.1834 0.9525
-11.1831 4.2716 -2.1834 0.9525
-11.2093 4.2023 -2.1834 0.9525
-11.2351 4.1330 -2.1834 0.9525
-11.2605 4.0634 -2.1834 0.9525
-11.2854 3.9937 -2.1834 0.9525
-11.3575 3.7837 -2.1834 0.9525
-11.3807 3.7134 -2.1834 0.9525
-11.4035 3.6429 -2.1834 0.9525
-11.4258 3.5723 -2.1834 0.9525
-11.4477 3.5016 -2.1834 0.9525
-11.4901 3.3597 -2.1834 0.9525
-5.3348 1.5242 -1.0119 0.9777
-5.3311 1.4875 -1.0095 0.9777
-5.3206 1.3787 -1.0025 0.9779
-5.3173 1.3429 -1.0003 0.9779
-5.3079 1.2362 -0.9940 0.9781
-5.3050 1.2010 -0.9921 0.9781
-5.1898 1.1076 -0.9679 0.9787
-11.7376 2.3536 -2.1834 0.9525
-11.7519 2.2810 -2.1834 0.9525
-11.7658 2.2082 -2.1834 0.9525
-11.7792 2.1354 -2.1834 0.9525
-11.8284 1.8435 -2.1834 0.9525
-12.6775 1.8154 -2.3358 0.9493
-12.6884 1.7370 -2.3358 0.9493
-12.6990 1.6585 -2.3358 0.9493
-12.7275 1.4226 -2.3358 0.9493
-12.7361 1.3439 -2.3358 0.9493
-12.7517 1.1863 -2.3358 0.9493
-12.7588 1.1074 -2.3358 0.9493
-12.7715 0.9495 -2.3358 0.9493
-12.7870 0.7124 -2.3358 0.9493
-12.7911 0.6333 -2.3358 0.9493
-12.7948 0.5542 -2.3358 0.9493
-12.7980 0.4751 -2.3358 0.9493
-12.8007 0.3959 -2.3358 0.9493
-12.8029 0.3168 -2.3358 0.9493
-12.8046 0.2375 -2.3358 0.9493
-12.8066 0.0791 -2.3358 0.9493
-5.3390 0.0000 -1.0148 0.9785
-5.3392 -0.0660 -1.0149 0.9785
-5.3397 -0.1321 -1.0152 0.9785
-5.3401 -0.1652 -1.0155 0.9785
-5.3405 -0.1982 -1.0158 0.9785
-5.3410 -0.2313 -1.0161 0.9785
-5.3416 -0.2645 -1.0165 0.9785
-5.3423 -0.2977 -1.0170 0.9784
-5.3431 -0.3309 -1.0175 0.9784
-5.3523 -0.5983 -1.0237 0.9783
-5.3627 -0.8019 -1.0306 0.9782
-5.3669 -0.8705 -1.0334 0.9781
-5.3692 -0.9050 -1.0349 0.9781
-5.3715 -0.9395 -1.0365 0.9780
-5.3739 -0.9742 -1.0381 0.9780
-5.3764 -1.0091 -1.0397 0.9780
-5.3790 -1.0440 -1.0415 0.9779
-5.3902 -1.1853 -1.0490 0.9778
-5.3965 -1.2568 -1.0532 0.9777
-5.3997 -1.2928 -1.0553 0.9776
-5.4065 -1.3654 -1.0599 0.9776
-5.4214 -1.5127 -1.0698 0.9773
-5.4253 -1.5500 -1.0725 0.9773
-11.7737 -3.5220 -2.3358 0.9512
-11.7293 -3.6672 -2.3358 0.9512
-11.6830 -3.8120 -2.3358 0.9512
-11.6350 -3.9563 -2.3358 0.9512
-11.6103 -4.0281 -2.3358 0.9512
-11.5071 -4.3141 -2.3358 0.9512
-11.3682 -4.6678 -2.3358 0.9512
-11.3391 -4.7380 -2.3358 0.9512
-11.3096 -4.8080 -2.3358 0.9512
-11.2493 -4.9475 -2.3358 0.9512
-11.2185 -5.0170 -2.3358 0.9512
-11.0580 -5.3614 -2.3358 0.9512
-11.0246 -5.4297 -2.3358 0.9512
-10.9908 -5.4978 -2.3358 0.9512
-10.9566 -5.5657 -2.3358 0.9512
-10.9220 -5.6333 -2.3358 0.9512
-10.8870 -5.7008 -2.3358 0.9512
-10.8515 -5.7679 -2.3358 0.9512
-10.6680 -6.1007 -2.3358 0.9512
-10.6301 -6.1665 -2.3358 0.9512
-10.5917 -6.2322 -2.3358 0.9512
-10.5530 -6.2975 -2.3358 0.9512
-10.4743 -6.4276 -2.3358 0.9512
-10.3121 -6.6847 -2.3358 0.9512
-10.2706 -6.7484 -2.3358 0.9512
-10.0570 -7.0626 -2.3358 0.9512
-9.8793 -7.3092 -2.3358 0.9512
-9.8339 -7.3702 -2.3358 0.9512
-9.7881 -7.4308 -2.3358 0.9512
-9.7420 -7.4913 -2.3358 0.9512
-9.6954 -7.5513 -2.3358 0.9512
-9.6486 -7.6112 -2.3358 0.9512
-9.5537 -7.7299 -2.3358 0.9512
-9.5057 -7.7889 -2.3358 0.9512
-9.4573 -7.8475 -2.3358 0.9512
-9.3596 -7.9639 -2.3358 0.9512
-9.2604 -8.0790 -2.3358 0.9512
-9.2102 -8.1362 -2.3358 0.9512
-9.1597 -8.1929 -2.3358 0.9512
-8.8495 -8.5271 -2.3358 0.9512
-8.7966 -8.5817 -2.3358 0.9512
-8.7433 -8.6359 -2.3358 0.9512
-8.6898 -8.6898 -2.3358 0.9512
-8.4722 -8.9021 -2.3358 0.9512
-8.4170 -8.9543 -2.3358 0.9512
-8.3056 -9.0577 -2.3358 0.9512
-8.1929 -9.1597 -2.3358 0.9512
-8.1361 -9.2103 -2.3358 0.9512
-8.0790 -9.2604 -2.3358 0.9512
-8.0216 -9.3102 -2.3358 0.9512
-7.9638 -9.3596 -2.3358 0.9512
-7.9058 -9.4087 -2.3358 0.9512
-7.7888 -9.5057 -2.3358 0.9512
-7.6111 -9.6486 -2.3358 0.9512
-7.5513 -9.6955 -2.3358 0.9512
-7.4912 -9.7420 -2.3358 0.9512
-7.3702 -9.8339 -2.3358 0.9512
-7.3092 -9.8793 -2.3358 0.9512
-7.1865 -9.9689 -2.3358 0.9512
-7.1247 -10.0132 -2.3358 0.9512
-6.9377 -10.1436 -2.3358 0.9512
-6.8748 -10.1863 -2.3358 0.9512
-6.8117 -10.2286 -2.3358 0.9512
-6.7483 -10.2706 -2.3358 0.9512
-6.6847 -10.3121 -2.3358 0.9512
-6.5566 -10.3940 -2.3358 0.9512
-6.2321 -10.5917 -2.3358 0.9512
-6.1665 -10.6301 -2.3358 0.9512
-5.9017 -10.7794 -2.3358 0.9512
-5.8349 -10.8157 -2.3358 0.9512
-5.7679 -10.8515 -2.3358 0.9512
-5.7007 -10.8870 -2.3358 0.9512
-5.4297 -11.0247 -2.3358 0.9512
-5.3614 -11.0581 -2.3358 0.9512
-5.2929 -11.0910 -2.3358 0.9512
-5.2242 -11.1235 -2.3358 0.9512
-5.1553 -11.1556 -2.3358 0.9512
-5.0862 -11.1873 -2.3358 0.9512
-5.0170 -11.2185 -2.3358 0.9512
-4.9475 -11.2493 -2.3358 0.9512
-4.8080 -11.3096 -2.3358 0.9512
-4.5268 -11.4251 -2.3358 0.9512
-4.4560 -11.4529 -2.3358 0.9512
-4.3851 -11.4802 -2.3358 0.9512
-4.3140 -11.5071 -2.3358 0.9512
-4.0998 -11.5852 -2.3358 0.9512
-3.9562 -11.6350 -2.3358 0.9512
-3.8842 -11.6592 -2.3358 0.9512
-3.7397 -11.7064 -2.3358 0.9512
-3.5219 -11.7738 -2.3358 0.9512
-3.4490 -11.7953 -2.3358 0.9512
-3.2296 -11.8573 -2.3358 0.9512
-3.0827 -11.8963 -2.3358 0.9512
-2.6393 -12.0025 -2.3358 0.9512
-2.4906 -12.0342 -2.3358 0.9512
-2.3416 -12.0641 -2.3358 0.9512
-2.1918 -12.0921 -2.3358 0.9512
-2.1177 -12.1054 -2.3358 0.9512
-2.0422 -12.1183 -2.3358 0.9512
-1.8921 -12.1426 -2.3358 0.9512
-1.7421 -12.1651 -2.3358 0.9512
-1.5915 -12.1857 -2.3358 0.9512
-1.0627 -12.2432 -2.3358 0.9512
-0.9869 -12.2495 -2.3358 0.9512
-0.8353 -12.2608 -2.3358 0.9512
-0.6836 -12.2702 -2.3358 0.9512
-0.6077 -12.2742 -2.3358 0.9512
-0.5318 -12.2777 -2.3358 0.9512
-0.4559 -12.2808 -2.3358 0.9512
-0.3040 -12.2854 -2.3358 0.9512
-0.2280 -12.2871 -2.3358 0.9512
-0.0760 -12.2890 -2.3358 0.9512
0.0760 -12.2890 -2.3358 0.9512
0.2280 -12.2871 -2.3358 0.9512
0.3040 -12.2855 -2.3358 0.9512
0.3799 -12.2833 -2.3358 0.9512
0.4559 -12.2808 -2.3358 0.9512
0.6836 -12.2702 -2.3358 0.9512
0.8354 -12.2608 -2.3358 0.9512
0.9112 -12.2554 -2.3358 0.9512
0.9869 -12.2495 -2.3358 0.9512
1.0627 -12.2432 -2.3358 0.9512
1.1384 -12.2364 -2.3358 0.9512
1.2896 -12.2213 -2.3358 0.9512
1.3652 -12.2132 -2.3358 0.9512
1.7421 -12.1651 -2.3358 0.9512
1.8173 -12.1541 -2.3358 0.9512
2.0425 -12.1183 -2.3358 0.9512
2.1924 -12.0921 -2.3358 0.9512
2.2670 -12.0783 -2.3358 0.9512
2.4904 -12.0342 -2.3358 0.9512
2.5650 -12.0186 -2.3358 0.9512
2.6392 -12.0025 -2.3358 0.9512
2.7135 -11.9859 -2.3358 0.9512
2.7875 -11.9689 -2.3358 0.9512
3.0091 -11.9151 -2.3358 0.9512
3.0827 -11.8963 -2.3358 0.9512
3.1562 -11.8770 -2.3358 0.9512
3.2296 -11.8572 -2.3358 0.9512
3.3029 -11.8371 -2.3358 0.9512
3.3760 -11.8164 -2.3358 0.9512
3.4490 -11.7953 -2.3358 0.9512
3.5219 -11.7737 -2.3358 0.9512
3.5946 -11.7518 -2.3358 0.9512
3.7397 -11.7064 -2.3358 0.9512
3.8120 -11.6830 -2.3358 0.9512
3.8842 -11.6593 -2.3358 0.9512
3.9562 -11.6350 -2.3358 0.9512
4.0281 -11.6103 -2.3358 0.9512
4.0998 -11.5852 -2.3358 0.9512
4.6677 -11.3682 -2.3358 0.9512
4.8080 -11.3096 -2.3358 0.9512
4.8778 -11.2797 -2.3358 0.9512
4.9475 -11.2493 -2.3358 0.9512
5.0170 -11.2185 -2.3358 0.9512
5.1553 -11.1556 -2.3358 0.9512
5.2929 -11.0910 -2.3358 0.9512
5.4978 -10.9909 -2.3358 0.9512
5.8349 -10.8157 -2.3358 0.9512
5.9683 -10.7427 -2.3358 0.9512
6.0346 -10.7055 -2.3358 0.9512
6.1007 -10.6680 -2.3358 0.9512
6.2975 -10.5530 -2.3358 0.9512
6.3627 -10.5139 -2.3358 0.9512
6.4276 -10.4743 -2.3358 0.9512
6.4922 -10.4343 -2.3358 0.9512
6.5566 -10.3940 -2.3358 0.9512
6.6208 -10.3533 -2.3358 0.9512
6.7483 -10.2706 -2.3358 0.9512
6.8117 -10.2287 -2.3358 0.9512
6.8748 -10.1863 -2.3358 0.9512
6.9377 -10.1437 -2.3358 0.9512
7.0003 -10.1005 -2.3358 0.9512
7.2480 -9.9243 -2.3358 0.9512
7.3092 -9.8793 -2.3358 0.9512
7.6111 -9.6486 -2.3358 0.9512
7.7299 -9.5537 -2.3358 0.9512
7.8475 -9.4574 -2.3358 0.9512
8.0216 -9.3102 -2.3358 0.9512
8.1929 -9.1597 -2.3358 0.9512
8.4170 -8.9543 -2.3358 0.9512
8.5271 -8.8495 -2.3358 0.9512
8.5816 -8.7966 -2.3358 0.9512
8.6900 -8.6898 -2.3358 0.9512
8.7438 -8.6359 -2.3358 0.9512
8.9545 -8.4170 -2.3358 0.9512
9.0062 -8.3615 -2.3358 0.9512
9.1089 -8.2494 -2.3358 0.9512
9.1597 -8.1929 -2.3358 0.9512
9.2102 -8.1361 -2.3358 0.9512
9.2604 -8.0790 -2.3358 0.9512
9.3101 -8.0216 -2.3358 0.9512
9.5057 -7.7888 -2.3358 0.9512
9.5537 -7.7299 -2.3358 0.9512
9.6486 -7.6112 -2.3358 0.9512
9.6954 -7.5513 -2.3358 0.9512
9.7881 -7.4308 -2.3358 0.9512
9.8339 -7.3702 -2.3358 0.9512
9.9243 -7.2480 -2.3358 0.9512
10.0131 -7.1247 -2.3358 0.9512
10.1436 -6.9377 -2.3358 0.9512
10.2706 -6.7483 -2.3358 0.9512
10.3121 -6.6847 -2.3358 0.9512
10.3532 -6.6208 -2.3358 0.9512
10.4343 -6.4922 -2.3358 0.9512
10.5138 -6.3627 -2.3358 0.9512
10.5530 -6.2975 -2.3358 0.9512
10.9220 -5.6333 -2.3358 0.9512
11.0909 -5.2929 -2.3358 0.9512
11.1872 -5.0863 -2.3358 0.9512
11.2493 -4.9475 -2.3358 0.9512
11.3391 -4.7380 -2.3358 0.9512
11.3969 -4.5973 -2.3358 0.9512
11.4529 -4.4560 -2.3358 0.9512
11.4802 -4.3852 -2.3358 0.9512
11.5071 -4.3141 -2.3358 0.9512
11.5335 -4.2428 -2.3358 0.9512
11.5596 -4.1714 -2.3358 0.9512
11.6103 -4.0281 -2.3358 0.9512
11.6350 -3.9562 -2.3358 0.9512
11.6592 -3.8843 -2.3358 0.9512
11.7064 -3.7397 -2.3358 0.9512
11.8164 -3.3760 -2.3358 0.9512
11.8370 -3.3029 -2.3358 0.9512
11.8572 -3.2296 -2.3358 0.9512
11.8963 -3.0827 -2.3358 0.9512
11.9151 -3.0091 -2.3358 0.9512
11.9514 -2.8615 -2.3358 0.9512
11.9689 -2.7875 -2.3358 0.9512
11.9859 -2.7135 -2.3358 0.9512
12.0185 -2.5650 -2.3358 0.9512
12.0342 -2.4906 -2.3358 0.9512
12.0493 -2.4161 -2.3358 0.9512
12.0783 -2.2670 -2.3358 0.9512
12.1183 -2.0425 -2.3358 0.9512
12.1541 -1.8173 -2.3358 0.9512
12.1651 -1.7421 -2.3358 0.9512
12.1756 -1.6668 -2.3358 0.9512
12.1857 -1.5915 -2.3358 0.9512
12.1953 -1.5162 -2.3358 0.9512
12.2363 -1.1384 -2.3358 0.9512
12.2554 -0.9112 -2.3358 0.9512
12.2657 -0.7596 -2.3358 0.9512
12.2702 -0.6837 -2.3358 0.9512
12.2741 -0.6078 -2.3358 0.9512
12.2807 -0.4559 -2.3358 0.9512
12.2854 -0.3040 -2.3358 0.9512
12.2871 -0.2280 -2.3358 0.9512
12.2882 -0.1520 -2.3358 0.9512
12.2892 -0.0000 -2.3358 0.9512
12.2833 0.3799 -2.3358 0.9512
12.2807 0.4559 -2.3358 0.9512
12.2777 0.5318 -2.3358 0.9512
12.2741 0.6077 -2.3358 0.9512
12.2702 0.6836 -2.3358 0.9512
12.2364 1.1383 -2.3358 0.9512
12.2291 1.2140 -2.3358 0.9512
12.2044 1.4406 -2.3358 0.9512
11.8334 1.4711 -2.2665 0.9526
11.4156 1.4909 -2.1882 0.9542
11.3611 1.6987 -2.1834 0.9543
11.3504 1.7689 -2.1834 0.9543
11.3392 1.8391 -2.1834 0.9543
11.3276 1.9092 -2.1834 0.9543
11.3156 1.9792 -2.1834 0.9543
11.3031 2.0491 -2.1834 0.9543
11.2902 2.1190 -2.1834 0.9543
11.2769 2.1888 -2.1834 0.9543
11.2344 2.3976 -2.1834 0.9543
11.2039 2.5364 -2.1834 0.9543
11.1716 2.6747 -2.1834 0.9543
11.1549 2.7437 -2.1834 0.9543
11.1021 2.9503 -2.1834 0.9543
11.0836 3.0188 -2.1834 0.9543
11.0454 3.1557 -2.1834 0.9543
11.0257 3.2239 -2.1834 0.9543
10.8985 3.6307 -2.1834 0.9543
10.8654 3.7696 -2.1860 0.9543
10.8418 3.8367 -2.1859 0.9543
10.8178 3.9037 -2.1859 0.9543
10.7685 4.0371 -2.1859 0.9543
10.7175 4.1699 -2.1858 0.9543
10.6914 4.2361 -2.1858 0.9543
10.6650 4.3021 -2.1858 0.9543
10.6380 4.3679 -2.1858 0.9543
10.5549 4.5644 -2.1857 0.9543
10.4975 4.6945 -2.1857 0.9543
10.4083 4.8883 -2.1856 0.9543
10.3469 5.0166 -2.1856 0.9543
10.2517 5.2075 -2.1855 0.9543
10.1864 5.3338 -2.1855 0.9543
10.1194 5.4593 -2.1855 0.9543
10.0162 5.6460 -2.1854 0.9543
9.9810 5.7077 -2.1854 0.9543
9.9454 5.7693 -2.1854 0.9543
9.9094 5.8307 -2.1854 0.9543
9.7240 6.1340 -2.1853 0.9543
9.6858 6.1940 -2.1852 0.9543
9.6472 6.2537 -2.1852 0.9543
9.6083 6.3131 -2.1852 0.9543
9.5690 6.3724 -2.1852 0.9543
9.5293 6.4314 -2.1852 0.9543
9.4893 6.4901 -2.1851 0.9543
9.4081 6.6069 -2.1851 0.9543
9.3670 6.6649 -2.1851 0.9543
9.2837 6.7801 -2.1850 0.9543
9.2415 6.8373 -2.1850 0.9543
9.1989 6.8943 -2.1850 0.9543
9.1560 6.9510 -2.1850 0.9543
9.0253 7.1195 -2.1849 0.9543
8.9810 7.1751 -2.1849 0.9543
8.8461 7.3403 -2.1849 0.9543
8.8005 7.3947 -2.1848 0.9543
8.7545 7.4490 -2.1848 0.9543
8.6146 7.6099 -2.1848 0.9543
8.5673 7.6630 -2.1847 0.9543
8.5197 7.7158 -2.1847 0.9543
8.4717 7.7682 -2.1847 0.9543
8.4234 7.8204 -2.1847 0.9543
8.3748 7.8723 -2.1847 0.9543
8.2767 7.9751 -2.1846 0.9543
8.1773 8.0767 -2.1846 0.9543
8.1271 8.1271 -2.1846 0.9543
8.0258 8.2268 -2.1845 0.9543
7.9747 8.2763 -2.1845 0.9543
7.8716 8.3741 -2.1845 0.9543
7.8196 8.4226 -2.1845 0.9543
7.7673 8.4707 -2.1844 0.9543
7.6618 8.5660 -2.1844 0.9543
7.5552 8.6599 -2.1844 0.9543
7.5014 8.7064 -2.1844 0.9543
7.4474 8.7526 -2.1843 0.9543
7.3930 8.7984 -2.1843 0.9543
7.3384 8.8438 -2.1843 0.9543
7.2283 8.9338 -2.1843 0.9543
7.0612 9.0661 -2.1842 0.9543
7.0049 9.1095 -2.1842 0.9543
6.9484 9.1526 -2.1842 0.9543
6.8916 9.1954 -2.1842 0.9543
6.7773 9.2797 -2.1841 0.9543
6.7197 9.3214 -2.1841 0.9543
6.6619 9.3627 -2.1841 0.9543
6.6038 9.4036 -2.1841 0.9543
6.5454 9.4442 -2.1841 0.9543
6.4869 9.4844 -2.1840 0.9543
6.4280 9.5243 -2.1840 0.9543
6.3690 9.5638 -2.1840 0.9543
6.2501 9.6416 -2.1840 0.9543
6.1303 9.7181 -2.1839 0.9543
4.8882 7.8564 -1.7587 0.9630
4.4132 7.1917 -1.6038 0.9662
4.0276 7.0429 -1.5421 0.9675
3.9202 6.9546 -1.5174 0.9680
3.8154 7.0722 -1.5274 0.9678
3.7042 7.0742 -1.5178 0.9680
3.6492 7.0751 -1.5131 0.9681
3.4821 7.0701 -1.4980 0.9684
3.3787 7.0798 -1.4911 0.9686
3.3255 7.0808 -1.4869 0.9687
3.2201 7.0826 -1.4788 0.9688
3.1146 6.9646 -1.4501 0.9694
2.9987 7.0538 -1.4569 0.9693
2.9146 7.0986 -1.4585 0.9692
2.8725 7.1209 -1.4595 0.9692
2.7881 7.1658 -1.4615 0.9692
2.7458 7.1883 -1.4626 0.9692
2.7034 7.2109 -1.4637 0.9691
2.6609 7.2334 -1.4649 0.9691
2.5638 7.2446 -1.4607 0.9692
2.5417 7.4751 -1.5007 0.9684
2.4717 7.5751 -1.5145 0.9681
2.3641 7.7288 -1.5362 0.9676
2.3275 7.7810 -1.5437 0.9675
2.2137 7.9336 -1.5655 0.9670
2.1528 7.9039 -1.5570 0.9672
2.0981 7.8952 -1.5527 0.9673
2.0640 7.9651 -1.5639 0.9671
2.0733 8.2097 -1.6094 0.9661
2.0537 8.3492 -1.6342 0.9656
2.0240 8.4535 -1.6522 0.9652
1.9141 8.4552 -1.6478 0.9653
1.8594 8.4560 -1.6456 0.9654
1.3226 6.3905 -1.2404 0.9738
1.2818 6.3926 -1.2392 0.9738
1.2133 6.2512 -1.2104 0.9744
1.1777 6.2748 -1.2135 0.9743
1.1196 6.4007 -1.2351 0.9739
1.0791 6.4026 -1.2341 0.9739
1.0515 6.4832 -1.2484 0.9736
1.1013 7.0664 -1.3593 0.9713
0.9915 7.2423 -1.3894 0.9707
0.9460 7.2433 -1.3884 0.9707
0.8553 7.2452 -1.3867 0.9707
0.7647 7.2472 -1.3851 0.9708
0.7195 7.2481 -1.3844 0.9708
0.6744 7.2491 -1.3838 0.9708
0.5842 7.2511 -1.3827 0.9708
0.5392 7.2520 -1.3822 0.9708
0.4492 7.2539 -1.3814 0.9708
0.4042 7.2549 -1.3811 0.9708
0.1796 7.2598 -1.3803 0.9709
0.1347 7.2607 -1.3803 0.9709
0.0898 7.2617 -1.3803 0.9709
0.0449 7.2627 -1.3804 0.9709
0.0000 7.2636 -1.3806 0.9709
-0.0899 7.2656 -1.3811 0.9708
-0.1798 7.2675 -1.3818 0.9708
-0.3115 6.2919 -1.1974 0.9747
-0.3986 6.4365 -1.2257 0.9741
-0.4385 6.4367 -1.2263 0.9741
-0.4786 6.4369 -1.2268 0.9741
-0.5462 6.2926 -1.2005 0.9746
-0.7679 7.2772 -1.3909 0.9706
-0.4348 3.8901 -0.7440 0.9842
-0.4558 3.8613 -0.7390 0.9843
-0.4774 3.8398 -0.7355 0.9844
-0.5689 3.8046 -0.7312 0.9845
-0.6181 3.8111 -0.7338 0.9844
-1.3673 7.2852 -1.4089 0.9703
-1.4142 7.2859 -1.4107 0.9702
-1.4611 7.2865 -1.4125 0.9702
-1.6027 7.2884 -1.4184 0.9701
-1.7455 7.2903 -1.4248 0.9699
-1.8414 7.2916 -1.4294 0.9698
-1.8896 7.2922 -1.4318 0.9698
-1.9203 7.0502 -1.3888 0.9707
-1.9184 6.4134 -1.2724 0.9731
-1.9612 6.4117 -1.2744 0.9731
-2.0041 6.4100 -1.2765 0.9730
-2.0253 6.2070 -1.2410 0.9738
-1.5698 4.4360 -0.8944 0.9810
-1.5665 4.3409 -0.8772 0.9814
-1.5746 4.2803 -0.8669 0.9816
-1.6001 4.2681 -0.8664 0.9816
-1.6182 4.1590 -0.8482 0.9820
-1.6194 4.0873 -0.8356 0.9823
-1.6241 3.8203 -0.7890 0.9832
-1.6262 3.6976 -0.7678 0.9837
-1.6292 3.5255 -0.7382 0.9843
-1.6302 3.4710 -0.7289 0.9845
-1.5970 3.2939 -0.6958 0.9852
-1.5917 3.1821 -0.6763 0.9856
-1.5925 3.1351 -0.6684 0.9858
-1.6084 3.1184 -0.6669 0.9858
-1.6475 3.1464 -0.6751 0.9856
-1.6952 3.1423 -0.6786 0.9856
-4.0641 7.2098 -1.5731 0.9669
-4.1236 7.2108 -1.5788 0.9667
-4.1836 7.2119 -1.5847 0.9666
-2.7663 4.4460 -0.9953 0.9789
-2.8704 4.4886 -1.0127 0.9785
-2.9501 4.4899 -1.0211 0.9784
-3.2404 4.4950 -1.0532 0.9777
-3.2834 4.4958 -1.0581 0.9776
-3.3268 4.4965 -1.0631 0.9775
-3.3706 4.4973 -1.0682 0.9774
-3.5501 4.5004 -1.0895 0.9769
-3.6426 4.5020 -1.1007 0.9767
-3.6896 4.5029 -1.1065 0.9766
-3.7370 4.5037 -1.1123 0.9765
-3.9822 4.5080 -1.1433 0.9758
-4.0842 4.5097 -1.1564 0.9755
-4.1886 4.5116 -1.1701 0.9752
-4.2417 4.5125 -1.1771 0.9751
-4.2955 4.5134 -1.1843 0.9749
-4.3499 4.5144 -1.1916 0.9748
-4.5745 4.5183 -1.2221 0.9742
-4.6912 4.5203 -1.2383 0.9738
-4.8111 4.5224 -1.2550 0.9735
-4.8750 4.5261 -1.2644 0.9733
-4.8791 4.4739 -1.2582 0.9734
-4.9039 4.3863 -1.2505 0.9736
-4.9226 4.3486 -1.2484 0.9736
-4.9236 4.2955 -1.2419 0.9737
-4.9254 4.1909 -1.2292 0.9740
-4.9263 4.1394 -1.2230 0.9741
-4.9272 4.0884 -1.2169 0.9743
-4.9289 3.9880 -1.2051 0.9745
-4.9298 3.9385 -1.1993 0.9746
-4.9307 3.8895 -1.1937 0.9748
-4.9112 3.8251 -1.1832 0.9750
-4.9179 3.7817 -1.1792 0.9751
-4.8893 3.7118 -1.1668 0.9753
-4.8909 3.6186 -1.1564 0.9755
-4.9932 3.6467 -1.1752 0.9751
-9.3523 6.6545 -2.1817 0.9543
-9.3540 6.5689 -2.1725 0.9545
-9.3558 6.4842 -2.1636 0.9547
-9.3577 6.4002 -2.1548 0.9549
-9.3614 6.2341 -2.1378 0.9552
-9.3632 6.1521 -2.1295 0.9554
-9.7164 6.1291 -2.1835 0.9543
-9.8283 5.9478 -2.1835 0.9543
-9.9011 5.8257 -2.1835 0.9543
-9.9723 5.7028 -2.1835 0.9543
-10.0420 5.5790 -2.1835 0.9543
-10.1102 5.4543 -2.1835 0.9543
-10.1437 5.3916 -2.1835 0.9543
-10.2738 5.1391 -2.1834 0.9543
-10.3054 5.0754 -2.1834 0.9543
-10.3365 5.0116 -2.1834 0.9543
-10.4277 4.8189 -2.1834 0.9543
-10.4865 4.6896 -2.1834 0.9543
-10.5437 4.5596 -2.1834 0.9543
-10.5717 4.4943 -2.1834 0.9543
-10.7056 4.1653 -2.1834 0.9543
-10.7563 4.0325 -2.1834 0.9543
-10.7810 3.9659 -2.1834 0.9543
-10.8292 3.8322 -2.1834 0.9543
-10.8528 3.7653 -2.1834 0.9543
-10.8758 3.6981 -2.1834 0.9543
-10.8985 3.6308 -2.1834 0.9543
-10.9208 3.5633 -2.1834 0.9543
-10.9640 3.4279 -2.1834 0.9543
-10.9850 3.3601 -2.1834 0.9543
-11.0055 3.2921 -2.1834 0.9543
-5.4214 1.5127 -1.0698 0.9773
-5.4175 1.4756 -1.0672 0.9774
-5.4101 1.4019 -1.0623 0.9775
-5.4065 1.3654 -1.0599 0.9776
-5.3965 1.2568 -1.0532 0.9777
-5.3902 1.1853 -1.0490 0.9778
-5.3816 1.0791 -1.0433 0.9779
-5.3790 1.0440 -1.0415 0.9779
-5.3764 1.0091 -1.0397 0.9780
-5.3715 0.9395 -1.0365 0.9780
-5.3692 0.9049 -1.0349 0.9781
-5.3669 0.8704 -1.0334 0.9781
-5.3627 0.8018 -1.0306 0.9782
-5.3589 0.7336 -1.0281 0.9782
-5.3571 0.6997 -1.0269 0.9782
-5.3554 0.6658 -1.0257 0.9783
-5.3509 0.5646 -1.0227 0.9783
-5.3495 0.5311 -1.0218 0.9783
-5.3482 0.4976 -1.0209 0.9784
-5.3470 0.4641 -1.0201 0.9784
-5.3440 0.3641 -1.0181 0.9784
-5.3423 0.2977 -1.0170 0.9784
-5.3410 0.2313 -1.0161 0.9785
-5.3405 0.1983 -1.0158 0.9785
-5.3401 0.1652 -1.0155 0.9785
-5.3397 0.1321 -1.0152 0.9785
-5.3394 0.0991 -1.0150 0.9785
-5.3392 0.0661 -1.0149 0.9785
-5.4272 -0.1343 -1.0737 0.9781
-5.4276 -0.1679 -1.0740 0.9781
-5.4309 -0.3363 -1.0761 0.9781
-5.4339 -0.4378 -1.0782 0.9780
-5.4363 -0.5057 -1.0798 0.9780
-5.4542 -0.8500 -1.0917 0.9777
-5.4565 -0.8850 -1.0933 0.9777
-5.4613 -0.9552 -1.0965 0.9776
-5.4666 -1.0260 -1.1000 0.9776
-5.4694 -1.0616 -1.1019 0.9775
-5.4753 -1.1332 -1.1058 0.9775
-5.4815 -1.2054 -1.1100 0.9774
-5.4848 -1.2417 -1.1122 0.9773
-5.4882 -1.2782 -1.1145 0.9773
-5.4917 -1.3149 -1.1168 0.9772
-5.4954 -1.3517 -1.1192 0.9772
-5.5068 -1.4634 -1.1269 0.9770
-5.5109 -1.5010 -1.1296 0.9770
-5.5151 -1.5388 -1.1324 0.9769
-11.3561 -3.2446 -2.3358 0.9530
-11.3358 -3.3147 -2.3358 0.9530
-11.3151 -3.3848 -2.3358 0.9530
-11.2940 -3.4547 -2.3358 0.9530
-11.2724 -3.5245 -2.3358 0.9530
-11.2504 -3.5941 -2.3358 0.9530
-11.1817 -3.8022 -2.3358 0.9530
-11.1339 -3.9402 -2.3358 0.9530
-11.1093 -4.0089 -2.3358 0.9530
-11.0843 -4.0776 -2.3358 0.9530
-11.0588 -4.1461 -2.3358 0.9530
-11.0330 -4.2144 -2.3358 0.9530
-10.9254 -4.4859 -2.3358 0.9530
-10.8974 -4.5534 -2.3358 0.9530
-10.8691 -4.6207 -2.3358 0.9530
-10.7815 -4.8216 -2.3358 0.9530
-10.7515 -4.8881 -2.3358 0.9530
-10.6902 -5.0208 -2.3358 0.9530
-10.6589 -5.0868 -2.3358 0.9530
-10.6273 -5.1526 -2.3358 0.9530
-10.5952 -5.2182 -2.3358 0.9530
-10.5627 -5.2836 -2.3358 0.9530
-10.4288 -5.5433 -2.3358 0.9530
-10.3943 -5.6076 -2.3358 0.9530
-10.3594 -5.6719 -2.3358 0.9530
-10.2160 -5.9263 -2.3358 0.9530
-10.0663 -6.1772 -2.3358 0.9530
-10.0279 -6.2394 -2.3358 0.9530
-9.9891 -6.3012 -2.3358 0.9530
-9.8705 -6.4855 -2.3358 0.9530
-9.8302 -6.5464 -2.3358 0.9530
-9.7071 -6.7276 -2.3358 0.9530
-9.6653 -6.7875 -2.3358 0.9530
-9.6231 -6.8472 -2.3358 0.9530
-9.5806 -6.9066 -2.3358 0.9530
-9.5377 -6.9657 -2.3358 0.9530
-9.4944 -7.0245 -2.3358 0.9530
-9.4508 -7.0831 -2.3358 0.9530
-9.4068 -7.1414 -2.3358 0.9530
-9.2727 -7.3147 -2.3358 0.9530
-9.1815 -7.4288 -2.3358 0.9530
-9.1354 -7.4854 -2.3358 0.9530
-9.0890 -7.5418 -2.3358 0.9530
-9.0421 -7.5978 -2.3358 0.9530
-8.9950 -7.6537 -2.3358 0.9530
-8.9475 -7.7091 -2.3358 0.9530
-8.8996 -7.7643 -2.3358 0.9530
-8.8514 -7.8192 -2.3358 0.9530
-8.8029 -7.8738 -2.3358 0.9530
-8.7049 -7.9821 -2.3358 0.9530
-8.5553 -8.1422 -2.3358 0.9530
-8.0357 -8.6554 -2.3358 0.9530
-7.8738 -8.8029 -2.3358 0.9530
-7.8192 -8.8515 -2.3358 0.9530
-7.6536 -8.9950 -2.3358 0.9530
-7.5418 -9.0890 -2.3358 0.9530
-7.4854 -9.1354 -2.3358 0.9530
-7.4288 -9.1816 -2.3358 0.9530
-7.3147 -9.2727 -2.3358 0.9530
-7.2572 -9.3178 -2.3358 0.9530
-7.0831 -9.4509 -2.3358 0.9530
-6.9656 -9.5377 -2.3358 0.9530
-6.9065 -9.5806 -2.3358 0.9530
-6.8471 -9.6231 -2.3358 0.9530
-6.6674 -9.7485 -2.3358 0.9530
-6.4243 -9.9104 -2.3358 0.9530
-6.1772 -10.0663 -2.3358 0.9530
-6.1148 -10.1043 -2.3358 0.9530
-5.9894 -10.1792 -2.3358 0.9530
-5.8630 -10.2525 -2.3358 0.9530
-5.7358 -10.3242 -2.3358 0.9530
-5.6076 -10.3944 -2.3358 0.9530
-5.5432 -10.4288 -2.3358 0.9530
-5.4138 -10.4966 -2.3358 0.9530
-5.2836 -10.5628 -2.3358 0.9530
-5.0867 -10.6589 -2.3358 0.9530
-5.0207 -10.6902 -2.3358 0.9530
-4.9545 -10.7210 -2.3358 0.9530
-4.7548 -10.8111 -2.3358 0.9530
-4.6207 -10.8691 -2.3358 0.9530
-4.4859 -10.9254 -2.3358 0.9530
-4.0775 -11.0843 -2.3358 0.9530
-3.8021 -11.1818 -2.3358 0.9530
-3.7329 -11.2051 -2.3358 0.9530
-3.5940 -11.2504 -2.3358 0.9530
-3.3847 -11.3151 -2.3358 0.9530
-3.3147 -11.3358 -2.3358 0.9530
-3.1038 -11.3954 -2.3358 0.9530
-2.9626 -11.4329 -2.3358 0.9530
-2.8919 -11.4510 -2.3358 0.9530
-2.7500 -11.4859 -2.3358 0.9530
-2.6077 -11.5190 -2.3358 0.9530
-2.5364 -11.5349 -2.3358 0.9530
-2.4651 -11.5504 -2.3358 0.9530
-2.3936 -11.5654 -2.3358 0.9530
-2.3220 -11.5800 -2.3358 0.9530
-2.1786 -11.6079 -2.3358 0.9530
-2.1068 -11.6211 -2.3358 0.9530
-1.8908 -11.6582 -2.3358 0.9530
-1.8187 -11.6696 -2.3358 0.9530
-1.6742 -11.6912 -2.3358 0.9530
-1.6019 -11.7014 -2.3358 0.9530
-1.2394 -11.7453 -2.3358 0.9530
-1.1667 -11.7528 -2.3358 0.9530
-1.0940 -11.7597 -2.3358 0.9530
-1.0213 -11.7663 -2.3358 0.9530
-0.9485 -11.7724 -2.3358 0.9530
-0.8028 -11.7832 -2.3358 0.9530
-0.5841 -11.7961 -2.3358 0.9530
-0.5111 -11.7995 -2.3358 0.9530
-0.3651 -11.8049 -2.3358 0.9530
-0.2191 -11.8085 -2.3358 0.9530
-0.1461 -11.8096 -2.3358 0.9530
0.0000 -11.8105 -2.3358 0.9530
0.2921 -11.8069 -2.3358 0.9530
0.5111 -11.7995 -2.3358 0.9530
1.4571 -11.7203 -2.3358 0.9530
1.6019 -11.7014 -2.3358 0.9530
1.7465 -11.6807 -2.3358 0.9530
1.8187 -11.6696 -2.3358 0.9530
1.8908 -11.6582 -2.3358 0.9530
2.0349 -11.6339 -2.3358 0.9530
2.1068 -11.6211 -2.3358 0.9530
2.1786 -11.6078 -2.3358 0.9530
2.3220 -11.5800 -2.3358 0.9530
2.4651 -11.5504 -2.3358 0.9530
2.6077 -11.5190 -2.3358 0.9530
2.6789 -11.5027 -2.3358 0.9530
2.8210 -11.4687 -2.3358 0.9530
3.0333 -11.4144 -2.3358 0.9530
3.3147 -11.3359 -2.3358 0.9530
3.3847 -11.3151 -2.3358 0.9530
3.4546 -11.2940 -2.3358 0.9530
3.5244 -11.2724 -2.3358 0.9530
3.5940 -11.2504 -2.3358 0.9530
3.6635 -11.2280 -2.3358 0.9530
3.7329 -11.2051 -2.3358 0.9530
3.8021 -11.1818 -2.3358 0.9530
3.8712 -11.1580 -2.3358 0.9530
4.1460 -11.0589 -2.3358 0.9530
4.2825 -11.0068 -2.3358 0.9530
4.3504 -10.9800 -2.3358 0.9530
4.4183 -10.9529 -2.3358 0.9530
4.4859 -10.9254 -2.3358 0.9530
4.5534 -10.8975 -2.3358 0.9530
4.6878 -10.8403 -2.3358 0.9530
4.8881 -10.7515 -2.3358 0.9530
5.0207 -10.6902 -2.3358 0.9530
5.1526 -10.6273 -2.3358 0.9530
5.2182 -10.5953 -2.3358 0.9530
5.4138 -10.4966 -2.3358 0.9530
5.4787 -10.4629 -2.3358 0.9530
5.5432 -10.4288 -2.3358 0.9530
5.6076 -10.3943 -2.3358 0.9530
5.7358 -10.3242 -2.3358 0.9530
5.7995 -10.2885 -2.3358 0.9530
5.8630 -10.2525 -2.3358 0.9530
6.0522 -10.1419 -2.3358 0.9530
6.1148 -10.1043 -2.3358 0.9530
6.1772 -10.0663 -2.3358 0.9530
6.2393 -10.0279 -2.3358 0.9530
6.3012 -9.9891 -2.3358 0.9530
6.6070 -9.7896 -2.3358 0.9530
6.7875 -9.6653 -2.3358 0.9530
6.9065 -9.5806 -2.3358 0.9530
6.9656 -9.5377 -2.3358 0.9530
7.0245 -9.4945 -2.3358 0.9530
7.0831 -9.4508 -2.3358 0.9530
7.1994 -9.3625 -2.3358 0.9530
7.2572 -9.3178 -2.3358 0.9530
7.3147 -9.2727 -2.3358 0.9530
7.3719 -9.2273 -2.3358 0.9530
7.4288 -9.1816 -2.3358 0.9530
7.5418 -9.0890 -2.3358 0.9530
7.5978 -9.0422 -2.3358 0.9530
7.6536 -8.9950 -2.3358 0.9530
7.7091 -8.9475 -2.3358 0.9530
7.8738 -8.8029 -2.3358 0.9530
7.9281 -8.7541 -2.3358 0.9530
7.9820 -8.7049 -2.3358 0.9530
8.0891 -8.6055 -2.3358 0.9530
8.1952 -8.5048 -2.3358 0.9530
8.2998 -8.4028 -2.3358 0.9530
8.3516 -8.3513 -2.3358 0.9530
8.4028 -8.2995 -2.3358 0.9530
8.5553 -8.1422 -2.3358 0.9530
8.6055 -8.0891 -2.3358 0.9530
8.6553 -8.0357 -2.3358 0.9530
8.7049 -7.9821 -2.3358 0.9530
8.7541 -7.9281 -2.3358 0.9530
8.8029 -7.8738 -2.3358 0.9530
8.8996 -7.7643 -2.3358 0.9530
8.9950 -7.6536 -2.3358 0.9530
9.1354 -7.4855 -2.3358 0.9530
9.1815 -7.4288 -2.3358 0.9530
9.2273 -7.3719 -2.3358 0.9530
9.2727 -7.3147 -2.3358 0.9530
9.3625 -7.1994 -2.3358 0.9530
9.4508 -7.0831 -2.3358 0.9530
9.6653 -6.7876 -2.3358 0.9530
9.7071 -6.7276 -2.3358 0.9530
9.7485 -6.6675 -2.3358 0.9530
9.7895 -6.6071 -2.3358 0.9530
9.8302 -6.5464 -2.3358 0.9530
9.8705 -6.4855 -2.3358 0.9530
9.9104 -6.4243 -2.3358 0.9530
9.9499 -6.3629 -2.3358 0.9530
9.9891 -6.3012 -2.3358 0.9530
10.0279 -6.2393 -2.3358 0.9530
10.1791 -5.9894 -2.3358 0.9530
10.2160 -5.9264 -2.3358 0.9530
10.2885 -5.7996 -2.3358 0.9530
10.3594 -5.6718 -2.3358 0.9530
10.3943 -5.6077 -2.3358 0.9530
10.4966 -5.4139 -2.3358 0.9530
10.5627 -5.2836 -2.3358 0.9530
10.5952 -5.2182 -2.3358 0.9530
10.6902 -5.0208 -2.3358 0.9530
10.7210 -4.9545 -2.3358 0.9530
10.7815 -4.8216 -2.3358 0.9530
10.8691 -4.6207 -2.3358 0.9530
10.8974 -4.5534 -2.3358 0.9530
10.9254 -4.4859 -2.3358 0.9530
10.9529 -4.4183 -2.3358 0.9530
10.9800 -4.3505 -2.3358 0.9530
11.0067 -4.2825 -2.3358 0.9530
11.0330 -4.2143 -2.3358 0.9530
11.0588 -4.1460 -2.3358 0.9530
11.1580 -3.8712 -2.3358 0.9530
11.2050 -3.7329 -2.3358 0.9530
11.3151 -3.3847 -2.3358 0.9530
11.3358 -3.3147 -2.3358 0.9530
11.3561 -3.2445 -2.3358 0.9530
11.3954 -3.1038 -2.3358 0.9530
11.4329 -2.9626 -2.3358 0.9530
11.4686 -2.8210 -2.3358 0.9530
11.4859 -2.7500 -2.3358 0.9530
11.5026 -2.6789 -2.3358 0.9530
11.5504 -2.4651 -2.3358 0.9530
11.5800 -2.3221 -2.3358 0.9530
11.6078 -2.1787 -2.3358 0.9530
11.6211 -2.1068 -2.3358 0.9530
11.6339 -2.0349 -2.3358 0.9530
11.6462 -1.9629 -2.3358 0.9530
11.7110 -1.5295 -2.3358 0.9530
11.7203 -1.4571 -2.3358 0.9530
11.7290 -1.3846 -2.3358 0.9530
11.7662 -1.0213 -2.3358 0.9530
11.7723 -0.9485 -2.3358 0.9530
11.7994 -0.5111 -2.3358 0.9530
11.8069 -0.2922 -2.3358 0.9530
11.8085 -0.2192 -2.3358 0.9530
11.8096 -0.1461 -2.3358 0.9530
11.8105 -0.0000 -2.3358 0.9530
11.8103 0.0730 -2.3358 0.9530
11.8096 0.1461 -2.3358 0.9530
11.8084 0.2191 -2.3358 0.9530
11.8069 0.2921 -2.3358 0.9530
11.8024 0.4381 -2.3358 0.9530
11.7994 0.5111 -2.3358 0.9530
11.7922 0.6570 -2.3358 0.9530
11.7879 0.7299 -2.3358 0.9530
11.7832 0.8028 -2.3358 0.9530
11.7527 1.1667 -2.3358 0.9530
11.7453 1.2393 -2.3358 0.9530
11.7291 1.3845 -2.3358 0.9530
11.2596 1.4705 -2.2458 0.9548
10.9082 1.7000 -2.1834 0.9560
10.8975 1.7674 -2.1834 0.9560
10.8748 1.9021 -2.1834 0.9560
10.8628 1.9693 -2.1834 0.9560
10.8505 2.0365 -2.1834 0.9560
10.7674 2.4376 -2.1834 0.9560
10.7522 2.5041 -2.1834 0.9560
10.7365 2.5706 -2.1834 0.9560
10.6696 2.8353 -2.1834 0.9560
10.6337 2.9671 -2.1834 0.9560
10.6152 3.0328 -2.1834 0.9560
10.5768 3.1638 -2.1834 0.9560
10.5571 3.2292 -2.1834 0.9560
10.5163 3.3595 -2.1834 0.9560
10.4300 3.6186 -2.1834 0.9560
10.3728 3.8158 -2.1859 0.9559
10.3489 3.8798 -2.1859 0.9559
10.2749 4.0710 -2.1858 0.9559
10.2494 4.1345 -2.1858 0.9559
10.2236 4.1977 -2.1858 0.9559
10.1973 4.2608 -2.1858 0.9559
10.1437 4.3866 -2.1857 0.9559
10.0603 4.5738 -2.1857 0.9559
10.0317 4.6359 -2.1856 0.9559
10.0028 4.6979 -2.1856 0.9559
9.8832 4.9437 -2.1856 0.9559
9.7895 5.1260 -2.1855 0.9559
9.6925 5.3067 -2.1854 0.9559
9.6260 5.4261 -2.1854 0.9559
9.5234 5.6035 -2.1854 0.9559
9.4532 5.7208 -2.1853 0.9559
9.3816 5.8372 -2.1853 0.9559
9.3085 5.9527 -2.1852 0.9559
9.2715 6.0101 -2.1852 0.9559
9.2340 6.0672 -2.1852 0.9559
9.1197 6.2373 -2.1852 0.9559
9.0417 6.3496 -2.1851 0.9559
8.9623 6.4608 -2.1851 0.9560
8.9221 6.5160 -2.1851 0.9560
8.7579 6.7345 -2.1850 0.9560
8.6738 6.8422 -2.1849 0.9560
8.5883 6.9488 -2.1849 0.9560
8.4136 7.1589 -2.1848 0.9560
8.3242 7.2623 -2.1848 0.9560
8.2336 7.3646 -2.1848 0.9560
8.1879 7.4153 -2.1847 0.9560
8.0954 7.5158 -2.1847 0.9560
8.0487 7.5657 -2.1847 0.9560
7.8588 7.7622 -2.1846 0.9560
7.8106 7.8106 -2.1846 0.9560
7.7621 7.8587 -2.1846 0.9560
7.7133 7.9065 -2.1846 0.9560
7.6148 8.0011 -2.1845 0.9560
7.4143 8.1868 -2.1845 0.9560
7.3124 8.2777 -2.1844 0.9560
7.2610 8.3227 -2.1844 0.9560
7.1574 8.4118 -2.1844 0.9560
7.1052 8.4558 -2.1844 0.9560
7.0527 8.4995 -2.1843 0.9560
6.9999 8.5429 -2.1843 0.9560
6.7863 8.7131 -2.1843 0.9560
6.7322 8.7549 -2.1842 0.9560
6.5685 8.8780 -2.1842 0.9560
6.4581 8.9585 -2.1842 0.9560
6.4025 8.9982 -2.1841 0.9560
6.3467 9.0375 -2.1841 0.9560
6.2906 9.0765 -2.1841 0.9560
6.0068 9.2663 -2.1840 0.9560
5.8916 9.3398 -2.1840 0.9560
4.8882 7.8564 -1.8300 0.9630
4.4132 7.1917 -1.6688 0.9662
4.2748 7.1635 -1.6498 0.9666
4.1909 7.1225 -1.6344 0.9669
4.0276 7.0429 -1.6046 0.9675
3.9202 6.9546 -1.5789 0.9680
3.8616 6.9508 -1.5726 0.9681
3.8154 7.0722 -1.5893 0.9678
3.4322 7.0789 -1.5559 0.9684
3.3255 7.0808 -1.5472 0.9686
3.2727 7.0817 -1.5429 0.9687
3.1146 6.9646 -1.5089 0.9694
2.6609 7.2334 -1.5243 0.9691
2.6075 7.2258 -1.5193 0.9692
2.5638 7.2446 -1.5199 0.9692
2.5069 7.5248 -1.5686 0.9682
2.4361 7.6259 -1.5833 0.9679
2.3853 7.6292 -1.5809 0.9679
2.3641 7.7288 -1.5985 0.9676
2.2533 7.8870 -1.6223 0.9671
2.2137 7.9336 -1.6290 0.9670
2.1528 7.9039 -1.6201 0.9671
2.0981 7.8952 -1.6157 0.9672
2.0640 7.9651 -1.6273 0.9670
2.0733 8.2097 -1.6747 0.9661
2.0537 8.3492 -1.7005 0.9655
2.0240 8.4535 -1.7192 0.9652
1.8594 8.4560 -1.7123 0.9653
1.8049 8.4570 -1.7102 0.9654
1.2048 6.0086 -1.2120 0.9753
1.1737 6.0471 -1.2183 0.9752
1.1118 6.3562 -1.2762 0.9740
1.0716 6.3581 -1.2752 0.9741
1.0954 6.7537 -1.3532 0.9725
1.0826 7.2403 -1.4479 0.9706
1.0370 7.2413 -1.4468 0.9706
0.8100 7.2462 -1.4420 0.9707
0.7647 7.2472 -1.4413 0.9707
0.6293 7.2501 -1.4393 0.9708
0.5842 7.2511 -1.4387 0.9708
0.4492 7.2539 -1.4374 0.9708
0.4042 7.2549 -1.4371 0.9708
0.3593 7.2559 -1.4368 0.9708
0.3143 7.2569 -1.4366 0.9708
0.2694 7.2578 -1.4364 0.9708
0.0449 7.2627 -1.4364 0.9708
0.0000 7.2636 -1.4366 0.9708
-0.1977 6.3916 -1.2647 0.9743
-0.2373 6.3919 -1.2650 0.9743
-0.3031 6.1207 -1.2120 0.9753
-0.3561 6.3921 -1.2662 0.9742
-0.3958 6.3921 -1.2666 0.9742
-0.4753 6.3924 -1.2678 0.9742
-0.5150 6.3926 -1.2684 0.9742
-0.5947 6.3929 -1.2698 0.9742
-0.6746 6.3928 -1.2714 0.9741
-0.4558 3.8611 -0.7689 0.9843
-0.4996 3.8251 -0.7629 0.9844
-0.5453 3.8081 -0.7608 0.9844
-0.5688 3.8044 -0.7608 0.9844
-0.5931 3.8058 -0.7618 0.9844
-0.6434 3.8175 -0.7656 0.9843
-0.7017 3.8704 -0.7779 0.9841
-1.3673 7.2852 -1.4660 0.9702
-1.4142 7.2859 -1.4679 0.9702
-1.4611 7.2865 -1.4698 0.9702
-1.5081 7.2871 -1.4718 0.9701
-1.5553 7.2878 -1.4738 0.9701
-1.6977 7.2896 -1.4803 0.9699
-1.8414 7.2916 -1.4874 0.9698
-1.9203 7.0502 -1.4451 0.9706
-1.9252 6.7385 -1.3860 0.9718
-1.8908 6.4665 -1.3325 0.9729
-1.9047 6.3675 -1.3145 0.9733
-1.9472 6.3658 -1.3166 0.9732
-1.9897 6.3640 -1.3187 0.9732
-2.0324 6.3622 -1.3209 0.9731
-2.0439 6.1352 -1.2790 0.9740
-2.1613 6.3564 -1.3278 0.9730
-1.5665 4.3409 -0.9127 0.9814
-1.5746 4.2803 -0.9020 0.9816
-1.6001 4.2681 -0.9015 0.9816
-1.6169 4.2330 -0.8962 0.9817
-1.6218 3.9500 -0.8445 0.9827
-1.6230 3.8842 -0.8326 0.9830
-1.6241 3.8203 -0.8210 0.9832
-1.6262 3.6976 -0.7989 0.9837
-1.6273 3.6387 -0.7883 0.9839
-1.6292 3.5255 -0.7681 0.9843
-1.6302 3.4710 -0.7584 0.9845
-1.5970 3.2939 -0.7240 0.9852
-1.5909 3.2302 -0.7121 0.9854
-1.5917 3.1821 -0.7037 0.9856
-1.5925 3.1351 -0.6955 0.9858
-1.6084 3.1184 -0.6940 0.9858
-1.6475 3.1464 -0.7024 0.9856
-1.6726 3.1468 -0.7048 0.9856
-1.6952 3.1423 -0.7061 0.9855
-1.7083 3.1202 -0.7035 0.9856
-4.0641 7.2098 -1.6368 0.9668
-4.1836 7.2119 -1.6489 0.9666
-2.7393 4.4639 -1.0358 0.9789
-2.7663 4.4459 -1.0356 0.9789
-2.9101 4.4893 -1.0581 0.9784
-2.9501 4.4899 -1.0625 0.9783
-2.9905 4.4906 -1.0671 0.9782
-3.0313 4.4914 -1.0717 0.9781
-3.0723 4.4921 -1.0763 0.9781
-3.1138 4.4928 -1.0811 0.9780
-3.1556 4.4935 -1.0860 0.9779
-3.3268 4.4965 -1.1062 0.9775
-3.3706 4.4973 -1.1115 0.9773
-3.4148 4.4981 -1.1169 0.9772
-3.4594 4.4988 -1.1224 0.9771
-3.5045 4.4996 -1.1280 0.9770
-3.6426 4.5020 -1.1453 0.9767
-3.7370 4.5037 -1.1574 0.9764
-3.7693 4.4858 -1.1588 0.9764
-3.8630 4.4835 -1.1705 0.9762
-4.0329 4.5088 -1.1964 0.9756
-4.0842 4.5097 -1.2033 0.9755
-4.1886 4.5116 -1.2175 0.9752
-4.2955 4.5134 -1.2323 0.9749
-4.3499 4.5144 -1.2399 0.9748
-4.6912 4.5203 -1.2884 0.9738
-4.8750 4.5261 -1.3156 0.9732
-4.8791 4.4739 -1.3092 0.9734
-4.9720 4.5029 -1.3267 0.9730
-4.9245 4.2429 -1.2856 0.9738
-4.9254 4.1909 -1.2790 0.9740
-4.9263 4.1394 -1.2726 0.9741
-4.9281 4.0380 -1.2600 0.9744
-4.9289 3.9880 -1.2539 0.9745
-4.9298 3.9385 -1.2479 0.9746
-4.9112 3.8251 -1.2312 0.9749
-4.9179 3.7817 -1.2269 0.9750
-4.8893 3.7118 -1.2140 0.9753
-4.8901 3.6650 -1.2086 0.9754
-4.9932 3.6467 -1.2229 0.9751
-9.0744 6.2891 -2.1836 0.9560
-9.1514 6.1764 -2.1836 0.9560
-9.2271 6.0627 -2.1836 0.9560
-9.2644 6.0054 -2.1836 0.9560
-9.4455 5.7161 -2.1835 0.9560
-9.5154 5.5988 -2.1835 0.9560
-9.5498 5.5398 -2.1835 0.9560
-9.5838 5.4806 -2.1835 0.9560
-9.6175 5.4213 -2.1835 0.9560
-9.6508 5.3616 -2.1835 0.9560
-9.6838 5.3018 -2.1835 0.9560
-9.8118 5.0606 -2.1834 0.9560
-9.8429 4.9999 -2.1834 0.9560
-9.9039 4.8777 -2.1834 0.9560
-9.9339 4.8163 -2.1834 0.9560
-9.9635 4.7548 -2.1834 0.9560
-9.9926 4.6931 -2.1834 0.9560
-10.0216 4.6312 -2.1834 0.9560
-10.1057 4.4445 -2.1834 0.9560
-10.1599 4.3192 -2.1834 0.9560
-10.1865 4.2563 -2.1834 0.9560
-10.2126 4.1932 -2.1834 0.9560
-10.2383 4.1300 -2.1834 0.9560
-10.2637 4.0666 -2.1834 0.9560
-10.3374 3.8755 -2.1834 0.9560
-10.3611 3.8114 -2.1834 0.9560
-10.4522 3.5540 -2.1834 0.9560
-10.5571 3.2292 -2.1834 0.9560
-10.5962 3.0984 -2.1834 0.9560
-10.6152 3.0328 -2.1834 0.9560
-5.5068 1.4634 -1.1269 0.9770
-5.4917 1.3149 -1.1168 0.9772
-5.4882 1.2782 -1.1145 0.9773
-5.4815 1.2054 -1.1100 0.9774
-5.4784 1.1692 -1.1079 0.9774
-5.4753 1.1332 -1.1058 0.9775
-5.4723 1.0973 -1.1038 0.9775
-5.4694 1.0616 -1.1019 0.9775
-5.4639 0.9906 -1.0982 0.9776
-5.4613 0.9553 -1.0965 0.9776
-5.4542 0.8500 -1.0917 0.9777
-5.4520 0.8152 -1.0903 0.9778
-5.4499 0.7804 -1.0888 0.9778
-5.4424 0.6424 -1.0838 0.9779
-5.4407 0.6081 -1.0827 0.9779
-5.4377 0.5398 -1.0807 0.9780
-5.4364 0.5057 -1.0798 0.9780
-5.4351 0.4717 -1.0790 0.9780
-5.4339 0.4378 -1.0782 0.9780
-5.4318 0.3701 -1.0768 0.9780
-5.4309 0.3363 -1.0761 0.9781
-5.4293 0.2688 -1.0751 0.9781
-5.4281 0.2015 -1.0743 0.9781
-5.4276 0.1679 -1.0740 0.9781
-5.4272 0.1343 -1.0737 0.9781
-5.4269 0.1007 -1.0735 0.9781
-5.4265 0.0336 -1.0733 0.9781
-5.5171 0.0000 -1.1338 0.9777
-5.5172 -0.0341 -1.1338 0.9777
-5.5173 -0.0682 -1.1339 0.9777
-5.5175 -0.1024 -1.1341 0.9777
-5.5179 -0.1365 -1.1343 0.9777
-5.5183 -0.1707 -1.1346 0.9777
-5.5188 -0.2049 -1.1349 0.9777
-5.5194 -0.2391 -1.1353 0.9777
-5.5209 -0.3076 -1.1363 0.9777
-5.5228 -0.3763 -1.1376 0.9776
-5.5239 -0.4107 -1.1383 0.9776
-5.5263 -0.4797 -1.1399 0.9776
-5.5277 -0.5143 -1.1409 0.9776
-5.5307 -0.5836 -1.1429 0.9775
-5.5324 -0.6184 -1.1440 0.9775
-5.5360 -0.6882 -1.1464 0.9775
-5.5380 -0.7233 -1.1477 0.9775
-5.5401 -0.7584 -1.1491 0.9774
-5.5479 -0.8998 -1.1550 0.9773
-5.5488 -0.9352 -1.1564 0.9773
-5.5498 -0.9707 -1.1578 0.9773
-5.5508 -1.0063 -1.1593 0.9772
-5.5518 -1.0420 -1.1608 0.9772
