ply
format ascii 1.0
element vertex 1549
property float32 x
property float32 y
property float32 z
property float32 I
end_header
3.4946 6.8795 -0.8802 0.9694
3.2332 6.9963 -0.8792 0.9694
3.1364 7.0134 -0.8764 0.9695
3.0883 7.0219 -0.8751 0.9696
3.0407 7.0315 -0.8739 0.9696
2.9987 7.0538 -0.8744 0.9696
2.9567 7.0762 -0.8749 0.9696
2.8725 7.1209 -0.8759 0.9696
2.7881 7.1658 -0.8771 0.9695
2.7034 7.2109 -0.8785 0.9695
2.6609 7.2334 -0.8792 0.9694
2.5831 7.2992 -0.8833 0.9693
2.5083 7.3767 -0.8888 0.9691
2.4705 7.4158 -0.8917 0.9690
2.4325 7.4552 -0.8946 0.9689
2.3170 7.5748 -0.9036 0.9686
2.2834 7.6335 -0.9089 0.9684
2.2513 7.6993 -0.9151 0.9682
2.1523 7.9022 -0.9343 0.9676
2.0923 8.0744 -0.9515 0.9670
2.0733 8.2097 -0.9659 0.9665
2.0537 8.3492 -0.9808 0.9660
2.0240 8.4535 -0.9916 0.9656
1.8594 8.4560 -0.9877 0.9657
1.8049 8.4568 -0.9864 0.9658
1.7504 8.4577 -0.9853 0.9658
1.6961 8.4585 -0.9841 0.9659
1.3473 6.9413 -0.8066 0.9719
1.2590 6.9447 -0.8051 0.9720
1.1710 6.9480 -0.8038 0.9720
1.1223 8.1979 -0.9439 0.9672
0.9951 8.4295 -0.9683 0.9664
0.8468 8.5305 -0.9779 0.9661
0.7937 8.5314 -0.9774 0.9661
0.6875 8.5333 -0.9766 0.9661
0.6345 8.5342 -0.9762 0.9661
0.5815 8.5351 -0.9759 0.9661
0.4227 8.5379 -0.9752 0.9662
0.3170 8.5397 -0.9749 0.9662
0.2113 8.5416 -0.9747 0.9662
0.1585 8.5425 -0.9747 0.9662
0.1057 8.5434 -0.9747 0.9662
0.0000 8.5453 -0.9748 0.9662
-0.1045 8.4522 -0.9643 0.9665
-0.1569 8.4558 -0.9648 0.9665
-0.1727 6.9796 -0.7965 0.9723
-0.2159 6.9801 -0.7966 0.9723
-0.2591 6.9805 -0.7969 0.9723
-0.3457 6.9812 -0.7974 0.9723
-0.4757 6.9823 -0.7984 0.9722
-0.5076 6.8269 -0.7809 0.9728
-0.5626 6.9832 -0.7992 0.9722
-0.6062 6.9836 -0.7997 0.9722
-0.6497 6.9840 -0.8001 0.9722
-0.8498 8.5601 -0.9813 0.9660
-0.9034 8.5610 -0.9820 0.9659
-0.4351 3.8928 -0.4468 0.9844
-0.4776 3.8418 -0.4416 0.9845
-0.5221 3.8139 -0.4391 0.9846
-0.5935 3.8080 -0.4397 0.9846
-0.6184 3.8131 -0.4407 0.9846
-0.6439 3.8205 -0.4420 0.9845
-0.6718 3.8408 -0.4448 0.9844
-0.7027 3.8761 -0.4494 0.9843
-1.6091 8.5734 -0.9951 0.9655
-1.6642 8.5743 -0.9964 0.9654
-1.7195 8.5753 -0.9977 0.9654
-1.8100 8.4808 -0.9892 0.9657
-1.8657 8.4846 -0.9910 0.9656
-1.9020 8.1666 -0.9565 0.9668
-1.9054 7.9584 -0.9335 0.9676
-1.9117 7.5700 -0.8907 0.9691
-1.8811 7.0787 -0.8355 0.9709
-1.9008 6.9787 -0.8251 0.9713
-1.9470 6.9780 -0.8264 0.9713
-1.9934 6.9772 -0.8278 0.9712
-2.0399 6.9763 -0.8292 0.9712
-2.0400 6.8199 -0.8121 0.9717
-2.1334 6.9745 -0.8320 0.9711
-2.7270 8.5363 -1.0223 0.9646
-2.7857 8.5374 -1.0245 0.9645
-2.8404 8.3536 -1.0065 0.9651
-1.5698 4.4360 -0.5368 0.9812
-1.5665 4.3409 -0.5265 0.9816
-1.5746 4.2803 -0.5203 0.9818
-1.6001 4.2681 -0.5200 0.9818
-1.6182 4.1590 -0.5091 0.9822
-1.6206 4.0176 -0.4942 0.9827
-1.6218 3.9499 -0.4871 0.9830
-1.6241 3.8203 -0.4735 0.9834
-1.6273 3.6387 -0.4547 0.9841
-1.6302 3.4710 -0.4375 0.9847
-1.6084 3.1184 -0.4003 0.9860
-1.6475 3.1464 -0.4052 0.9858
-1.6726 3.1468 -0.4065 0.9858
-1.6952 3.1423 -0.4073 0.9857
-1.7083 3.1202 -0.4058 0.9858
-3.9644 7.1358 -0.9312 0.9677
-4.0181 7.1283 -0.9335 0.9676
-4.0721 7.1207 -0.9357 0.9675
-4.1263 7.1130 -0.9381 0.9674
-2.6632 4.4628 -0.5928 0.9793
-2.6843 4.4356 -0.5914 0.9793
-2.7393 4.4639 -0.5975 0.9791
-2.7663 4.4460 -0.5973 0.9791
-2.8310 4.4879 -0.6053 0.9789
-2.8704 4.4886 -0.6078 0.9788
-2.9501 4.4899 -0.6129 0.9786
-3.0313 4.4914 -0.6181 0.9784
-3.0723 4.4921 -0.6208 0.9783
-3.1138 4.4928 -0.6236 0.9782
-3.1556 4.4935 -0.6264 0.9781
-3.1978 4.4943 -0.6292 0.9780
-3.2834 4.4958 -0.6351 0.9778
-3.3268 4.4965 -0.6381 0.9777
-3.3706 4.4973 -0.6411 0.9776
-3.4148 4.4981 -0.6442 0.9775
-3.4594 4.4988 -0.6474 0.9774
-3.5045 4.4996 -0.6506 0.9773
-3.5501 4.5004 -0.6539 0.9772
-3.5961 4.5012 -0.6572 0.9771
-3.6426 4.5020 -0.6606 0.9770
-3.6896 4.5029 -0.6641 0.9768
-3.7370 4.5037 -0.6676 0.9767
-3.7906 4.4550 -0.6673 0.9767
-3.8881 4.4567 -0.6747 0.9765
-3.9822 4.5080 -0.6862 0.9761
-4.0329 4.5088 -0.6901 0.9759
-4.0842 4.5097 -0.6941 0.9758
-4.1361 4.5106 -0.6981 0.9757
-4.1886 4.5116 -0.7023 0.9755
-4.2417 4.5125 -0.7065 0.9754
-4.2955 4.5134 -0.7108 0.9752
-4.3499 4.5144 -0.7152 0.9751
-4.5173 4.5173 -0.7288 0.9746
-4.5745 4.5183 -0.7335 0.9744
-4.6912 4.5203 -0.7432 0.9741
-4.8750 4.5261 -0.7589 0.9736
-4.9039 4.3863 -0.7506 0.9739
-4.9236 4.2955 -0.7454 0.9740
-4.9245 4.2429 -0.7415 0.9742
-4.9254 4.1909 -0.7377 0.9743
-4.9281 4.0380 -0.7268 0.9747
-4.9112 3.8251 -0.7101 0.9752
-4.9179 3.7817 -0.7077 0.9753
-4.8893 3.7118 -0.7003 0.9756
-4.8909 3.6186 -0.6940 0.9758
-4.9932 3.6467 -0.7053 0.9754
-9.3512 6.7412 -1.3150 0.9547
-9.4895 6.5768 -1.3171 0.9546
-10.8640 6.9474 -1.4711 0.9494
-10.8654 6.8540 -1.4655 0.9496
-10.8668 6.7613 -1.4600 0.9498
-10.8343 6.3749 -1.4340 0.9507
-10.8598 6.2104 -1.4271 0.9509
-10.8978 6.1430 -1.4271 0.9509
-10.9396 6.0777 -1.4276 0.9509
-11.1048 6.0799 -1.4442 0.9503
-12.5935 6.6939 -1.6270 0.9442
-12.6011 6.2061 -1.6024 0.9450
-12.6866 6.1510 -1.6084 0.9448
-17.9629 8.3012 -2.2574 0.9234
-17.2853 7.7301 -2.1600 0.9266
-17.6761 7.2577 -2.1798 0.9260
-18.3968 7.2890 -2.2574 0.9234
-18.4416 7.1752 -2.2574 0.9234
-18.6134 6.7168 -2.2574 0.9234
-18.6546 6.6016 -2.2574 0.9234
-18.6950 6.4861 -2.2574 0.9234
-18.8498 6.0217 -2.2574 0.9234
-18.8866 5.9050 -2.2574 0.9234
-18.9228 5.7881 -2.2574 0.9234
-18.9929 5.5536 -2.2574 0.9234
-19.0269 5.4361 -2.2574 0.9234
-20.3817 5.5514 -2.4098 0.9185
-20.4156 5.4253 -2.4098 0.9185
-20.5436 4.9186 -2.4098 0.9185
-20.5736 4.7915 -2.4098 0.9185
-20.6028 4.6642 -2.4098 0.9185
-20.6313 4.5366 -2.4098 0.9185
-20.6589 4.4090 -2.4098 0.9185
-20.6858 4.2811 -2.4098 0.9185
-20.7119 4.1531 -2.4098 0.9185
-20.7854 3.7682 -2.4098 0.9185
-20.8304 3.5108 -2.4098 0.9185
-20.8517 3.3819 -2.4098 0.9185
-20.8722 3.2529 -2.4098 0.9185
-20.8919 3.1238 -2.4098 0.9185
-20.9109 2.9945 -2.4098 0.9185
-20.9290 2.8651 -2.4098 0.9185
-20.9463 2.7356 -2.4098 0.9185
-20.9628 2.6060 -2.4098 0.9185
-20.9935 2.3465 -2.4098 0.9185
-21.0209 2.0868 -2.4098 0.9185
-21.0334 1.9567 -2.4098 0.9185
-21.0450 1.8267 -2.4098 0.9185
-21.0560 1.6964 -2.4098 0.9185
-21.0753 1.4359 -2.4098 0.9185
-21.0914 1.1752 -2.4098 0.9185
-21.0983 1.0446 -2.4098 0.9185
-21.1044 0.9142 -2.4098 0.9185
-21.1097 0.7836 -2.4098 0.9185
-21.1177 0.5225 -2.4098 0.9185
-21.1206 0.3918 -2.4098 0.9185
-21.1237 0.1306 -2.4098 0.9185
-19.8105 -0.4902 -2.4098 0.9233
-19.8029 -0.7352 -2.4098 0.9233
-19.7858 -1.1024 -2.4098 0.9233
-19.7620 -1.4693 -2.4098 0.9233
-19.7525 -1.5915 -2.4098 0.9233
-19.7423 -1.7136 -2.4098 0.9233
-19.7313 -1.8357 -2.4098 0.9233
-19.7196 -1.9577 -2.4098 0.9233
-19.7071 -2.0796 -2.4098 0.9233
-19.6939 -2.2014 -2.4098 0.9233
-19.6799 -2.3232 -2.4098 0.9233
-19.6652 -2.4448 -2.4098 0.9233
-19.6497 -2.5664 -2.4098 0.9233
-19.5987 -2.9304 -2.4098 0.9233
-19.5409 -3.2935 -2.4098 0.9233
-19.4987 -3.5350 -2.4098 0.9233
-19.4765 -3.6555 -2.4098 0.9233
-19.4053 -4.0162 -2.4098 0.9233
-19.3801 -4.1361 -2.4098 0.9233
-19.2719 -4.6142 -2.4098 0.9233
-19.2430 -4.7333 -2.4098 0.9233
-19.1829 -4.9709 -2.4098 0.9233
-19.1200 -5.2078 -2.4098 0.9233
-19.0874 -5.3259 -2.4098 0.9233
-18.9137 -5.9136 -2.4098 0.9233
-18.7616 -6.3795 -2.4098 0.9233
-18.7218 -6.4954 -2.4098 0.9233
-18.6400 -6.7265 -2.4098 0.9233
-18.4679 -7.1854 -2.4098 0.9233
-18.4231 -7.2996 -2.4098 0.9233
-18.2370 -7.7530 -2.4098 0.9233
-18.1887 -7.8656 -2.4098 0.9233
-17.9886 -8.3131 -2.4098 0.9233
-17.8844 -8.5350 -2.4098 0.9233
-17.8312 -8.6454 -2.4098 0.9233
-17.6119 -9.0838 -2.4098 0.9233
-17.3227 -9.6240 -2.4098 0.9233
-17.2023 -9.8375 -2.4098 0.9233
-17.1412 -9.9437 -2.4098 0.9233
-17.0169 -10.1549 -2.4098 0.9233
-16.9537 -10.2600 -2.4098 0.9233
-16.8900 -10.3646 -2.4098 0.9233
-16.6948 -10.6761 -2.4098 0.9233
-16.3567 -11.1872 -2.4098 0.9233
-15.9305 -11.7863 -2.4098 0.9233
-15.7835 -11.9824 -2.4098 0.9233
-15.4823 -12.3692 -2.4098 0.9233
-15.4055 -12.4647 -2.4098 0.9233
-15.0925 -12.8419 -2.4098 0.9233
-15.0128 -12.9350 -2.4098 0.9233
-14.9325 -13.0276 -2.4098 0.9233
-14.5226 -13.4830 -2.4098 0.9233
-14.3547 -13.6615 -2.4098 0.9233
-14.0988 -13.9255 -2.4098 0.9233
-13.9255 -14.0988 -2.4098 0.9233
-13.8380 -14.1846 -2.4098 0.9233
-13.7500 -14.2700 -2.4098 0.9233
-13.3929 -14.6057 -2.4098 0.9233
-13.3023 -14.6882 -2.4098 0.9233
-13.2112 -14.7703 -2.4098 0.9233
-13.1196 -14.8517 -2.4098 0.9233
-13.0275 -14.9325 -2.4098 0.9233
-12.4646 -15.4055 -2.4098 0.9233
-11.9824 -15.7835 -2.4098 0.9233
-11.7862 -15.9305 -2.4098 0.9233
-11.6875 -16.0031 -2.4098 0.9233
-11.4887 -16.1464 -2.4098 0.9233
-11.3886 -16.2172 -2.4098 0.9233
-11.2881 -16.2872 -2.4098 0.9233
-11.0858 -16.4256 -2.4098 0.9233
-10.7792 -16.6285 -2.4098 0.9233
-10.5727 -16.7605 -2.4098 0.9233
-10.2599 -16.9538 -2.4098 0.9233
-10.0494 -17.0794 -2.4098 0.9233
-9.9436 -17.1412 -2.4098 0.9233
-9.7309 -17.2629 -2.4098 0.9233
-9.6239 -17.3227 -2.4098 0.9233
-9.5166 -17.3818 -2.4098 0.9233
-9.4089 -17.4404 -2.4098 0.9233
-9.3009 -17.4983 -2.4098 0.9233
-8.8652 -17.7230 -2.4098 0.9233
-8.7555 -17.7774 -2.4098 0.9233
-8.2017 -18.0396 -2.4098 0.9233
-7.8656 -18.1887 -2.4098 0.9233
-7.7530 -18.2370 -2.4098 0.9233
-7.6400 -18.2846 -2.4098 0.9233
-7.4133 -18.3777 -2.4098 0.9233
-7.1854 -18.4680 -2.4098 0.9233
-7.0711 -18.5121 -2.4098 0.9233
-6.9565 -18.5554 -2.4098 0.9233
-6.7264 -18.6400 -2.4098 0.9233
-6.4954 -18.7218 -2.4098 0.9233
-6.1470 -18.8391 -2.4098 0.9233
-6.0303 -18.8768 -2.4098 0.9233
-5.9135 -18.9137 -2.4098 0.9233
-5.7964 -18.9499 -2.4098 0.9233
-5.6791 -18.9854 -2.4098 0.9233
-5.5616 -19.0202 -2.4098 0.9233
-5.3259 -19.0875 -2.4098 0.9233
-5.0894 -19.1519 -2.4098 0.9233
-4.8522 -19.2133 -2.4098 0.9233
-4.4949 -19.3001 -2.4098 0.9233
-4.3755 -19.3275 -2.4098 0.9233
-4.2559 -19.3542 -2.4098 0.9233
-4.0161 -19.4054 -2.4098 0.9233
-3.8961 -19.4298 -2.4098 0.9233
-3.7758 -19.4535 -2.4098 0.9233
-3.6554 -19.4765 -2.4098 0.9233
-3.5349 -19.4987 -2.4098 0.9233
-3.4143 -19.5202 -2.4098 0.9233
-3.0516 -19.5802 -2.4098 0.9233
-2.6878 -19.6334 -2.4098 0.9233
-2.5663 -19.6497 -2.4098 0.9233
-2.4448 -19.6652 -2.4098 0.9233
-2.3231 -19.6799 -2.4098 0.9233
-2.0795 -19.7072 -2.4098 0.9233
-1.8356 -19.7314 -2.4098 0.9233
-1.7136 -19.7424 -2.4098 0.9233
-1.5914 -19.7526 -2.4098 0.9233
-1.4693 -19.7621 -2.4098 0.9233
-1.3470 -19.7707 -2.4098 0.9233
-0.9800 -19.7923 -2.4098 0.9233
-0.6127 -19.8071 -2.4098 0.9233
-0.4901 -19.8105 -2.4098 0.9233
-0.3676 -19.8132 -2.4098 0.9233
-0.2451 -19.8150 -2.4098 0.9233
0.1226 -19.8162 -2.4098 0.9233
1.3470 -19.7707 -2.4098 0.9233
1.4692 -19.7621 -2.4098 0.9233
1.5914 -19.7526 -2.4098 0.9233
1.7135 -19.7423 -2.4098 0.9233
1.8356 -19.7313 -2.4098 0.9233
2.0795 -19.7071 -2.4098 0.9233
2.3231 -19.6799 -2.4098 0.9233
2.4448 -19.6652 -2.4098 0.9233
2.6878 -19.6334 -2.4098 0.9233
2.8092 -19.6164 -2.4098 0.9233
2.9304 -19.5987 -2.4098 0.9233
3.0516 -19.5802 -2.4098 0.9233
3.1726 -19.5610 -2.4098 0.9233
3.6555 -19.4765 -2.4098 0.9233
3.8961 -19.4298 -2.4098 0.9233
4.0162 -19.4053 -2.4098 0.9233
4.2559 -19.3542 -2.4098 0.9233
4.3755 -19.3275 -2.4098 0.9233
4.4949 -19.3000 -2.4098 0.9233
4.6142 -19.2719 -2.4098 0.9233
4.8522 -19.2133 -2.4098 0.9233
4.9709 -19.1830 -2.4098 0.9233
5.0894 -19.1519 -2.4098 0.9233
5.6791 -18.9854 -2.4098 0.9233
5.7964 -18.9499 -2.4098 0.9233
5.9135 -18.9137 -2.4098 0.9233
6.0303 -18.8768 -2.4098 0.9233
6.1470 -18.8391 -2.4098 0.9233
6.3795 -18.7616 -2.4098 0.9233
6.4954 -18.7218 -2.4098 0.9233
6.6110 -18.6813 -2.4098 0.9233
6.8416 -18.5981 -2.4098 0.9233
6.9565 -18.5554 -2.4098 0.9233
7.0711 -18.5120 -2.4098 0.9233
7.1854 -18.4680 -2.4098 0.9233
7.4133 -18.3777 -2.4098 0.9233
7.5268 -18.3315 -2.4098 0.9233
7.7530 -18.2370 -2.4098 0.9233
8.2017 -18.0396 -2.4098 0.9233
8.5349 -17.8844 -2.4098 0.9233
8.7555 -17.7774 -2.4098 0.9233
8.8652 -17.7230 -2.4098 0.9233
9.0838 -17.6120 -2.4098 0.9233
9.1925 -17.5554 -2.4098 0.9233
9.3009 -17.4983 -2.4098 0.9233
9.5166 -17.3819 -2.4098 0.9233
9.6239 -17.3227 -2.4098 0.9233
9.7309 -17.2629 -2.4098 0.9233
9.9437 -17.1412 -2.4098 0.9233
10.0495 -17.0794 -2.4098 0.9233
10.5727 -16.7605 -2.4098 0.9233
10.7792 -16.6284 -2.4098 0.9233
10.8818 -16.5615 -2.4098 0.9233
11.0858 -16.4256 -2.4098 0.9233
11.1871 -16.3568 -2.4098 0.9233
11.6875 -16.0031 -2.4098 0.9233
11.7862 -15.9305 -2.4098 0.9233
11.8845 -15.8573 -2.4098 0.9233
12.0797 -15.7091 -2.4098 0.9233
12.1766 -15.6341 -2.4098 0.9233
12.3691 -15.4823 -2.4098 0.9233
12.4646 -15.4055 -2.4098 0.9233
12.6542 -15.2502 -2.4098 0.9233
12.7483 -15.1716 -2.4098 0.9233
12.8419 -15.0925 -2.4098 0.9233
13.0275 -14.9325 -2.4098 0.9233
13.1196 -14.8516 -2.4098 0.9233
13.3929 -14.6057 -2.4098 0.9233
13.4830 -14.5226 -2.4098 0.9233
13.7500 -14.2700 -2.4098 0.9233
13.9255 -14.0988 -2.4098 0.9233
14.0988 -13.9255 -2.4098 0.9233
14.1846 -13.8381 -2.4098 0.9233
14.2699 -13.7501 -2.4098 0.9233
14.3547 -13.6615 -2.4098 0.9233
14.4389 -13.5725 -2.4098 0.9233
14.5226 -13.4830 -2.4098 0.9233
14.6057 -13.3929 -2.4098 0.9233
14.6882 -13.3023 -2.4098 0.9233
14.8516 -13.1197 -2.4098 0.9233
14.9325 -13.0275 -2.4098 0.9233
15.0128 -12.9349 -2.4098 0.9233
15.0925 -12.8419 -2.4098 0.9233
15.1716 -12.7483 -2.4098 0.9233
15.3281 -12.5597 -2.4098 0.9233
15.5585 -12.2731 -2.4098 0.9233
15.6341 -12.1767 -2.4098 0.9233
15.8573 -11.8846 -2.4098 0.9233
16.1464 -11.4887 -2.4098 0.9233
16.2171 -11.3886 -2.4098 0.9233
16.2872 -11.2881 -2.4098 0.9233
16.3567 -11.1872 -2.4098 0.9233
16.5615 -10.8818 -2.4098 0.9233
16.6948 -10.6762 -2.4098 0.9233
16.7605 -10.5727 -2.4098 0.9233
16.8255 -10.4688 -2.4098 0.9233
16.8900 -10.3646 -2.4098 0.9233
16.9537 -10.2599 -2.4098 0.9233
17.0169 -10.1549 -2.4098 0.9233
17.0793 -10.0495 -2.4098 0.9233
17.2023 -9.8375 -2.4098 0.9233
17.2628 -9.7309 -2.4098 0.9233
17.4404 -9.4090 -2.4098 0.9233
17.4982 -9.3010 -2.4098 0.9233
17.5554 -9.1925 -2.4098 0.9233
17.7229 -8.8653 -2.4098 0.9233
17.7774 -8.7555 -2.4098 0.9233
17.8845 -8.5349 -2.4098 0.9233
17.9369 -8.4242 -2.4098 0.9233
17.9888 -8.3131 -2.4098 0.9233
18.0396 -8.2017 -2.4098 0.9233
18.1887 -7.8656 -2.4098 0.9233
18.2370 -7.7530 -2.4098 0.9233
18.3315 -7.5269 -2.4098 0.9233
18.3776 -7.4133 -2.4098 0.9233
18.4679 -7.1854 -2.4098 0.9233
18.5120 -7.0711 -2.4098 0.9233
18.6813 -6.6111 -2.4098 0.9233
18.7616 -6.3795 -2.4098 0.9233
18.8007 -6.2634 -2.4098 0.9233
18.8391 -6.1470 -2.4098 0.9233
18.8767 -6.0304 -2.4098 0.9233
18.9853 -5.6791 -2.4098 0.9233
19.0201 -5.5616 -2.4098 0.9233
19.0874 -5.3260 -2.4098 0.9233
19.1200 -5.2078 -2.4098 0.9233
19.1829 -4.9709 -2.4098 0.9233
19.2133 -4.8522 -2.4098 0.9233
19.2430 -4.7333 -2.4098 0.9233
19.3000 -4.4949 -2.4098 0.9233
19.3275 -4.3755 -2.4098 0.9233
19.4053 -4.0162 -2.4098 0.9233
19.4298 -3.8961 -2.4098 0.9233
19.4765 -3.6555 -2.4098 0.9233
19.4388 -3.5241 -2.4024 0.9235
19.4602 -3.4038 -2.4024 0.9235
19.4809 -3.2834 -2.4024 0.9235
19.5802 -3.0516 -2.4098 0.9233
19.5987 -2.9304 -2.4098 0.9233
19.6164 -2.8092 -2.4098 0.9233
19.6334 -2.6878 -2.4098 0.9233
19.6497 -2.5663 -2.4098 0.9233
19.6799 -2.3231 -2.4098 0.9233
19.7071 -2.0796 -2.4098 0.9233
19.7313 -1.8357 -2.4098 0.9233
19.7423 -1.7136 -2.4098 0.9233
19.7525 -1.5915 -2.4098 0.9233
19.7787 -1.2247 -2.4098 0.9233
19.7923 -0.9800 -2.4098 0.9233
12.0257 -0.5209 -1.4637 0.9527
11.9523 -0.4437 -1.4544 0.9529
11.9293 -0.3690 -1.4513 0.9530
11.9070 -0.2209 -1.4482 0.9531
11.9021 -0.1472 -1.4474 0.9532
11.8912 0.2206 -1.4463 0.9532
11.8929 0.3679 -1.4469 0.9532
11.8972 0.5154 -1.4481 0.9531
11.9021 0.5893 -1.4491 0.9531
11.9197 0.7381 -1.4523 0.9530
11.9676 0.8897 -1.4593 0.9528
18.4835 1.7195 -2.2574 0.9279
18.4725 1.8338 -2.2574 0.9279
18.4484 2.0621 -2.2574 0.9279
18.4215 2.2901 -2.2574 0.9279
18.4070 2.4040 -2.2574 0.9279
18.3419 2.8586 -2.2574 0.9279
18.3238 2.9719 -2.2574 0.9279
18.3051 3.0852 -2.2574 0.9279
18.2857 3.1984 -2.2574 0.9279
18.2655 3.3113 -2.2574 0.9279
18.2447 3.4243 -2.2574 0.9279
18.2010 3.6496 -2.2574 0.9279
18.2068 3.7680 -2.2609 0.9278
18.1829 3.8805 -2.2609 0.9278
18.1330 4.1050 -2.2608 0.9278
18.0804 4.3289 -2.2608 0.9278
18.0530 4.4405 -2.2608 0.9278
18.0250 4.5521 -2.2607 0.9278
17.9668 4.7745 -2.2607 0.9278
17.9367 4.8855 -2.2606 0.9278
17.9059 4.9962 -2.2606 0.9278
17.8095 5.3273 -2.2605 0.9278
17.6713 5.7659 -2.2604 0.9278
17.6351 5.8750 -2.2604 0.9278
16.2049 5.8477 -2.0950 0.9329
16.2074 5.9621 -2.1000 0.9328
16.2125 6.1928 -2.1104 0.9325
14.6086 5.7881 -1.9108 0.9386
14.4813 5.9459 -1.9036 0.9389
14.4859 6.1583 -1.9141 0.9385
14.4903 6.3729 -1.9250 0.9382
12.9870 5.8079 -1.7300 0.9443
12.9666 5.8953 -1.7321 0.9442
12.9696 6.0912 -1.7424 0.9439
12.9728 6.2898 -1.7532 0.9436
12.9744 6.3900 -1.7587 0.9434
12.9794 6.6944 -1.7759 0.9429
12.9844 7.0050 -1.7941 0.9423
12.9895 7.3221 -1.8132 0.9417
12.9930 7.5373 -1.8266 0.9413
12.9982 7.8662 -1.8475 0.9406
11.6958 7.1772 -1.6687 0.9462
11.1543 6.9402 -1.5975 0.9484
10.3344 6.9748 -1.5161 0.9510
10.2823 7.0326 -1.5148 0.9510
10.1297 7.1137 -1.5052 0.9513
9.9791 7.1938 -1.4959 0.9516
9.8685 7.2073 -1.4860 0.9520
9.8156 7.2621 -1.4848 0.9520
9.8714 7.3983 -1.5001 0.9515
9.8276 7.4608 -1.5004 0.9515
9.6650 7.6241 -1.4969 0.9516
9.3845 7.8855 -1.4906 0.9518
9.3948 7.9938 -1.5000 0.9515
9.3822 8.0836 -1.5060 0.9513
9.3566 8.2655 -1.5182 0.9509
9.3437 8.3575 -1.5244 0.9507
9.3359 8.6676 -1.5491 0.9500
9.3398 8.8888 -1.5679 0.9494
9.3418 9.0014 -1.5775 0.9491
9.3437 9.1154 -1.5874 0.9488
9.3458 9.2309 -1.5974 0.9484
9.3106 9.4265 -1.6112 0.9480
9.4043 10.0046 -1.6697 0.9462
9.4701 10.3276 -1.7039 0.9451
9.4724 10.4593 -1.7160 0.9447
9.4771 10.7282 -1.7407 0.9440
9.4795 10.8656 -1.7535 0.9436
9.4819 11.0050 -1.7665 0.9431
9.3266 11.0995 -1.7630 0.9433
9.3820 11.3067 -1.7866 0.9425
9.3845 11.4532 -1.8006 0.9421
9.3871 11.6020 -1.8148 0.9416
9.3925 11.9067 -1.8442 0.9407
9.4008 12.3829 -1.8906 0.9393
9.4036 12.5471 -1.9067 0.9388
9.4065 12.7140 -1.9232 0.9383
9.4095 12.8839 -1.9401 0.9377
9.4125 13.0568 -1.9573 0.9372
9.3928 13.2008 -1.9701 0.9368
9.5266 13.5656 -2.0158 0.9354
9.5331 13.9383 -2.0535 0.9342
9.5274 14.3065 -2.0902 0.9331
9.4387 14.3652 -2.0902 0.9331
9.3891 14.6822 -2.1193 0.9322
4.6960 7.4443 -1.0703 0.9652
4.5798 7.3607 -1.0542 0.9657
4.4909 7.3183 -1.0441 0.9660
4.3604 7.2052 -1.0241 0.9666
4.2748 7.1635 -1.0144 0.9669
4.1909 7.1225 -1.0049 0.9672
3.9522 7.0114 -0.9787 0.9681
3.8905 7.0027 -0.9741 0.9682
3.8293 6.9941 -0.9696 0.9684
3.7086 6.9771 -0.9609 0.9687
3.6490 6.9688 -0.9566 0.9688
3.4937 6.8778 -0.9381 0.9694
3.4637 6.9246 -0.9415 0.9693
3.1847 7.0048 -0.9357 0.9695
3.0883 7.0219 -0.9328 0.9696
2.9987 7.0538 -0.9321 0.9696
2.9567 7.0762 -0.9326 0.9696
2.8725 7.1209 -0.9337 0.9695
2.7881 7.1658 -0.9350 0.9695
2.6609 7.2334 -0.9372 0.9694
2.5831 7.2992 -0.9416 0.9693
2.5458 7.3379 -0.9445 0.9692
2.4325 7.4552 -0.9536 0.9689
2.3170 7.5748 -0.9633 0.9686
2.2834 7.6335 -0.9689 0.9684
2.2188 7.7659 -0.9822 0.9680
2.1523 7.9022 -0.9959 0.9675
2.1184 7.9717 -1.0030 0.9673
2.0733 8.2097 -1.0297 0.9665
2.0537 8.3492 -1.0456 0.9659
2.0240 8.4535 -1.0570 0.9656
1.9141 8.4552 -1.0542 0.9657
1.8594 8.4560 -1.0528 0.9657
1.8049 8.4568 -1.0515 0.9658
1.7504 8.4577 -1.0503 0.9658
1.6961 8.4585 -1.0491 0.9658
1.3374 6.8905 -0.8535 0.9721
1.2220 6.7403 -0.8330 0.9728
1.1866 6.7839 -0.8375 0.9726
1.1625 6.8974 -0.8506 0.9722
1.0754 6.9005 -0.8493 0.9723
1.1146 7.7832 -0.9561 0.9688
1.1223 8.1979 -1.0062 0.9672
0.9951 8.4295 -1.0322 0.9664
0.9533 8.5287 -1.0436 0.9660
0.7937 8.5314 -1.0419 0.9661
0.5286 8.5361 -1.0400 0.9661
0.4756 8.5370 -1.0397 0.9661
0.4227 8.5379 -1.0395 0.9661
0.3699 8.5388 -1.0393 0.9661
0.3170 8.5397 -1.0392 0.9662
0.2113 8.5416 -1.0390 0.9662
0.1585 8.5425 -1.0390 0.9662
0.1057 8.5434 -1.0390 0.9662
0.0000 8.5453 -1.0391 0.9662
-0.0523 8.4486 -1.0274 0.9665
-0.1045 8.4522 -1.0279 0.9665
-0.1569 8.4558 -1.0284 0.9665
-0.2143 6.9297 -0.8431 0.9725
-0.2573 6.9301 -0.8433 0.9724
-0.2935 6.7757 -0.8247 0.9730
-0.3432 6.9307 -0.8438 0.9724
-0.3862 6.9310 -0.8441 0.9724
-0.5039 6.7775 -0.8264 0.9730
-0.6018 6.9330 -0.8462 0.9723
-0.4351 3.8926 -0.4763 0.9843
-0.4561 3.8638 -0.4731 0.9844
-0.4776 3.8417 -0.4708 0.9845
-0.4998 3.8271 -0.4693 0.9846
-0.5221 3.8138 -0.4681 0.9846
-0.5456 3.8100 -0.4680 0.9846
-0.5691 3.8063 -0.4680 0.9846
-0.5935 3.8079 -0.4686 0.9846
-0.6184 3.8130 -0.4697 0.9846
-0.6718 3.8405 -0.4741 0.9844
-0.7026 3.8757 -0.4790 0.9843
-1.8080 8.4718 -1.0534 0.9657
-1.8985 8.3860 -1.0456 0.9659
-1.9021 8.1670 -1.0197 0.9668
-1.9054 7.9584 -0.9951 0.9676
-1.9147 7.3888 -0.9282 0.9697
-1.9175 7.2156 -0.9079 0.9704
-1.8866 6.9265 -0.8730 0.9715
-1.9325 6.9257 -0.8744 0.9714
-1.9785 6.9249 -0.8758 0.9714
-2.0246 6.9239 -0.8772 0.9714
-2.0247 6.7686 -0.8591 0.9719
-2.1639 6.9210 -0.8818 0.9712
-2.7857 8.5375 -1.0921 0.9645
-2.8404 8.3536 -1.0729 0.9651
-1.5684 4.5205 -0.5819 0.9809
-1.6169 4.2330 -0.5510 0.9819
-1.6182 4.1590 -0.5427 0.9822
-1.6206 4.0176 -0.5268 0.9827
-1.6218 3.9500 -0.5192 0.9829
-1.6230 3.8842 -0.5119 0.9832
-1.6302 3.4710 -0.4663 0.9847
-1.5843 3.3198 -0.4473 0.9853
-1.5970 3.2939 -0.4451 0.9854
-1.5909 3.2302 -0.4379 0.9856
-1.5917 3.1821 -0.4327 0.9858
-1.6084 3.1184 -0.4267 0.9860
-1.7083 3.1202 -0.4326 0.9858
-4.0181 7.1283 -0.9951 0.9676
-4.1263 7.1130 -1.0000 0.9674
-2.7393 4.4639 -0.6369 0.9791
-2.7663 4.4460 -0.6367 0.9791
-2.8310 4.4879 -0.6452 0.9788
-2.9101 4.4893 -0.6506 0.9787
-2.9501 4.4899 -0.6533 0.9786
-2.9905 4.4906 -0.6561 0.9785
-3.0313 4.4914 -0.6589 0.9784
-3.0723 4.4921 -0.6618 0.9783
-3.1556 4.4935 -0.6677 0.9781
-3.2834 4.4958 -0.6770 0.9778
-3.3268 4.4965 -0.6802 0.9777
-3.4148 4.4981 -0.6867 0.9775
-3.4594 4.4988 -0.6901 0.9774
-3.5961 4.5012 -0.7006 0.9771
-3.6896 4.5029 -0.7079 0.9768
-3.8630 4.4835 -0.7197 0.9764
-4.2955 4.5134 -0.7577 0.9752
-4.4050 4.5154 -0.7671 0.9749
-4.4608 4.5163 -0.7719 0.9747
-4.5173 4.5173 -0.7769 0.9746
-4.6325 4.5193 -0.7870 0.9743
-4.8750 4.5261 -0.8089 0.9736
-4.8791 4.4739 -0.8050 0.9737
-4.9245 4.2429 -0.7905 0.9741
-4.9254 4.1909 -0.7864 0.9743
-4.9263 4.1394 -0.7825 0.9744
-4.9272 4.0884 -0.7786 0.9745
-4.9298 3.9385 -0.7673 0.9749
-4.9112 3.8251 -0.7570 0.9752
-4.8901 3.6650 -0.7431 0.9757
-4.8909 3.6186 -0.7398 0.9758
-4.9932 3.6467 -0.7519 0.9754
-9.3512 6.7412 -1.4018 0.9546
-9.3165 6.5426 -1.3844 0.9552
-9.3760 6.4982 -1.3872 0.9551
-9.6012 6.4799 -1.4086 0.9544
-10.8625 7.0415 -1.5742 0.9492
-10.8654 6.8540 -1.5622 0.9496
-10.8753 6.2192 -1.5235 0.9508
-11.1815 6.1219 -1.5502 0.9499
-12.5921 6.7933 -1.7399 0.9440
-12.5951 6.5952 -1.7289 0.9443
-12.5964 6.4969 -1.7235 0.9445
-12.5978 6.3993 -1.7183 0.9447
-12.5994 6.3023 -1.7131 0.9448
-12.6970 6.1560 -1.7159 0.9447
-16.8024 7.8913 -2.2574 0.9279
-16.8509 7.7873 -2.2574 0.9279
-16.9459 7.5783 -2.2574 0.9279
-17.0384 7.3681 -2.2574 0.9279
-17.0836 7.2626 -2.2574 0.9279
-17.2154 6.9445 -2.2574 0.9279
-17.2581 6.8379 -2.2574 0.9279
-17.3000 6.7310 -2.2574 0.9279
-17.3819 6.5165 -2.2574 0.9279
-17.4612 6.3010 -2.2574 0.9279
-17.5378 6.0846 -2.2574 0.9279
-17.6117 5.8672 -2.2574 0.9279
-17.6476 5.7582 -2.2574 0.9279
-17.6829 5.6489 -2.2574 0.9279
-17.7175 5.5395 -2.2574 0.9279
-17.7514 5.4298 -2.2574 0.9279
-17.8172 5.2098 -2.2574 0.9279
-17.9108 4.8784 -2.2574 0.9279
-17.9406 4.7676 -2.2574 0.9279
-17.9982 4.5453 -2.2574 0.9279
-19.2430 4.7332 -2.4098 0.9233
-19.2719 4.6141 -2.4098 0.9233
-19.3000 4.4949 -2.4098 0.9233
-19.3275 4.3754 -2.4098 0.9233
-19.3542 4.2558 -2.4098 0.9233
-19.3801 4.1361 -2.4098 0.9233
-19.4053 4.0161 -2.4098 0.9233
-19.4535 3.7758 -2.4098 0.9233
-19.4987 3.5349 -2.4098 0.9233
-19.5409 3.2935 -2.4098 0.9233
-19.5609 3.1726 -2.4098 0.9233
-19.5987 2.9304 -2.4098 0.9233
-19.6497 2.5663 -2.4098 0.9233
-19.6652 2.4448 -2.4098 0.9233
-19.6939 2.2013 -2.4098 0.9233
-19.7196 1.9576 -2.4098 0.9233
-19.7314 1.8355 -2.4098 0.9233
-19.7423 1.7135 -2.4098 0.9233
-19.7620 1.4692 -2.4098 0.9233
-19.7859 1.1023 -2.4098 0.9233
-19.7923 0.9800 -2.4098 0.9233
-19.7980 0.8576 -2.4098 0.9233
-18.6594 -0.0000 -2.4098 0.9275
-18.6590 -0.1154 -2.4098 0.9275
-18.6562 -0.3462 -2.4098 0.9275
-18.6537 -0.4616 -2.4098 0.9275
-18.6505 -0.5769 -2.4098 0.9275
-18.6465 -0.6922 -2.4098 0.9275
-18.6419 -0.8075 -2.4098 0.9275
-18.6237 -1.1533 -2.4098 0.9275
-18.6162 -1.2684 -2.4098 0.9275
-18.5681 -1.8433 -2.4098 0.9275
-18.5022 -2.4165 -2.4098 0.9275
-18.4870 -2.5309 -2.4098 0.9275
-18.4368 -2.8734 -2.4098 0.9275
-18.4187 -2.9874 -2.4098 0.9275
-18.3998 -3.1012 -2.4098 0.9275
-18.3803 -3.2149 -2.4098 0.9275
-18.3601 -3.3286 -2.4098 0.9275
-18.2952 -3.6686 -2.4098 0.9275
-18.2484 -3.8946 -2.4098 0.9275
-18.1465 -4.3448 -2.4098 0.9275
-18.1193 -4.4569 -2.4098 0.9275
-18.0628 -4.6807 -2.4098 0.9275
-18.0035 -4.9037 -2.4098 0.9275
-17.9415 -5.1260 -2.4098 0.9275
-17.9094 -5.2368 -2.4098 0.9275
-17.8433 -5.4579 -2.4098 0.9275
-17.8092 -5.5682 -2.4098 0.9275
-17.7744 -5.6782 -2.4098 0.9275
-17.7390 -5.7880 -2.4098 0.9275
-17.7028 -5.8977 -2.4098 0.9275
-17.4719 -6.5503 -2.4098 0.9275
-17.4310 -6.6582 -2.4098 0.9275
-17.3895 -6.7659 -2.4098 0.9275
-17.3473 -6.8733 -2.4098 0.9275
-17.2168 -7.1939 -2.4098 0.9275
-17.0804 -7.5121 -2.4098 0.9275
-16.9381 -7.8277 -2.4098 0.9275
-16.8894 -7.9323 -2.4098 0.9275
-16.7393 -8.2442 -2.4098 0.9275
-16.6361 -8.4506 -2.4098 0.9275
-16.5835 -8.5534 -2.4098 0.9275
-16.5303 -8.6558 -2.4098 0.9275
-16.4764 -8.7579 -2.4098 0.9275
-16.4220 -8.8596 -2.4098 0.9275
-16.3669 -8.9610 -2.4098 0.9275
-16.3111 -9.0620 -2.4098 0.9275
-16.2548 -9.1627 -2.4098 0.9275
-16.1978 -9.2630 -2.4098 0.9275
-16.1402 -9.3630 -2.4098 0.9275
-16.0820 -9.4627 -2.4098 0.9275
-15.9637 -9.6608 -2.4098 0.9275
-15.6574 -10.1498 -2.4098 0.9275
-15.5944 -10.2463 -2.4098 0.9275
-15.5307 -10.3426 -2.4098 0.9275
-15.3362 -10.6290 -2.4098 0.9275
-15.2701 -10.7236 -2.4098 0.9275
-15.2035 -10.8178 -2.4098 0.9275
-15.0686 -11.0051 -2.4098 0.9275
-15.0002 -11.0980 -2.4098 0.9275
-14.7211 -11.4656 -2.4098 0.9275
-14.6500 -11.5565 -2.4098 0.9275
-14.5059 -11.7368 -2.4098 0.9275
-14.2857 -12.0038 -2.4098 0.9275
-14.2112 -12.0920 -2.4098 0.9275
-14.0605 -12.2668 -2.4098 0.9275
-13.8305 -12.5255 -2.4098 0.9275
-13.7528 -12.6108 -2.4098 0.9275
-13.4367 -12.9472 -2.4098 0.9275
-13.3563 -13.0300 -2.4098 0.9275
-13.1941 -13.1942 -2.4098 0.9275
-13.1123 -13.2755 -2.4098 0.9275
-12.6956 -13.6746 -2.4098 0.9275
-12.6108 -13.7528 -2.4098 0.9275
-12.4397 -13.9078 -2.4098 0.9275
-12.3535 -13.9844 -2.4098 0.9275
-12.2668 -14.0605 -2.4098 0.9275
-11.8262 -14.4331 -2.4098 0.9275
-11.7367 -14.5059 -2.4098 0.9275
-11.5564 -14.6500 -2.4098 0.9275
-11.4656 -14.7212 -2.4098 0.9275
-11.1905 -14.9313 -2.4098 0.9275
-11.0980 -15.0002 -2.4098 0.9275
-10.8178 -15.2036 -2.4098 0.9275
-10.7236 -15.2702 -2.4098 0.9275
-10.5339 -15.4016 -2.4098 0.9275
-10.1497 -15.6575 -2.4098 0.9275
-9.9553 -15.7818 -2.4098 0.9275
-9.8575 -15.8431 -2.4098 0.9275
-9.7593 -15.9037 -2.4098 0.9275
-9.6608 -15.9638 -2.4098 0.9275
-9.4626 -16.0820 -2.4098 0.9275
-9.3630 -16.1403 -2.4098 0.9275
-8.8595 -16.4220 -2.4098 0.9275
-8.7578 -16.4765 -2.4098 0.9275
-8.6557 -16.5303 -2.4098 0.9275
-8.5533 -16.5835 -2.4098 0.9275
-8.4506 -16.6361 -2.4098 0.9275
-8.3476 -16.6880 -2.4098 0.9275
-8.2442 -16.7394 -2.4098 0.9275
-7.9322 -16.8894 -2.4098 0.9275
-7.7227 -16.9862 -2.4098 0.9275
-7.6175 -17.0337 -2.4098 0.9275
-7.4063 -17.1266 -2.4098 0.9275
-7.1939 -17.2169 -2.4098 0.9275
-7.0873 -17.2611 -2.4098 0.9275
-6.9804 -17.3046 -2.4098 0.9275
-6.7658 -17.3896 -2.4098 0.9275
-6.6582 -17.4311 -2.4098 0.9275
-6.0070 -17.6661 -2.4098 0.9275
-5.8976 -17.7029 -2.4098 0.9275
-5.7880 -17.7390 -2.4098 0.9275
-5.5682 -17.8092 -2.4098 0.9275
-5.4579 -17.8433 -2.4098 0.9275
-5.1260 -17.9415 -2.4098 0.9275
-4.9037 -18.0035 -2.4098 0.9275
-4.5688 -18.0914 -2.4098 0.9275
-4.4569 -18.1193 -2.4098 0.9275
-3.8946 -18.2484 -2.4098 0.9275
-3.6686 -18.2952 -2.4098 0.9275
-3.5553 -18.3175 -2.4098 0.9275
-3.3285 -18.3601 -2.4098 0.9275
-3.2149 -18.3804 -2.4098 0.9275
-3.1012 -18.3999 -2.4098 0.9275
-2.7593 -18.4542 -2.4098 0.9275
-2.6451 -18.4709 -2.4098 0.9275
-2.4165 -18.5022 -2.4098 0.9275
-2.3020 -18.5169 -2.4098 0.9275
-2.1874 -18.5307 -2.4098 0.9275
-1.8433 -18.5681 -2.4098 0.9275
-1.6135 -18.5895 -2.4098 0.9275
-1.3835 -18.6080 -2.4098 0.9275
-1.1532 -18.6237 -2.4098 0.9275
-1.0380 -18.6305 -2.4098 0.9275
-0.8075 -18.6419 -2.4098 0.9275
-0.5769 -18.6505 -2.4098 0.9275
-0.0000 -18.6594 -2.4098 0.9275
0.3462 -18.6562 -2.4098 0.9275
0.4615 -18.6537 -2.4098 0.9275
0.8075 -18.6419 -2.4098 0.9275
0.9228 -18.6366 -2.4098 0.9275
1.1532 -18.6237 -2.4098 0.9275
1.3835 -18.6080 -2.4098 0.9275
1.6135 -18.5895 -2.4098 0.9275
1.8433 -18.5681 -2.4098 0.9275
1.9581 -18.5564 -2.4098 0.9275
2.1874 -18.5307 -2.4098 0.9275
2.3020 -18.5169 -2.4098 0.9275
2.4165 -18.5022 -2.4098 0.9275
2.5308 -18.4870 -2.4098 0.9275
2.7593 -18.4542 -2.4098 0.9275
2.9873 -18.4187 -2.4098 0.9275
3.3285 -18.3601 -2.4098 0.9275
3.4420 -18.3392 -2.4098 0.9275
3.5553 -18.3175 -2.4098 0.9275
3.6685 -18.2952 -2.4098 0.9275
3.7816 -18.2722 -2.4098 0.9275
3.8945 -18.2485 -2.4098 0.9275
4.2324 -18.1731 -2.4098 0.9275
4.3447 -18.1465 -2.4098 0.9275
4.4568 -18.1193 -2.4098 0.9275
4.5688 -18.0914 -2.4098 0.9275
4.6806 -18.0628 -2.4098 0.9275
4.7922 -18.0335 -2.4098 0.9275
4.9037 -18.0035 -2.4098 0.9275
5.0149 -17.9729 -2.4098 0.9275
5.1260 -17.9415 -2.4098 0.9275
5.3475 -17.8767 -2.4098 0.9275
5.4579 -17.8433 -2.4098 0.9275
5.6782 -17.7745 -2.4098 0.9275
5.7880 -17.7390 -2.4098 0.9275
6.0070 -17.6661 -2.4098 0.9275
6.2250 -17.5904 -2.4098 0.9275
6.3336 -17.5516 -2.4098 0.9275
6.4421 -17.5121 -2.4098 0.9275
6.7659 -17.3895 -2.4098 0.9275
6.9804 -17.3045 -2.4098 0.9275
7.0873 -17.2610 -2.4098 0.9275
7.1939 -17.2169 -2.4098 0.9275
7.6175 -17.0337 -2.4098 0.9275
7.8276 -16.9382 -2.4098 0.9275
7.9322 -16.8894 -2.4098 0.9275
8.0365 -16.8400 -2.4098 0.9275
8.2442 -16.7394 -2.4098 0.9275
8.3476 -16.6881 -2.4098 0.9275
8.5533 -16.5836 -2.4098 0.9275
8.6557 -16.5303 -2.4098 0.9275
9.1626 -16.2548 -2.4098 0.9275
9.3630 -16.1402 -2.4098 0.9275
9.5619 -16.0232 -2.4098 0.9275
9.6608 -15.9638 -2.4098 0.9275
9.8575 -15.8431 -2.4098 0.9275
9.9553 -15.7818 -2.4098 0.9275
10.2464 -15.5944 -2.4098 0.9275
10.3426 -15.5307 -2.4098 0.9275
10.7236 -15.2702 -2.4098 0.9275
10.8178 -15.2035 -2.4098 0.9275
11.0980 -15.0003 -2.4098 0.9275
11.3743 -14.7918 -2.4098 0.9275
11.5564 -14.6500 -2.4098 0.9275
12.0038 -14.2857 -2.4098 0.9275
12.1796 -14.1361 -2.4098 0.9275
12.2668 -14.0605 -2.4098 0.9275
12.3535 -13.9844 -2.4098 0.9275
12.4397 -13.9077 -2.4098 0.9275
12.5255 -13.8306 -2.4098 0.9275
12.6108 -13.7528 -2.4098 0.9275
12.9471 -13.4367 -2.4098 0.9275
13.0300 -13.3563 -2.4098 0.9275
13.1123 -13.2755 -2.4098 0.9275
13.1942 -13.1942 -2.4098 0.9275
13.2755 -13.1124 -2.4098 0.9275
13.4367 -12.9472 -2.4098 0.9275
13.8305 -12.5255 -2.4098 0.9275
13.9077 -12.4398 -2.4098 0.9275
13.9844 -12.3535 -2.4098 0.9275
14.1361 -12.1796 -2.4098 0.9275
14.3599 -11.9153 -2.4098 0.9275
14.4331 -11.8262 -2.4098 0.9275
14.5059 -11.7368 -2.4098 0.9275
14.6499 -11.5564 -2.4098 0.9275
14.7918 -11.3744 -2.4098 0.9275
14.9313 -11.1906 -2.4098 0.9275
15.1363 -10.9116 -2.4098 0.9275
15.2035 -10.8178 -2.4098 0.9275
15.2701 -10.7236 -2.4098 0.9275
15.5307 -10.3426 -2.4098 0.9275
15.6574 -10.1498 -2.4098 0.9275
15.7818 -9.9553 -2.4098 0.9275
15.8430 -9.8575 -2.4098 0.9275
15.9037 -9.7593 -2.4098 0.9275
15.9637 -9.6608 -2.4098 0.9275
16.0232 -9.5619 -2.4098 0.9275
16.0820 -9.4626 -2.4098 0.9275
16.1402 -9.3630 -2.4098 0.9275
16.3111 -9.0620 -2.4098 0.9275
16.4764 -8.7578 -2.4098 0.9275
16.5303 -8.6557 -2.4098 0.9275
16.5834 -8.5533 -2.4098 0.9275
16.6359 -8.4506 -2.4098 0.9275
16.6885 -8.3476 -2.4098 0.9275
16.9862 -7.7228 -2.4098 0.9275
17.0804 -7.5121 -2.4098 0.9275
17.1720 -7.3003 -2.4098 0.9275
17.2168 -7.1939 -2.4098 0.9275
17.3045 -6.9804 -2.4098 0.9275
17.3895 -6.7659 -2.4098 0.9275
17.4310 -6.6582 -2.4098 0.9275
17.4719 -6.5503 -2.4098 0.9275
17.5904 -6.2251 -2.4098 0.9275
17.6285 -6.1161 -2.4098 0.9275
17.7390 -5.7880 -2.4098 0.9275
17.7744 -5.6782 -2.4098 0.9275
17.8092 -5.5682 -2.4098 0.9275
17.8433 -5.4580 -2.4098 0.9275
17.9094 -5.2369 -2.4098 0.9275
17.9415 -5.1260 -2.4098 0.9275
17.9728 -5.0149 -2.4098 0.9275
18.0335 -4.7923 -2.4098 0.9275
18.0914 -4.5689 -2.4098 0.9275
18.1193 -4.4569 -2.4098 0.9275
18.1465 -4.3448 -2.4098 0.9275
18.2484 -3.8946 -2.4098 0.9275
18.2721 -3.7817 -2.4098 0.9275
18.2952 -3.6686 -2.4098 0.9275
18.3175 -3.5554 -2.4098 0.9275
18.3392 -3.4420 -2.4098 0.9275
18.3601 -3.3285 -2.4098 0.9275
18.3803 -3.2149 -2.4098 0.9275
18.3998 -3.1012 -2.4098 0.9275
18.4542 -2.7593 -2.4098 0.9275
18.4709 -2.6452 -2.4098 0.9275
18.4869 -2.5309 -2.4098 0.9275
18.5307 -2.1875 -2.4098 0.9275
18.5439 -2.0728 -2.4098 0.9275
18.5563 -1.9581 -2.4098 0.9275
18.5681 -1.8433 -2.4098 0.9275
18.5895 -1.6135 -2.4098 0.9275
18.5991 -1.4985 -2.4098 0.9275
18.6305 -1.0380 -2.4098 0.9275
11.9403 -0.4433 -1.5431 0.9530
11.9146 -0.3685 -1.5394 0.9531
11.9040 -0.2945 -1.5378 0.9531
11.8931 -0.2207 -1.5362 0.9532
11.8919 -0.1471 -1.5359 0.9532
11.8844 0.0000 -1.5348 0.9532
11.8809 0.0735 -1.5344 0.9532
11.8803 0.3675 -1.5350 0.9532
11.8831 0.4411 -1.5357 0.9532
11.8876 0.5149 -1.5367 0.9531
11.8935 0.5889 -1.5379 0.9531
11.9062 0.7372 -1.5406 0.9530
11.9193 0.8121 -1.5429 0.9530
11.9568 0.8890 -1.5484 0.9528
12.1420 0.9783 -1.5732 0.9521
17.3588 2.0491 -2.2574 0.9319
17.3458 2.1564 -2.2574 0.9319
17.2708 2.6916 -2.2574 0.9319
17.2179 3.0116 -2.2574 0.9319
17.1793 3.2243 -2.2574 0.9319
17.1166 3.5424 -2.2574 0.9319
17.0943 3.6483 -2.2574 0.9319
17.0972 3.7596 -2.2608 0.9318
17.0735 3.8652 -2.2607 0.9318
17.0490 3.9706 -2.2607 0.9318
17.0239 4.0759 -2.2607 0.9318
16.9718 4.2861 -2.2606 0.9318
16.9171 4.4955 -2.2606 0.9318
16.8598 4.7043 -2.2605 0.9318
16.8301 4.8084 -2.2605 0.9318
16.7999 4.9124 -2.2605 0.9318
16.7374 5.1196 -2.2604 0.9318
16.7052 5.2230 -2.2604 0.9318
16.6724 5.3261 -2.2604 0.9318
16.6389 5.4291 -2.2603 0.9318
16.6048 5.5318 -2.2603 0.9318
16.3137 5.7732 -2.2349 0.9326
16.2049 5.8477 -2.2249 0.9329
16.2100 6.0772 -2.2357 0.9326
14.6216 5.7933 -2.0311 0.9385
14.4791 5.8407 -2.0163 0.9390
14.4812 5.9459 -2.0217 0.9388
14.4836 6.0518 -2.0272 0.9387
14.4859 6.1583 -2.0328 0.9385
14.4883 6.2654 -2.0385 0.9383
12.9978 5.8127 -1.8388 0.9442
12.9668 5.8953 -1.8395 0.9442
12.9695 6.0912 -1.8505 0.9438
12.9727 6.2897 -1.8619 0.9435
12.9743 6.3899 -1.8678 0.9433
12.9760 6.4907 -1.8737 0.9432
12.9776 6.5922 -1.8798 0.9430
12.9860 7.1099 -1.9120 0.9420
12.9895 7.3220 -1.9257 0.9416
12.9947 7.6461 -1.9472 0.9410
12.9983 7.8662 -1.9621 0.9406
11.1543 6.9402 -1.6966 0.9484
11.1419 7.0284 -1.7013 0.9483
10.8742 7.0490 -1.6736 0.9491
10.4156 6.9362 -1.6161 0.9508
10.3344 6.9748 -1.6102 0.9510
10.2823 7.0326 -1.6088 0.9510
10.2058 7.0733 -1.6036 0.9512
10.1297 7.1137 -1.5986 0.9513
9.8685 7.2073 -1.5782 0.9519
9.8156 7.2621 -1.5769 0.9519
9.8276 7.4608 -1.5935 0.9515
9.7399 7.5860 -1.5944 0.9514
9.6650 7.6241 -1.5898 0.9516
9.5643 7.8368 -1.5969 0.9514
9.5203 7.8997 -1.5976 0.9513
9.3822 8.0836 -1.5994 0.9513
9.3695 8.1742 -1.6058 0.9511
9.3322 8.4516 -1.6260 0.9505
9.3340 8.5590 -1.6355 0.9502
9.3359 8.6676 -1.6452 0.9499
9.3379 8.7775 -1.6551 0.9496
9.3398 8.8888 -1.6651 0.9493
9.3418 9.0014 -1.6754 0.9490
9.3458 9.2309 -1.6964 0.9484
9.3478 9.3478 -1.7073 0.9481
9.3106 9.4265 -1.7111 0.9480
9.4612 9.8189 -1.7609 0.9465
9.4634 9.9435 -1.7728 0.9461
9.4043 10.0046 -1.7733 0.9461
9.4080 10.2600 -1.7978 0.9454
9.4087 10.3889 -1.8101 0.9450
9.4093 10.5197 -1.8227 0.9447
9.4795 10.8656 -1.8622 0.9435
9.4359 11.0896 -1.8804 0.9430
9.3266 11.0995 -1.8723 0.9432
9.3820 11.3067 -1.8974 0.9425
9.3898 11.7531 -1.9428 0.9411
9.3925 11.9067 -1.9585 0.9407
9.3952 12.0628 -1.9746 0.9402
9.4125 13.0568 -2.0787 0.9371
9.3928 13.2008 -2.0923 0.9367
9.3753 13.8912 -2.1643 0.9346
9.4318 14.1631 -2.1976 0.9337
9.4388 14.5607 -2.2410 0.9324
4.6959 7.4443 -1.1367 0.9651
4.3604 7.2052 -1.0876 0.9666
4.2748 7.1635 -1.0773 0.9669
3.9522 7.0114 -1.0394 0.9681
3.7687 6.9856 -1.0251 0.9685
3.5900 6.9605 -1.0114 0.9689
3.3796 6.9705 -1.0004 0.9692
3.2332 6.9963 -0.9954 0.9694
3.0883 7.0219 -0.9907 0.9695
3.0407 7.0315 -0.9894 0.9696
2.9146 7.0986 -0.9910 0.9695
2.8725 7.1209 -0.9916 0.9695
2.8303 7.1434 -0.9923 0.9695
2.7881 7.1658 -0.9930 0.9695
2.7034 7.2109 -0.9945 0.9694
2.6202 7.2609 -0.9969 0.9693
2.5831 7.2992 -0.9999 0.9693
2.5083 7.3767 -1.0062 0.9691
2.4705 7.4158 -1.0095 0.9690
2.4325 7.4552 -1.0128 0.9689
2.3558 7.5346 -1.0195 0.9687
2.3170 7.5748 -1.0230 0.9686
2.2188 7.7659 -1.0431 0.9679
2.0981 7.8952 -1.0550 0.9676
2.0733 8.2097 -1.0935 0.9664
2.0240 8.4535 -1.1226 0.9655
1.8048 8.4568 -1.1168 0.9657
1.2842 6.8422 -0.8991 0.9723
1.1541 6.8474 -0.8968 0.9724
1.0677 6.8506 -0.8954 0.9724
1.1076 7.4075 -0.9673 0.9702
0.9561 8.0995 -1.0533 0.9676
0.7049 8.1216 -1.0528 0.9677
0.5540 8.1312 -1.0525 0.9677
0.5037 8.1337 -1.0524 0.9677
0.3022 8.1408 -1.0521 0.9677
0.2518 8.1419 -1.0520 0.9677
0.2015 8.1426 -1.0519 0.9677
0.1511 8.1429 -1.0518 0.9677
0.1007 8.1430 -1.0517 0.9677
-0.0503 8.1413 -1.0514 0.9677
-0.1007 8.1401 -1.0513 0.9677
-0.1510 8.1387 -1.0512 0.9677
-0.1702 6.8795 -0.8887 0.9726
-0.2128 6.8799 -0.8889 0.9726
-0.2914 6.7271 -0.8696 0.9732
-0.3834 6.8811 -0.8900 0.9726
-0.4261 6.8814 -0.8904 0.9726
-0.5013 6.7428 -0.8732 0.9731
-0.5974 6.8830 -0.8922 0.9725
-0.4351 3.8924 -0.5058 0.9843
-0.4561 3.8636 -0.5024 0.9844
-0.4998 3.8270 -0.4984 0.9846
-0.5221 3.8136 -0.4971 0.9846
-0.5456 3.8099 -0.4970 0.9846
-0.5691 3.8062 -0.4970 0.9846
-0.5934 3.8077 -0.4977 0.9846
-0.6438 3.8200 -0.5003 0.9845
-0.7025 3.8753 -0.5086 0.9842
-1.5038 8.0124 -1.0528 0.9677
-1.6031 7.9946 -1.0530 0.9676
-1.6526 7.9852 -1.0531 0.9676
-1.8009 7.9552 -1.0534 0.9676
-1.9087 7.7597 -1.0320 0.9683
-1.9118 7.5700 -1.0083 0.9690
-1.9181 6.8742 -0.9217 0.9716
-2.1476 6.8689 -0.9294 0.9714
-2.7857 8.5375 -1.1598 0.9644
-1.5684 4.5205 -0.6179 0.9809
-1.5698 4.4360 -0.6077 0.9812
-1.5665 4.3409 -0.5960 0.9816
-1.5746 4.2803 -0.5890 0.9818
-1.6169 4.2330 -0.5852 0.9819
-1.6182 4.1590 -0.5763 0.9822
-1.6252 3.7581 -0.5288 0.9836
-1.6262 3.6976 -0.5217 0.9838
-1.6292 3.5255 -0.5016 0.9845
-1.6302 3.4710 -0.4952 0.9847
-1.5970 3.2939 -0.4728 0.9853
-1.5917 3.1821 -0.4595 0.9858
-1.6952 3.1423 -0.4611 0.9857
-1.7083 3.1202 -0.4594 0.9858
-3.9643 7.1356 -1.0542 0.9676
-4.0084 7.1110 -1.0542 0.9676
-4.0523 7.0860 -1.0542 0.9676
-2.6621 4.5243 -0.6779 0.9791
-2.7663 4.4459 -0.6762 0.9791
-3.1556 4.4935 -0.7091 0.9781
-3.2404 4.4950 -0.7156 0.9779
-3.2834 4.4958 -0.7190 0.9778
-3.3268 4.4965 -0.7224 0.9777
-3.4594 4.4988 -0.7329 0.9774
-3.5045 4.4996 -0.7366 0.9773
-3.6426 4.5020 -0.7479 0.9769
-3.7906 4.4550 -0.7555 0.9767
-4.1361 4.5106 -0.7904 0.9756
-4.2417 4.5125 -0.7998 0.9753
-4.2955 4.5134 -0.8047 0.9752
-4.4608 4.5163 -0.8198 0.9747
-4.5745 4.5183 -0.8304 0.9744
-4.6325 4.5193 -0.8358 0.9742
-4.6912 4.5203 -0.8413 0.9741
-4.8111 4.5224 -0.8527 0.9737
-4.8791 4.4739 -0.8549 0.9737
-4.9039 4.3863 -0.8497 0.9738
-4.9254 4.1909 -0.8352 0.9743
-4.9281 4.0380 -0.8228 0.9746
-4.8893 3.7118 -0.7928 0.9755
-4.9932 3.6467 -0.7985 0.9754
-9.3181 6.4580 -1.4641 0.9553
-9.3197 6.3742 -1.4582 0.9555
-9.3213 6.2910 -1.4523 0.9557
-9.3228 6.2085 -1.4465 0.9558
-9.3310 6.0487 -1.4361 0.9561
-10.8669 6.7614 -1.6529 0.9497
-10.8683 6.6694 -1.6468 0.9499
-10.8710 6.4873 -1.6349 0.9502
-10.8723 6.3973 -1.6291 0.9504
-10.8738 6.3079 -1.6235 0.9506
-10.8766 6.1310 -1.6125 0.9509
-11.0203 6.1225 -1.6281 0.9504
-11.1899 6.1265 -1.6475 0.9498
-12.5922 6.7934 -1.8478 0.9439
-12.5977 6.3992 -1.8248 0.9446
-12.5992 6.3023 -1.8193 0.9448
-15.8213 7.4305 -2.2574 0.9319
-15.8669 7.3326 -2.2574 0.9319
-15.9120 7.2343 -2.2574 0.9319
-16.0860 6.8385 -2.2574 0.9319
-16.1280 6.7389 -2.2574 0.9319
-16.1694 6.6390 -2.2574 0.9319
-16.2502 6.4385 -2.2574 0.9319
-16.2898 6.3379 -2.2574 0.9319
-16.3286 6.2371 -2.2574 0.9319
-16.4045 6.0346 -2.2574 0.9319
-16.4415 5.9331 -2.2574 0.9319
-16.4779 5.8313 -2.2574 0.9319
-16.5137 5.7293 -2.2574 0.9319
-16.5488 5.6271 -2.2574 0.9319
-16.6171 5.4219 -2.2574 0.9319
-16.6829 5.2160 -2.2574 0.9319
-16.7768 4.9056 -2.2574 0.9319
-16.8362 4.6977 -2.2574 0.9319
-16.8649 4.5935 -2.2574 0.9319
-16.8930 4.4891 -2.2574 0.9319
-16.9204 4.3846 -2.2574 0.9319
-16.9472 4.2798 -2.2574 0.9319
-16.9989 4.0699 -2.2574 0.9319
-17.0237 3.9647 -2.2574 0.9319
-18.2240 4.0073 -2.4098 0.9275
-18.2721 3.7816 -2.4098 0.9275
-18.2952 3.6685 -2.4098 0.9275
-18.3601 3.3285 -2.4098 0.9275
-18.3803 3.2149 -2.4098 0.9275
-18.3998 3.1012 -2.4098 0.9275
-18.4368 2.8733 -2.4098 0.9275
-18.4709 2.6451 -2.4098 0.9275
-18.4869 2.5308 -2.4098 0.9275
-18.5307 2.1874 -2.4098 0.9275
-18.5791 1.7284 -2.4098 0.9275
-18.5991 1.4985 -2.4098 0.9275
-18.6080 1.3834 -2.4098 0.9275
-18.6162 1.2683 -2.4098 0.9275
-18.6237 1.1531 -2.4098 0.9275
-18.6305 1.0380 -2.4098 0.9275
-18.6505 0.5768 -2.4098 0.9275
-18.6537 0.4615 -2.4098 0.9275
-18.6562 0.3461 -2.4098 0.9275
-18.6590 0.1153 -2.4098 0.9275
-17.6280 -0.0000 -2.4098 0.9313
-17.6277 -0.1090 -2.4098 0.9313
-17.6267 -0.2181 -2.4098 0.9313
-17.6250 -0.3271 -2.4098 0.9313
-17.6159 -0.6540 -2.4098 0.9313
-17.6115 -0.7629 -2.4098 0.9313
-17.6065 -0.8718 -2.4098 0.9313
-17.5943 -1.0895 -2.4098 0.9313
-17.5795 -1.3070 -2.4098 0.9313
-17.5711 -1.4157 -2.4098 0.9313
-17.5620 -1.5244 -2.4098 0.9313
-17.5307 -1.8499 -2.4098 0.9313
-17.5065 -2.0666 -2.4098 0.9313
-17.4934 -2.1748 -2.4098 0.9313
-17.4796 -2.2829 -2.4098 0.9313
-17.4651 -2.3910 -2.4098 0.9313
-17.4342 -2.6069 -2.4098 0.9313
-17.3829 -2.9298 -2.4098 0.9313
-17.3644 -3.0372 -2.4098 0.9313
-17.3255 -3.2518 -2.4098 0.9313
-17.2840 -3.4658 -2.4098 0.9313
-17.2398 -3.6793 -2.4098 0.9313
-17.1930 -3.8923 -2.4098 0.9313
-16.9195 -4.9474 -2.4098 0.9313
-16.8886 -5.0520 -2.4098 0.9313
-16.8249 -5.2604 -2.4098 0.9313
-16.7920 -5.3644 -2.4098 0.9313
-16.7585 -5.4681 -2.4098 0.9313
-16.7244 -5.5717 -2.4098 0.9313
-16.6542 -5.7781 -2.4098 0.9313
-16.5441 -6.0861 -2.4098 0.9313
-16.4284 -6.3919 -2.4098 0.9313
-16.3070 -6.6956 -2.4098 0.9313
-16.2652 -6.7963 -2.4098 0.9313
-16.2229 -6.8968 -2.4098 0.9313
-16.1799 -6.9970 -2.4098 0.9313
-16.1364 -7.0969 -2.4098 0.9313
-16.0922 -7.1965 -2.4098 0.9313
-16.0473 -7.2959 -2.4098 0.9313
-15.9092 -7.5923 -2.4098 0.9313
-15.8620 -7.6906 -2.4098 0.9313
-15.8141 -7.7885 -2.4098 0.9313
-15.6166 -8.1773 -2.4098 0.9313
-15.3025 -8.7510 -2.4098 0.9313
-15.2481 -8.8455 -2.4098 0.9313
-15.1376 -9.0334 -2.4098 0.9313
-14.9095 -9.4051 -2.4098 0.9313
-14.3632 -10.2199 -2.4098 0.9313
-14.2357 -10.3968 -2.4098 0.9313
-14.0404 -10.6591 -2.4098 0.9313
-13.9742 -10.7457 -2.4098 0.9313
-13.9075 -10.8319 -2.4098 0.9313
-13.7724 -11.0031 -2.4098 0.9313
-13.6353 -11.1726 -2.4098 0.9313
-13.4961 -11.3404 -2.4098 0.9313
-13.4257 -11.4237 -2.4098 0.9313
-13.2834 -11.5888 -2.4098 0.9313
-12.9187 -11.9940 -2.4098 0.9313
-12.6940 -12.2316 -2.4098 0.9313
-12.6181 -12.3098 -2.4098 0.9313
-12.4649 -12.4649 -2.4098 0.9313
-12.3098 -12.6182 -2.4098 0.9313
-12.2315 -12.6940 -2.4098 0.9313
-12.1528 -12.7694 -2.4098 0.9313
-12.0736 -12.8443 -2.4098 0.9313
-11.9939 -12.9187 -2.4098 0.9313
-11.9138 -12.9927 -2.4098 0.9313
-11.5064 -13.3548 -2.4098 0.9313
-11.2567 -13.5660 -2.4098 0.9313
-11.1726 -13.6353 -2.4098 0.9313
-10.9177 -13.8401 -2.4098 0.9313
-10.7457 -13.9742 -2.4098 0.9313
-10.6591 -14.0404 -2.4098 0.9313
-10.5720 -14.1061 -2.4098 0.9313
-10.3968 -14.2357 -2.4098 0.9313
-10.2199 -14.3632 -2.4098 0.9313
-9.9517 -14.5504 -2.4098 0.9313
-9.6800 -14.7325 -2.4098 0.9313
-9.4050 -14.9095 -2.4098 0.9313
-9.3127 -14.9674 -2.4098 0.9313
-9.2199 -15.0247 -2.4098 0.9313
-8.9396 -15.1932 -2.4098 0.9313
-8.7510 -15.3026 -2.4098 0.9313
-8.6562 -15.3564 -2.4098 0.9313
-8.2737 -15.5658 -2.4098 0.9313
-8.0806 -15.6669 -2.4098 0.9313
-7.9835 -15.7166 -2.4098 0.9313
-7.8862 -15.7657 -2.4098 0.9313
-7.7885 -15.8141 -2.4098 0.9313
-7.6906 -15.8620 -2.4098 0.9313
-7.4938 -15.9559 -2.4098 0.9313
-7.2959 -16.0474 -2.4098 0.9313
-6.7963 -16.2653 -2.4098 0.9313
-6.6956 -16.3070 -2.4098 0.9313
-6.5946 -16.3481 -2.4098 0.9313
-6.3919 -16.4284 -2.4098 0.9313
-6.1882 -16.5062 -2.4098 0.9313
-6.0860 -16.5442 -2.4098 0.9313
-5.5716 -16.7244 -2.4098 0.9313
-5.3644 -16.7920 -2.4098 0.9313
-5.1563 -16.8571 -2.4098 0.9313
-5.0519 -16.8886 -2.4098 0.9313
-4.7377 -16.9795 -2.4098 0.9313
-4.6326 -17.0084 -2.4098 0.9313
-4.4219 -17.0644 -2.4098 0.9313
-4.3163 -17.0915 -2.4098 0.9313
-4.1046 -17.1435 -2.4098 0.9313
-3.9985 -17.1686 -2.4098 0.9313
-3.4658 -17.2840 -2.4098 0.9313
-3.0372 -17.3644 -2.4098 0.9313
-2.9298 -17.3829 -2.4098 0.9313
-2.8222 -17.4007 -2.4098 0.9313
-2.4989 -17.4501 -2.4098 0.9313
-2.3910 -17.4652 -2.4098 0.9313
-2.2829 -17.4796 -2.4098 0.9313
-1.8499 -17.5307 -2.4098 0.9313
-1.7414 -17.5418 -2.4098 0.9313
-1.6329 -17.5523 -2.4098 0.9313
-1.1982 -17.5873 -2.4098 0.9313
-1.0895 -17.5944 -2.4098 0.9313
-0.9806 -17.6008 -2.4098 0.9313
-0.5450 -17.6196 -2.4098 0.9313
-0.4360 -17.6227 -2.4098 0.9313
-0.2180 -17.6267 -2.4098 0.9313
-0.1090 -17.6277 -2.4098 0.9313
0.0000 -17.6280 -2.4098 0.9313
0.1090 -17.6278 -2.4098 0.9313
0.2180 -17.6267 -2.4098 0.9313
0.3270 -17.6250 -2.4098 0.9313
0.4360 -17.6227 -2.4098 0.9313
0.5450 -17.6196 -2.4098 0.9313
0.6539 -17.6159 -2.4098 0.9313
0.8718 -17.6065 -2.4098 0.9313
0.9806 -17.6008 -2.4098 0.9313
1.0895 -17.5944 -2.4098 0.9313
1.1982 -17.5873 -2.4098 0.9313
1.4157 -17.5711 -2.4098 0.9313
1.6329 -17.5522 -2.4098 0.9313
2.2829 -17.4796 -2.4098 0.9313
2.3910 -17.4652 -2.4098 0.9313
2.4989 -17.4501 -2.4098 0.9313
2.6068 -17.4342 -2.4098 0.9313
2.7146 -17.4178 -2.4098 0.9313
3.0372 -17.3645 -2.4098 0.9313
3.1446 -17.3453 -2.4098 0.9313
3.5726 -17.2623 -2.4098 0.9313
3.6793 -17.2398 -2.4098 0.9313
3.9985 -17.1686 -2.4098 0.9313
4.4219 -17.0644 -2.4098 0.9313
4.5274 -17.0368 -2.4098 0.9313
4.7377 -16.9795 -2.4098 0.9313
4.8426 -16.9499 -2.4098 0.9313
5.2604 -16.8249 -2.4098 0.9313
5.3644 -16.7920 -2.4098 0.9313
5.4681 -16.7585 -2.4098 0.9313
5.6749 -16.6896 -2.4098 0.9313
5.7780 -16.6542 -2.4098 0.9313
5.9836 -16.5815 -2.4098 0.9313
6.1882 -16.5062 -2.4098 0.9313
6.3919 -16.4284 -2.4098 0.9313
6.4933 -16.3886 -2.4098 0.9313
6.6956 -16.3070 -2.4098 0.9313
6.7963 -16.2653 -2.4098 0.9313
6.9969 -16.1800 -2.4098 0.9313
7.1965 -16.0922 -2.4098 0.9313
7.2959 -16.0474 -2.4098 0.9313
7.3950 -16.0020 -2.4098 0.9313
7.4938 -15.9559 -2.4098 0.9313
7.7885 -15.8141 -2.4098 0.9313
7.8862 -15.7657 -2.4098 0.9313
7.9835 -15.7166 -2.4098 0.9313
8.0806 -15.6670 -2.4098 0.9313
8.5611 -15.4096 -2.4098 0.9313
8.9396 -15.1931 -2.4098 0.9313
9.1268 -15.0814 -2.4098 0.9313
9.2199 -15.0247 -2.4098 0.9313
9.3127 -14.9674 -2.4098 0.9313
9.4051 -14.9096 -2.4098 0.9313
9.4971 -14.8511 -2.4098 0.9313
9.7709 -14.6723 -2.4098 0.9313
10.0414 -14.4885 -2.4098 0.9313
10.1309 -14.4262 -2.4098 0.9313
10.3085 -14.2998 -2.4098 0.9313
10.3968 -14.2357 -2.4098 0.9313
10.5720 -14.1061 -2.4098 0.9313
10.6590 -14.0404 -2.4098 0.9313
10.7457 -13.9742 -2.4098 0.9313
10.8319 -13.9075 -2.4098 0.9313
11.2567 -13.5660 -2.4098 0.9313
11.3404 -13.4961 -2.4098 0.9313
11.4236 -13.4257 -2.4098 0.9313
11.5064 -13.3548 -2.4098 0.9313
11.5888 -13.2834 -2.4098 0.9313
11.9939 -12.9188 -2.4098 0.9313
12.0736 -12.8444 -2.4098 0.9313
12.2315 -12.6940 -2.4098 0.9313
12.3098 -12.6181 -2.4098 0.9313
12.4649 -12.4649 -2.4098 0.9313
12.5417 -12.3876 -2.4098 0.9313
12.6940 -12.2315 -2.4098 0.9313
12.7694 -12.1528 -2.4098 0.9313
12.9927 -11.9138 -2.4098 0.9313
13.2114 -11.6707 -2.4098 0.9313
13.3548 -11.5064 -2.4098 0.9313
13.7724 -11.0031 -2.4098 0.9313
13.9742 -10.7457 -2.4098 0.9313
14.0404 -10.6591 -2.4098 0.9313
14.2357 -10.3968 -2.4098 0.9313
14.2997 -10.3086 -2.4098 0.9313
14.3632 -10.2199 -2.4098 0.9313
14.4261 -10.1309 -2.4098 0.9313
14.4885 -10.0415 -2.4098 0.9313
14.6116 -9.8615 -2.4098 0.9313
14.9095 -9.4051 -2.4098 0.9313
14.9674 -9.3127 -2.4098 0.9313
15.0814 -9.1269 -2.4098 0.9313
15.1375 -9.0334 -2.4098 0.9313
15.1931 -8.9396 -2.4098 0.9313
15.3564 -8.6562 -2.4098 0.9313
15.5143 -8.3699 -2.4098 0.9313
15.5658 -8.2737 -2.4098 0.9313
15.6669 -8.0806 -2.4098 0.9313
15.7166 -7.9836 -2.4098 0.9313
15.7657 -7.8862 -2.4098 0.9313
15.8141 -7.7886 -2.4098 0.9313
15.8620 -7.6906 -2.4098 0.9313
15.9092 -7.5924 -2.4098 0.9313
16.0019 -7.3950 -2.4098 0.9313
16.2229 -6.8968 -2.4098 0.9313
16.2652 -6.7963 -2.4098 0.9313
16.3070 -6.6956 -2.4098 0.9313
