ply
format ascii 1.0
element vertex 1537
property float32 x
property float32 y
property float32 z
property float32 I
end_header
-4.9289 3.9880 -0.3911 0.9749
-4.9307 3.8895 -0.3874 0.9751
-4.9179 3.7817 -0.3827 0.9754
-4.8901 3.6650 -0.3770 0.9758
-4.8909 3.6186 -0.3753 0.9759
-10.8546 7.5229 -0.8147 0.9484
-10.8211 7.2063 -0.8020 0.9492
-10.9498 7.0023 -0.8018 0.9492
-12.5771 7.7179 -0.9103 0.9426
-12.5805 7.5074 -0.9038 0.9430
-12.5822 7.4033 -0.9006 0.9432
-12.5838 7.2999 -0.8975 0.9434
-14.0608 7.5856 -0.9856 0.9380
-14.1490 7.5206 -0.9885 0.9378
-14.3712 7.4123 -0.9975 0.9373
-14.6358 7.3210 -1.0096 0.9365
-15.0014 7.2733 -1.0285 0.9354
-35.1946 16.2645 -2.3918 0.8561
-17.6132 7.6167 -1.1838 0.9260
-17.7301 7.5375 -1.1885 0.9257
-35.7737 14.9477 -2.3918 0.8561
-35.8654 14.7262 -2.3918 0.8561
-36.0449 14.2814 -2.3918 0.8561
-36.2188 13.8346 -2.3918 0.8561
-36.4692 13.1603 -2.3918 0.8561
-36.6292 12.7082 -2.3918 0.8561
-36.7070 12.4814 -2.3918 0.8561
-26.5234 8.8361 -1.7247 0.8940
-26.3547 8.5992 -1.7102 0.8948
-26.1743 8.1836 -1.6918 0.8959
-26.0180 7.9584 -1.6785 0.8967
-25.8650 7.7371 -1.6655 0.8975
-25.7193 7.5205 -1.6531 0.8982
-25.2227 6.7027 -1.6100 0.9007
-24.9945 6.3122 -1.5903 0.9018
-24.5834 5.5653 -1.5550 0.9039
-24.4823 5.2250 -1.5443 0.9045
-25.0232 4.5365 -1.5689 0.9031
-25.2149 4.4103 -1.5791 0.9025
-38.3087 5.9703 -2.3918 0.8561
-38.3448 5.7333 -2.3918 0.8561
-38.3795 5.4961 -2.3918 0.8561
-38.4749 4.7831 -2.3918 0.8561
-38.5037 4.5451 -2.3918 0.8561
-38.5814 3.8301 -2.3918 0.8561
-38.6043 3.5914 -2.3918 0.8561
-38.6258 3.3525 -2.3918 0.8561
-38.6458 3.1136 -2.3918 0.8561
-38.6643 2.8746 -2.3918 0.8561
-38.6814 2.6354 -2.3918 0.8561
-38.7236 1.9173 -2.3918 0.8561
-38.7444 1.4383 -2.3918 0.8561
-38.7525 1.1986 -2.3918 0.8561
-38.7644 0.7192 -2.3918 0.8561
-38.7703 0.2397 -2.3918 0.8561
-34.5903 -0.0000 -2.3918 0.8705
-34.5896 -0.2139 -2.3918 0.8705
-34.5797 -0.8556 -2.3918 0.8705
-34.5737 -1.0694 -2.3918 0.8705
-34.5579 -1.4970 -2.3918 0.8705
-34.5367 -1.9243 -2.3918 0.8705
-34.4785 -2.7779 -2.3918 0.8705
-34.4607 -2.9911 -2.3918 0.8705
-34.4415 -3.2042 -2.3918 0.8705
-34.3993 -3.6299 -2.3918 0.8705
-34.3762 -3.8426 -2.3918 0.8705
-34.3518 -4.0552 -2.3918 0.8705
-34.3261 -4.2675 -2.3918 0.8705
-34.2989 -4.4796 -2.3918 0.8705
-34.2100 -5.1152 -2.3918 0.8705
-34.1092 -5.7489 -2.3918 0.8705
-34.0730 -5.9598 -2.3918 0.8705
-34.0355 -6.1704 -2.3918 0.8705
-33.9151 -6.8007 -2.3918 0.8705
-33.8285 -7.2197 -2.3918 0.8705
-33.7831 -7.4287 -2.3918 0.8705
-33.7366 -7.6375 -2.3918 0.8705
-33.6395 -8.0542 -2.3918 0.8705
-33.5891 -8.2621 -2.3918 0.8705
-33.5373 -8.4696 -2.3918 0.8705
-33.3176 -9.2966 -2.3918 0.8705
-33.2595 -9.5024 -2.3918 0.8705
-33.2000 -9.7079 -2.3918 0.8705
-33.1394 -9.9131 -2.3918 0.8705
-32.8841 -10.7297 -2.3918 0.8705
-32.8171 -10.9329 -2.3918 0.8705
-32.7488 -11.1356 -2.3918 0.8705
-32.6793 -11.3379 -2.3918 0.8705
-32.6086 -11.5398 -2.3918 0.8705
-32.3131 -12.3428 -2.3918 0.8705
-32.1581 -12.7415 -2.3918 0.8705
-31.9161 -13.3359 -2.3918 0.8705
-31.8330 -13.5330 -2.3918 0.8705
-31.6632 -13.9257 -2.3918 0.8705
-31.5766 -14.1212 -2.3918 0.8705
-31.1308 -14.8565 -2.3852 0.8708
-30.5290 -15.2710 -2.3604 0.8721
-30.3273 -15.4054 -2.3521 0.8725
-30.1271 -15.5387 -2.3440 0.8729
-29.9280 -15.6712 -2.3360 0.8733
-29.5228 -15.9273 -2.3195 0.8742
-29.1231 -16.1799 -2.3037 0.8750
-28.9202 -16.3020 -2.2956 0.8754
-28.7182 -16.4230 -2.2876 0.8758
-27.5247 -17.1259 -2.2416 0.8781
-27.3917 -17.2790 -2.2394 0.8782
-27.1759 -17.6164 -2.2394 0.8782
-27.0664 -17.7842 -2.2394 0.8782
-26.9559 -17.9512 -2.2394 0.8782
-26.8444 -18.1176 -2.2394 0.8782
-26.5037 -18.6125 -2.2394 0.8782
-26.2715 -18.9388 -2.2394 0.8782
-25.9156 -19.4230 -2.2394 0.8782
-25.7950 -19.5829 -2.2394 0.8782
-25.6734 -19.7420 -2.2394 0.8782
-25.4273 -20.0581 -2.2394 0.8782
-25.3028 -20.2149 -2.2394 0.8782
-25.1773 -20.3710 -2.2394 0.8782
-24.9234 -20.6809 -2.2394 0.8782
-24.5354 -21.1397 -2.2394 0.8782
-24.4042 -21.2910 -2.2394 0.8782
-24.2721 -21.4415 -2.2394 0.8782
-24.1390 -21.5912 -2.2394 0.8782
-23.7343 -22.0353 -2.2394 0.8782
-23.5976 -22.1816 -2.2394 0.8782
-23.4600 -22.3271 -2.2394 0.8782
-23.1820 -22.6156 -2.2394 0.8782
-23.0417 -22.7586 -2.2394 0.8782
-22.9005 -22.9006 -2.2394 0.8782
-22.7585 -23.0418 -2.2394 0.8782
-22.4717 -23.3215 -2.2394 0.8782
-22.0352 -23.7343 -2.2394 0.8782
-21.8880 -23.8702 -2.2394 0.8782
-21.7400 -24.0051 -2.2394 0.8782
-21.5911 -24.1391 -2.2394 0.8782
-21.2909 -24.4043 -2.2394 0.8782
-21.1396 -24.5354 -2.2394 0.8782
-20.9875 -24.6657 -2.2394 0.8782
-20.3710 -25.1773 -2.2394 0.8782
-20.2148 -25.3028 -2.2394 0.8782
-20.0580 -25.4274 -2.2394 0.8782
-19.9004 -25.5509 -2.2394 0.8782
-19.7420 -25.6735 -2.2394 0.8782
-19.5828 -25.7951 -2.2394 0.8782
-19.1009 -26.1539 -2.2394 0.8782
-18.6125 -26.5038 -2.2394 0.8782
-18.2832 -26.7319 -2.2394 0.8782
-18.1176 -26.8445 -2.2394 0.8782
-17.9512 -26.9560 -2.2394 0.8782
-17.7841 -27.0665 -2.2394 0.8782
-17.4480 -27.2844 -2.2394 0.8782
-17.2790 -27.3918 -2.2394 0.8782
-17.1092 -27.4981 -2.2394 0.8782
-16.9389 -27.6034 -2.2394 0.8782
-16.7678 -27.7076 -2.2394 0.8782
-16.4239 -27.9129 -2.2394 0.8782
-16.2509 -28.0139 -2.2394 0.8782
-16.0774 -28.1139 -2.2394 0.8782
-15.1952 -27.3507 -2.1635 0.8821
-14.9233 -27.2571 -2.1488 0.8829
-10.5051 -19.7637 -1.5477 0.9142
-10.3437 -19.7540 -1.5419 0.9145
-10.2135 -19.8023 -1.5407 0.9145
-9.9418 -19.8752 -1.5367 0.9148
-9.4917 -19.8893 -1.5239 0.9154
-9.1970 -19.9012 -1.5160 0.9158
-9.0507 -19.9070 -1.5121 0.9161
-8.7599 -19.9178 -1.5046 0.9165
-8.6155 -19.9229 -1.5009 0.9166
-8.4721 -19.9287 -1.4974 0.9168
-8.3294 -19.9345 -1.4939 0.9170
-8.0484 -19.9522 -1.4877 0.9174
-7.9157 -19.9783 -1.4859 0.9174
-7.7856 -20.0105 -1.4847 0.9175
-7.6762 -20.0962 -1.4875 0.9174
-7.5683 -20.5735 -1.5158 0.9159
-7.5778 -20.9992 -1.5437 0.9144
-9.4504 -26.7047 -1.9588 0.8926
-9.2884 -26.7721 -1.9595 0.8926
-9.1259 -26.8385 -1.9602 0.8926
-8.9629 -26.9039 -1.9609 0.8925
-8.5976 -26.9131 -1.9536 0.8929
-8.2342 -26.9196 -1.9466 0.8933
-8.2070 -27.4362 -1.9802 0.8915
-8.2161 -28.0982 -2.0243 0.8892
-7.6938 -26.9292 -1.9366 0.8938
-7.1587 -26.9387 -1.9274 0.8943
-6.9815 -26.9418 -1.9245 0.8944
-6.6285 -26.9480 -1.9189 0.8947
-6.2775 -26.9542 -1.9137 0.8950
-5.5810 -26.9665 -1.9042 0.8955
-5.0629 -26.9757 -1.8979 0.8958
-4.8780 -26.9073 -1.8909 0.8962
-4.6171 -27.3943 -1.9210 0.8946
-4.2703 -27.4004 -1.9175 0.8948
-3.9247 -27.4064 -1.9144 0.8949
-3.7523 -27.4094 -1.9130 0.8950
-3.5802 -27.4124 -1.9116 0.8951
-3.4083 -27.4154 -1.9103 0.8951
-3.0651 -27.4214 -1.9079 0.8953
-2.8938 -27.4243 -1.9068 0.8953
-2.7228 -27.4273 -1.9058 0.8954
-2.3811 -27.4332 -1.9041 0.8955
-2.2105 -27.4361 -1.9033 0.8955
-1.8697 -27.4420 -1.9019 0.8956
-1.4015 -32.3559 -2.2394 0.8782
-1.2014 -32.3640 -2.2394 0.8782
-1.0013 -32.3708 -2.2394 0.8782
-0.6008 -32.3807 -2.2394 0.8782
-0.4006 -32.3838 -2.2394 0.8782
0.4006 -32.3838 -2.2394 0.8782
0.6008 -32.3807 -2.2394 0.8782
0.8011 -32.3764 -2.2394 0.8782
1.0013 -32.3708 -2.2394 0.8782
1.2014 -32.3640 -2.2394 0.8782
1.0061 -20.3188 -1.4067 0.9217
1.2479 -20.1526 -1.3962 0.9222
1.4984 -20.1534 -1.3974 0.9222
1.8748 -20.1522 -1.3995 0.9221
2.2525 -20.1516 -1.4021 0.9219
2.3790 -20.1535 -1.4032 0.9219
2.6315 -20.1484 -1.4050 0.9218
2.7583 -20.1484 -1.4062 0.9217
3.1401 -20.1484 -1.4100 0.9215
3.2679 -20.1484 -1.4114 0.9214
3.5242 -20.1484 -1.4144 0.9213
3.7816 -20.1484 -1.4175 0.9211
3.9107 -20.1483 -1.4192 0.9210
4.0401 -20.1482 -1.4209 0.9209
5.0957 -20.1774 -1.4390 0.9199
7.3353 -27.6030 -1.9749 0.8918
7.5192 -27.6063 -1.9784 0.8916
7.6920 -27.5671 -1.9790 0.8916
8.0735 -26.9897 -1.9480 0.8932
8.4404 -26.9958 -1.9558 0.8928
8.6250 -26.9989 -1.9598 0.8926
8.8104 -27.0020 -1.9640 0.8924
6.8842 -20.6643 -1.5061 0.9164
7.1384 -20.1715 -1.4796 0.9178
7.2221 -19.6323 -1.4465 0.9195
7.3620 -19.6372 -1.4501 0.9194
7.6445 -19.6479 -1.4578 0.9189
7.9298 -19.6580 -1.4657 0.9185
8.2182 -19.6682 -1.4739 0.9181
8.3614 -19.6682 -1.4778 0.9179
8.5076 -19.6731 -1.4821 0.9176
8.7978 -19.6728 -1.4902 0.9172
8.9441 -19.6726 -1.4943 0.9170
9.4767 -19.5459 -1.5020 0.9166
9.7611 -19.5139 -1.5087 0.9162
9.9136 -19.5162 -1.5136 0.9160
10.2989 -19.6683 -1.5352 0.9148
14.7407 -27.7325 -2.1717 0.8817
15.6412 -27.7479 -2.2025 0.8801
15.8704 -27.7519 -2.2106 0.8797
16.1013 -27.7559 -2.2188 0.8793
16.3339 -27.7599 -2.2271 0.8788
16.9389 -27.6034 -2.2394 0.8782
17.2790 -27.3918 -2.2394 0.8782
17.6164 -27.1759 -2.2394 0.8782
18.4482 -26.6184 -2.2394 0.8782
18.7760 -26.3881 -2.2394 0.8782
19.2623 -26.0353 -2.2394 0.8782
19.5828 -25.7951 -2.2394 0.8782
19.7420 -25.6734 -2.2394 0.8782
20.0580 -25.4273 -2.2394 0.8782
20.2149 -25.3028 -2.2394 0.8782
20.3710 -25.1773 -2.2394 0.8782
20.6808 -24.9234 -2.2394 0.8782
21.1396 -24.5355 -2.2394 0.8782
21.4415 -24.2721 -2.2394 0.8782
22.0352 -23.7343 -2.2394 0.8782
22.1816 -23.5977 -2.2394 0.8782
22.6155 -23.1820 -2.2394 0.8782
22.7585 -23.0417 -2.2394 0.8782
22.9006 -22.9006 -2.2394 0.8782
23.1820 -22.6156 -2.2394 0.8782
23.5976 -22.1817 -2.2394 0.8782
23.7343 -22.0353 -2.2394 0.8782
23.8702 -21.8881 -2.2394 0.8782
24.1377 -21.8602 -2.2518 0.8776
24.4316 -21.8529 -2.2666 0.8768
24.7320 -21.8478 -2.2819 0.8761
25.3451 -21.8372 -2.3133 0.8745
25.6580 -21.8318 -2.3295 0.8736
26.2972 -21.8208 -2.3629 0.8720
26.6237 -21.8151 -2.3800 0.8711
27.0247 -21.5906 -2.3918 0.8705
27.1577 -21.4230 -2.3918 0.8705
27.4206 -21.0855 -2.3918 0.8705
27.5504 -20.9155 -2.3918 0.8705
28.0594 -20.2277 -2.3918 0.8705
27.5483 -19.6015 -2.3379 0.8732
27.8406 -19.5513 -2.3524 0.8725
28.4298 -19.7037 -2.3918 0.8705
28.6713 -19.3506 -2.3918 0.8705
28.7904 -19.1729 -2.3918 0.8705
28.9084 -18.9945 -2.3918 0.8705
29.1412 -18.6355 -2.3918 0.8705
29.4818 -18.0916 -2.3918 0.8705
29.7033 -17.7256 -2.3918 0.8705
29.8124 -17.5416 -2.3918 0.8705
30.1327 -16.9855 -2.3918 0.8705
30.5436 -16.2349 -2.3918 0.8705
30.6434 -16.0458 -2.3918 0.8705
30.8395 -15.6655 -2.3918 0.8705
31.1249 -15.0907 -2.3918 0.8705
31.3995 -14.5107 -2.3918 0.8705
31.4886 -14.3162 -2.3918 0.8705
31.5765 -14.1212 -2.3918 0.8705
31.6633 -13.9257 -2.3918 0.8705
31.8330 -13.5330 -2.3918 0.8705
31.9161 -13.3359 -2.3918 0.8705
32.0786 -12.9401 -2.3918 0.8705
32.1581 -12.7415 -2.3918 0.8705
32.3132 -12.3428 -2.3918 0.8705
32.3889 -12.1427 -2.3918 0.8705
32.5366 -11.7412 -2.3918 0.8705
32.6086 -11.5398 -2.3918 0.8705
32.6793 -11.3379 -2.3918 0.8705
32.7488 -11.1356 -2.3918 0.8705
32.8170 -10.9329 -2.3918 0.8705
33.0143 -10.3221 -2.3918 0.8705
33.0774 -10.1178 -2.3918 0.8705
33.3176 -9.2966 -2.3918 0.8705
33.3744 -9.0903 -2.3918 0.8705
33.4300 -8.8837 -2.3918 0.8705
33.4843 -8.6769 -2.3918 0.8705
33.5373 -8.4696 -2.3918 0.8705
33.5890 -8.2621 -2.3918 0.8705
33.6395 -8.0542 -2.3918 0.8705
33.6887 -7.8460 -2.3918 0.8705
33.8724 -7.0103 -2.3918 0.8705
33.9152 -6.8007 -2.3918 0.8705
33.9566 -6.5908 -2.3918 0.8705
34.0730 -5.9597 -2.3918 0.8705
34.1777 -5.3274 -2.3918 0.8705
34.2990 -4.4799 -2.3918 0.8705
34.3762 -3.8429 -2.3918 0.8705
34.3992 -3.6299 -2.3918 0.8705
34.4415 -3.2041 -2.3918 0.8705
34.4607 -2.9911 -2.3918 0.8705
34.4951 -2.5646 -2.3918 0.8705
34.5366 -1.9243 -2.3918 0.8705
34.5665 -1.2832 -2.3918 0.8705
34.5737 -1.0694 -2.3918 0.8705
13.3103 0.0000 -0.9204 0.9480
13.2968 0.1645 -0.9195 0.9481
13.2960 0.2467 -0.9195 0.9481
13.3018 0.4114 -0.9202 0.9480
13.4252 0.5815 -0.9292 0.9475
34.5479 1.7106 -2.3918 0.8705
32.3173 2.2018 -2.2398 0.8782
32.3104 2.4022 -2.2403 0.8782
32.2928 2.8029 -2.2414 0.8781
32.2820 3.0032 -2.2419 0.8781
32.2699 3.2035 -2.2423 0.8781
32.2566 3.4037 -2.2428 0.8780
32.2260 3.8040 -2.2438 0.8780
32.2087 4.0042 -2.2443 0.8780
32.1900 4.2041 -2.2448 0.8780
32.1341 4.6017 -2.2447 0.8780
32.1044 4.8003 -2.2446 0.8780
32.0411 5.1967 -2.2445 0.8780
20.8297 3.9094 -1.4655 0.9185
19.5127 3.9127 -1.3761 0.9233
19.4691 4.0293 -1.3748 0.9234
20.0963 4.2889 -1.4209 0.9209
25.4529 5.5969 -1.8020 0.9008
25.4560 5.7629 -1.8048 0.9006
24.1071 5.6144 -1.7115 0.9055
23.9439 5.8896 -1.7050 0.9059
23.9490 6.2060 -1.7107 0.9056
23.9542 6.5245 -1.7167 0.9052
23.9569 6.6846 -1.7198 0.9051
23.9594 6.8453 -1.7230 0.9049
21.9284 6.8561 -1.5887 0.9120
21.3134 6.8087 -1.5471 0.9142
20.9786 6.9889 -1.5290 0.9152
20.8314 7.2273 -1.5247 0.9154
20.7503 7.3432 -1.5220 0.9155
18.9775 6.8482 -1.3951 0.9223
18.7865 6.9109 -1.3841 0.9229
18.0874 6.9089 -1.3388 0.9253
16.1778 6.4099 -1.2033 0.9326
16.2189 6.5425 -1.2093 0.9323
16.2212 6.6604 -1.2125 0.9321
14.7907 6.2879 -1.1113 0.9376
14.5761 6.3034 -1.0981 0.9383
14.4962 6.6991 -1.1042 0.9380
14.4983 6.8093 -1.1076 0.9378
14.5004 6.9200 -1.1110 0.9376
12.9935 6.6003 -1.0077 0.9432
12.9406 6.6744 -1.0068 0.9433
12.9810 6.7972 -1.0132 0.9429
12.9827 6.9007 -1.0167 0.9428
13.0000 7.9774 -1.0547 0.9407
11.2183 6.9800 -0.9136 0.9484
11.0212 6.9523 -0.9010 0.9491
10.7031 6.9381 -0.8820 0.9501
10.4781 6.9778 -0.8705 0.9508
10.2058 7.0733 -0.8586 0.9514
10.1297 7.1137 -0.8559 0.9516
10.0542 7.1538 -0.8532 0.9517
9.8576 7.2932 -0.8479 0.9520
9.8045 7.3482 -0.8472 0.9521
9.6986 7.4579 -0.8460 0.9521
9.6457 7.5126 -0.8454 0.9522
9.4940 7.7792 -0.8487 0.9520
9.4597 7.8494 -0.8500 0.9519
9.4254 7.9199 -0.8513 0.9518
9.3437 8.3575 -0.8668 0.9510
9.3322 8.4516 -0.8706 0.9508
9.3418 9.0014 -0.8970 0.9493
9.3437 9.1154 -0.9026 0.9490
9.3458 9.2309 -0.9083 0.9487
9.3478 9.3478 -0.9141 0.9484
9.3499 9.4662 -0.9200 0.9480
9.3562 9.8310 -0.9384 0.9470
9.3629 10.2107 -0.9579 0.9460
9.3651 10.3409 -0.9647 0.9456
9.3674 10.4729 -0.9716 0.9452
9.3721 10.7426 -0.9858 0.9444
9.3745 10.8805 -0.9931 0.9440
9.3925 11.9067 -1.0486 0.9410
9.4065 12.7140 -1.0936 0.9386
9.4095 12.8839 -1.1032 0.9380
9.4125 13.0568 -1.1130 0.9375
9.3928 13.2008 -1.1203 0.9371
9.5266 13.5656 -1.1462 0.9357
9.5331 13.9383 -1.1677 0.9345
9.5433 14.5244 -1.2017 0.9327
9.5054 14.8641 -1.2200 0.9317
4.4132 7.1917 -0.5835 0.9667
4.3604 7.2052 -0.5823 0.9668
4.2748 7.1635 -0.5768 0.9671
4.1909 7.1225 -0.5714 0.9674
3.9202 6.9546 -0.5520 0.9685
3.8502 7.0322 -0.5544 0.9684
3.8154 7.0722 -0.5557 0.9683
3.7042 7.0742 -0.5522 0.9685
3.6492 7.0751 -0.5505 0.9686
3.5944 7.0761 -0.5488 0.9687
3.4821 7.0701 -0.5450 0.9689
3.4322 7.0789 -0.5440 0.9689
3.3255 7.0808 -0.5409 0.9691
3.0407 7.0315 -0.5297 0.9698
2.9987 7.0538 -0.5300 0.9697
2.7881 7.1658 -0.5317 0.9696
2.7458 7.1883 -0.5321 0.9696
2.6609 7.2334 -0.5329 0.9696
2.5638 7.2446 -0.5314 0.9697
2.5417 7.4751 -0.5459 0.9688
2.4717 7.5751 -0.5510 0.9686
2.4361 7.6259 -0.5536 0.9684
2.3853 7.6292 -0.5527 0.9685
2.3275 7.7810 -0.5616 0.9680
2.2906 7.8337 -0.5644 0.9678
2.2137 7.9336 -0.5695 0.9675
2.0981 7.8952 -0.5649 0.9678
2.0733 8.2097 -0.5855 0.9666
2.0537 8.3492 -0.5945 0.9661
2.0240 8.4535 -0.6011 0.9657
1.9141 8.4552 -0.5994 0.9658
1.8594 8.4560 -0.5987 0.9659
1.7504 8.4577 -0.5972 0.9660
1.6961 8.4585 -0.5965 0.9660
1.6419 8.4593 -0.5959 0.9660
1.3171 7.5303 -0.5286 0.9698
1.2017 7.4089 -0.5190 0.9704
1.1741 7.5335 -0.5272 0.9699
1.1266 7.5346 -0.5268 0.9699
1.0791 7.5356 -0.5264 0.9699
0.9951 8.4296 -0.5869 0.9665
0.9000 8.5296 -0.5931 0.9662
0.5815 8.5351 -0.5915 0.9663
0.4227 8.5379 -0.5911 0.9663
0.2642 8.5407 -0.5908 0.9663
0.2113 8.5416 -0.5908 0.9663
0.1585 8.5425 -0.5908 0.9663
0.1057 8.5434 -0.5908 0.9663
0.0000 8.5453 -0.5909 0.9663
-0.1046 8.4522 -0.5845 0.9667
-0.1569 8.4558 -0.5848 0.9667
-0.2338 7.5582 -0.5229 0.9701
-0.2760 7.4347 -0.5144 0.9706
-0.3743 7.5599 -0.5234 0.9701
-0.4212 7.5607 -0.5236 0.9701
-0.5293 7.1193 -0.4936 0.9718
-0.3757 4.0384 -0.2804 0.9839
-0.3820 3.8476 -0.2674 0.9846
-0.4060 3.8480 -0.2676 0.9846
-0.4543 3.8488 -0.2680 0.9846
-0.4777 3.8427 -0.2678 0.9846
-0.5222 3.8146 -0.2662 0.9847
-0.5457 3.8109 -0.2662 0.9847
-0.5693 3.8072 -0.2662 0.9847
-0.5936 3.8088 -0.2665 0.9847
-0.7031 3.8780 -0.2725 0.9843
-1.6091 8.5734 -0.6032 0.9656
-1.6642 8.5743 -0.6040 0.9656
-1.7544 8.4770 -0.5986 0.9659
-1.8989 8.3879 -0.5947 0.9661
-1.9023 8.1679 -0.5799 0.9669
-1.9162 7.5877 -0.5411 0.9691
-2.0167 7.5890 -0.5430 0.9690
-2.1172 7.5877 -0.5447 0.9689
-2.6104 8.5340 -0.6171 0.9649
-2.6686 8.5351 -0.6184 0.9648
-2.7270 8.5363 -0.6196 0.9647
-2.8405 8.3536 -0.6101 0.9652
-1.5684 4.5205 -0.3309 0.9810
-1.5665 4.3409 -0.3191 0.9817
-1.6169 4.2330 -0.3133 0.9820
-1.6182 4.1590 -0.3086 0.9823
-1.6194 4.0873 -0.3040 0.9825
-1.6206 4.0176 -0.2996 0.9828
-1.6218 3.9499 -0.2953 0.9830
-1.6241 3.8203 -0.2870 0.9835
-1.6262 3.6976 -0.2793 0.9839
-1.6292 3.5255 -0.2686 0.9845
-1.6302 3.4710 -0.2652 0.9847
-1.5843 3.3198 -0.2544 0.9854
-1.5909 3.2302 -0.2490 0.9857
-1.5917 3.1821 -0.2460 0.9858
-1.5925 3.1351 -0.2432 0.9860
-1.6726 3.1468 -0.2464 0.9858
-1.6952 3.1423 -0.2469 0.9858
-1.7083 3.1202 -0.2460 0.9858
-3.9375 7.0873 -0.5606 0.9680
-4.1236 7.2108 -0.5744 0.9672
-4.1836 7.2119 -0.5765 0.9671
-2.6621 4.5243 -0.3630 0.9792
-2.8310 4.4879 -0.3669 0.9789
-2.9101 4.4893 -0.3699 0.9788
-3.0723 4.4921 -0.3763 0.9784
-3.1138 4.4928 -0.3780 0.9783
-3.1556 4.4935 -0.3797 0.9782
-3.1978 4.4943 -0.3814 0.9781
-3.2404 4.4950 -0.3832 0.9780
-3.2834 4.4958 -0.3849 0.9779
-3.5045 4.4996 -0.3944 0.9774
-3.5501 4.5004 -0.3964 0.9773
-3.5961 4.5012 -0.3984 0.9772
-3.6426 4.5020 -0.4004 0.9770
-3.7693 4.4858 -0.4051 0.9768
-3.8630 4.4835 -0.4092 0.9766
-3.9822 4.5080 -0.4159 0.9762
-4.0329 4.5088 -0.4183 0.9760
-4.0842 4.5097 -0.4207 0.9759
-4.1361 4.5106 -0.4232 0.9758
-4.1886 4.5116 -0.4257 0.9756
-4.2417 4.5125 -0.4282 0.9755
-4.2955 4.5134 -0.4308 0.9753
-4.5173 4.5173 -0.4417 0.9747
-4.5745 4.5183 -0.4446 0.9745
-4.6325 4.5193 -0.4475 0.9744
-4.8791 4.4739 -0.4578 0.9738
-4.9039 4.3863 -0.4549 0.9740
-4.9226 4.3486 -0.4542 0.9740
-4.9236 4.2955 -0.4518 0.9741
-4.9245 4.2429 -0.4495 0.9743
-4.9254 4.1909 -0.4472 0.9744
-4.9263 4.1394 -0.4449 0.9745
-4.9281 4.0380 -0.4405 0.9748
-4.9298 3.9385 -0.4363 0.9750
-4.9307 3.8895 -0.4343 0.9751
-4.9112 3.8251 -0.4304 0.9753
-4.9179 3.7817 -0.4290 0.9754
-4.8893 3.7118 -0.4245 0.9757
-10.8497 7.8215 -0.9248 0.9478
-10.8530 7.6216 -0.9170 0.9482
-10.8546 7.5229 -0.9132 0.9484
-10.8562 7.4251 -0.9095 0.9486
-10.8578 7.3280 -0.9058 0.9488
-10.8226 7.1110 -0.8954 0.9494
-10.8600 7.0399 -0.8949 0.9494
-10.9983 7.0333 -0.9027 0.9490
-11.1748 6.8574 -0.9066 0.9488
-12.5788 7.6123 -1.0167 0.9428
-12.5839 7.2999 -1.0059 0.9433
-12.5488 7.0736 -0.9961 0.9439
-12.5504 6.9726 -0.9928 0.9441
-12.7047 6.9559 -1.0015 0.9436
-12.6821 6.8419 -0.9964 0.9439
-14.1490 7.5206 -1.1080 0.9378
-14.5542 7.2802 -1.1253 0.9368
-14.9118 7.2299 -1.1459 0.9357
-31.3091 14.7046 -2.3918 0.8705
-17.6260 7.8824 -1.3351 0.9255
-17.4702 7.6835 -1.3197 0.9263
-17.5449 7.5872 -1.3218 0.9262
-17.6369 7.4979 -1.3252 0.9260
-17.7372 7.4113 -1.3292 0.9258
-32.1581 12.7414 -2.3918 0.8705
-32.3131 12.3427 -2.3918 0.8705
-32.3889 12.1427 -2.3918 0.8705
-32.5366 11.7412 -2.3918 0.8705
-32.6793 11.3378 -2.3918 0.8705
-32.7489 11.1355 -2.3918 0.8705
-26.5121 8.8324 -1.9323 0.8940
-26.2775 8.5740 -1.9113 0.8951
-26.1466 8.3528 -1.8980 0.8958
-25.9552 7.9392 -1.8768 0.8969
-25.6180 7.3192 -1.8423 0.8987
-25.4963 7.1142 -1.8303 0.8993
-25.3691 6.9099 -1.8181 0.8999
-24.9826 6.3092 -1.7817 0.9018
-24.5035 5.5472 -1.7372 0.9042
-24.4454 5.2171 -1.7284 0.9046
-24.4566 5.0616 -1.7269 0.9047
-24.5302 4.9188 -1.7300 0.9046
-24.9062 4.5153 -1.7503 0.9035
-25.1199 4.3937 -1.7633 0.9028
-25.5683 4.3094 -1.7929 0.9013
-34.1441 5.5378 -2.3918 0.8705
-34.2099 5.1151 -2.3918 0.8705
-34.2409 4.9034 -2.3918 0.8705
-34.2989 4.4796 -2.3918 0.8705
-34.3260 4.2674 -2.3918 0.8705
-34.4415 3.2041 -2.3918 0.8705
-34.4785 2.7779 -2.3918 0.8705
-34.4950 2.5646 -2.3918 0.8705
-34.5241 2.1378 -2.3918 0.8705
-34.5367 1.9242 -2.3918 0.8705
-34.5579 1.4969 -2.3918 0.8705
-34.5737 1.0694 -2.3918 0.8705
-34.5796 0.8555 -2.3918 0.8705
-31.2202 -0.0000 -2.3918 0.8823
-31.2178 -0.3862 -2.3918 0.8823
-31.2148 -0.5792 -2.3918 0.8823
-31.2106 -0.7722 -2.3918 0.8823
-31.1820 -1.5440 -2.3918 0.8823
-31.1605 -1.9295 -2.3918 0.8823
-31.1480 -2.1222 -2.3918 0.8823
-31.1343 -2.3148 -2.3918 0.8823
-31.0859 -2.8920 -2.3918 0.8823
-30.9817 -3.8517 -2.3918 0.8823
-30.9572 -4.0432 -2.3918 0.8823
-30.8769 -4.6168 -2.3918 0.8823
-30.8175 -4.9983 -2.3918 0.8823
-30.7860 -5.1888 -2.3918 0.8823
-30.7194 -5.5692 -2.3918 0.8823
-30.6109 -6.1382 -2.3918 0.8823
-30.5723 -6.3273 -2.3918 0.8823
-30.4064 -7.0816 -2.3918 0.8823
-30.2219 -7.8314 -2.3918 0.8823
-30.1730 -8.0183 -2.3918 0.8823
-30.1228 -8.2047 -2.3918 0.8823
-30.0715 -8.3908 -2.3918 0.8823
-30.0190 -8.5766 -2.3918 0.8823
-29.8548 -9.1321 -2.3918 0.8823
-29.7977 -9.3165 -2.3918 0.8823
-29.7395 -9.5006 -2.3918 0.8823
-29.6802 -9.6843 -2.3918 0.8823
-29.3666 -10.5973 -2.3918 0.8823
-29.3005 -10.7787 -2.3918 0.8823
-29.2333 -10.9597 -2.3918 0.8823
-29.0955 -11.3204 -2.3918 0.8823
-29.0249 -11.5001 -2.3918 0.8823
-28.7316 -12.2145 -2.3918 0.8823
-28.2587 -13.2720 -2.3918 0.8823
-27.8349 -14.1393 -2.3918 0.8823
-27.7469 -14.3111 -2.3918 0.8823
-27.2912 -15.1622 -2.3918 0.8823
-27.1969 -15.3306 -2.3918 0.8823
-27.0052 -15.6658 -2.3918 0.8823
-26.9078 -15.8325 -2.3918 0.8823
-26.8094 -15.9987 -2.3918 0.8823
-26.5080 -16.4932 -2.3918 0.8823
-26.4055 -16.6568 -2.3918 0.8823
-26.1975 -16.9822 -2.3918 0.8823
-25.9854 -17.3049 -2.3918 0.8823
-25.7694 -17.6250 -2.3918 0.8823
-25.2772 -18.2220 -2.3873 0.8825
-24.8828 -18.4097 -2.3713 0.8832
-24.4866 -18.5896 -2.3553 0.8840
-23.7009 -18.9352 -2.3241 0.8854
-23.5042 -19.0173 -2.3163 0.8858
-23.1147 -19.1801 -2.3011 0.8865
-22.7246 -19.3359 -2.2859 0.8872
-22.5300 -19.4118 -2.2784 0.8875
-22.3366 -19.4871 -2.2709 0.8879
-21.9511 -19.6342 -2.2563 0.8886
-21.2985 -20.0205 -2.2394 0.8893
-21.0493 -20.2824 -2.2394 0.8893
-20.9234 -20.4122 -2.2394 0.8893
-20.6694 -20.6694 -2.2394 0.8893
-20.5412 -20.7968 -2.2394 0.8893
-20.1518 -21.1743 -2.2394 0.8893
-20.0205 -21.2986 -2.2394 0.8893
-19.6219 -21.6663 -2.2394 0.8893
-19.3524 -21.9073 -2.2394 0.8893
-18.9427 -22.2626 -2.2394 0.8893
-18.8046 -22.3793 -2.2394 0.8893
-18.6659 -22.4952 -2.2394 0.8893
-18.5264 -22.6102 -2.2394 0.8893
-18.2454 -22.8376 -2.2394 0.8893
-17.8185 -23.1721 -2.2394 0.8893
-17.6749 -23.2819 -2.2394 0.8893
-17.5306 -23.3908 -2.2394 0.8893
-17.3856 -23.4987 -2.2394 0.8893
-17.2399 -23.6058 -2.2394 0.8893
-16.9467 -23.8172 -2.2394 0.8893
-16.6508 -24.0250 -2.2394 0.8893
-16.3524 -24.2291 -2.2394 0.8893
-16.2022 -24.3297 -2.2394 0.8893
-15.9001 -24.5282 -2.2394 0.8893
-15.7481 -24.6261 -2.2394 0.8893
-15.5955 -24.7230 -2.2394 0.8893
-15.2885 -24.9140 -2.2394 0.8893
-14.8237 -25.1934 -2.2394 0.8893
-14.5110 -25.3748 -2.2394 0.8893
-14.1960 -25.5523 -2.2394 0.8893
-10.8040 -19.7333 -1.7236 0.9137
-10.6117 -19.6699 -1.7122 0.9142
-10.0337 -19.7525 -1.6973 0.9150
-9.9357 -19.8629 -1.7015 0.9148
-9.4822 -19.8694 -1.6867 0.9155
-9.3326 -19.8710 -1.6819 0.9157
-9.0381 -19.8793 -1.6730 0.9161
-8.8923 -19.8842 -1.6687 0.9163
-8.7470 -19.8885 -1.6645 0.9165
-8.3217 -19.9160 -1.6536 0.9171
-8.1788 -19.9193 -1.6497 0.9172
-7.8384 -19.7832 -1.6302 0.9182
-7.6995 -19.7892 -1.6268 0.9183
-7.5690 -19.8157 -1.6251 0.9184
-7.4628 -19.9060 -1.6287 0.9183
-7.3826 -20.4582 -1.6663 0.9164
-7.3674 -20.8186 -1.6919 0.9152
-7.3706 -21.2444 -1.7227 0.9137
-8.9923 -26.4458 -2.1400 0.8940
-8.8113 -26.4490 -2.1358 0.8942
-8.6310 -26.4523 -2.1317 0.8944
-8.2933 -26.5252 -2.1291 0.8945
-8.2070 -27.4363 -2.1940 0.8915
-7.8096 -26.7080 -2.1318 0.8944
-7.4541 -26.7144 -2.1248 0.8947
-7.1008 -26.7208 -2.1182 0.8950
-6.9250 -26.7240 -2.1150 0.8952
-6.2268 -26.7366 -2.1031 0.8957
-5.7081 -26.7459 -2.0952 0.8961
-5.5360 -26.7490 -2.0927 0.8962
-5.1930 -26.7552 -2.0880 0.8964
-5.0221 -26.7582 -2.0858 0.8965
-4.8516 -26.7613 -2.0836 0.8966
-4.2704 -27.4006 -2.1245 0.8947
-4.0974 -27.4036 -2.1228 0.8948
-3.9248 -27.4066 -2.1211 0.8949
-3.5802 -27.4125 -2.1179 0.8950
-3.2366 -27.4184 -2.1151 0.8952
-3.0651 -27.4214 -2.1139 0.8952
-2.8938 -27.4243 -2.1127 0.8953
-2.7228 -27.4273 -2.1116 0.8953
-2.3811 -27.4332 -2.1096 0.8954
-2.2105 -27.4361 -2.1087 0.8955
-2.0400 -27.4390 -2.1079 0.8955
-1.8697 -27.4420 -2.1072 0.8955
-1.6994 -27.4449 -2.1066 0.8956
-1.2650 -29.2036 -2.2394 0.8893
-1.0844 -29.2108 -2.2394 0.8893
-0.9037 -29.2170 -2.2394 0.8893
-0.3615 -29.2288 -2.2394 0.8893
-0.1808 -29.2304 -2.2394 0.8893
0.3615 -29.2287 -2.2394 0.8893
1.2650 -29.2035 -2.2394 0.8893
1.0043 -20.2831 -1.5558 0.9218
1.1239 -20.1727 -1.5479 0.9221
1.4989 -20.1604 -1.5488 0.9221
1.7499 -20.1614 -1.5504 0.9220
2.1328 -20.2119 -1.5571 0.9217
2.2533 -20.1587 -1.5540 0.9218
2.3793 -20.1562 -1.5549 0.9218
2.5051 -20.1508 -1.5557 0.9218
3.0126 -20.1484 -1.5608 0.9215
3.1401 -20.1484 -1.5622 0.9215
3.2679 -20.1484 -1.5638 0.9214
3.3959 -20.1484 -1.5654 0.9213
3.6527 -20.1484 -1.5688 0.9211
3.7815 -20.1482 -1.5705 0.9211
4.3000 -20.1482 -1.5783 0.9207
4.4305 -20.1484 -1.5805 0.9206
4.5613 -20.1484 -1.5827 0.9205
4.9562 -20.1494 -1.5897 0.9201
7.3353 -27.6033 -2.1881 0.8917
7.5193 -27.6065 -2.1920 0.8916
7.6932 -27.5713 -2.1930 0.8915
7.9993 -26.7417 -2.1384 0.8941
6.8777 -21.0787 -1.6987 0.9149
6.8791 -20.2309 -1.6371 0.9178
6.9963 -19.7699 -1.6066 0.9193
7.1747 -19.5037 -1.5921 0.9200
7.4407 -19.4796 -1.5975 0.9197
8.0738 -19.6637 -1.6285 0.9183
8.2182 -19.6682 -1.6331 0.9180
8.5072 -19.6724 -1.6420 0.9176
8.6521 -19.6726 -1.6465 0.9174
9.0917 -19.6734 -1.6604 0.9167
9.2373 -19.6682 -1.6647 0.9165
9.5875 -19.4669 -1.6625 0.9166
9.7337 -19.4592 -1.6669 0.9164
9.8860 -19.4618 -1.6723 0.9162
10.0637 -19.5119 -1.6820 0.9157
10.2996 -19.6697 -1.7010 0.9148
13.7195 -25.8113 -2.2394 0.8893
13.8789 -25.7259 -2.2394 0.8893
14.5110 -25.3748 -2.2394 0.8893
14.6676 -25.2845 -2.2394 0.8893
14.8237 -25.1934 -2.2394 0.8893
14.9792 -25.1012 -2.2394 0.8893
15.7481 -24.6261 -2.2394 0.8893
16.0515 -24.4294 -2.2394 0.8893
16.3524 -24.2290 -2.2394 0.8893
16.5019 -24.1275 -2.2394 0.8893
16.7991 -23.9215 -2.2394 0.8893
17.8185 -23.1721 -2.2394 0.8893
18.2454 -22.8376 -2.2394 0.8893
19.0800 -22.1450 -2.2394 0.8893
19.3540 -21.9091 -2.2396 0.8893
20.3142 -21.8806 -2.2874 0.8871
20.8158 -21.8720 -2.3132 0.8859
21.0708 -21.8676 -2.3265 0.8853
21.3288 -21.8631 -2.3400 0.8847
21.8539 -21.8539 -2.3678 0.8834
22.1212 -21.8492 -2.3820 0.8827
22.4817 -21.6627 -2.3918 0.8823
22.6153 -21.5232 -2.3918 0.8823
22.8797 -21.2419 -2.3918 0.8823
23.1407 -20.9573 -2.3918 0.8823
23.5255 -20.5244 -2.3918 0.8823
23.6520 -20.3785 -2.3918 0.8823
24.1488 -19.7872 -2.3918 0.8823
24.2707 -19.6375 -2.3918 0.8823
24.3917 -19.4871 -2.3918 0.8823
24.7490 -19.0312 -2.3918 0.8823
24.9825 -18.7236 -2.3918 0.8823
25.0978 -18.5688 -2.3918 0.8823
25.3256 -18.2570 -2.3918 0.8823
25.4380 -18.1000 -2.3918 0.8823
25.6599 -17.7840 -2.3918 0.8823
25.7694 -17.6249 -2.3918 0.8823
25.8779 -17.4653 -2.3918 0.8823
25.9854 -17.3049 -2.3918 0.8823
26.0919 -17.1438 -2.3918 0.8823
26.1974 -16.9822 -2.3918 0.8823
26.4055 -16.6569 -2.3918 0.8823
26.6095 -16.3290 -2.3918 0.8823
26.7100 -16.1641 -2.3918 0.8823
27.0052 -15.6658 -2.3918 0.8823
27.1016 -15.4985 -2.3918 0.8823
27.2912 -15.1621 -2.3918 0.8823
27.3845 -14.9930 -2.3918 0.8823
27.4766 -14.8234 -2.3918 0.8823
27.5678 -14.6532 -2.3918 0.8823
27.6579 -14.4825 -2.3918 0.8823
27.7469 -14.3112 -2.3918 0.8823
27.8349 -14.1392 -2.3918 0.8823
27.9218 -13.9669 -2.3918 0.8823
28.1761 -13.4464 -2.3918 0.8823
28.6555 -12.3920 -2.3918 0.8823
28.7316 -12.2145 -2.3918 0.8823
28.8066 -12.0366 -2.3918 0.8823
28.8805 -11.8582 -2.3918 0.8823
29.1650 -11.1402 -2.3918 0.8823
29.2333 -10.9597 -2.3918 0.8823
29.4316 -10.4154 -2.3918 0.8823
29.6197 -9.8677 -2.3918 0.8823
29.7395 -9.5006 -2.3918 0.8823
30.1730 -8.0182 -2.3918 0.8823
30.2220 -7.8315 -2.3918 0.8823
30.2698 -7.6445 -2.3918 0.8823
30.3165 -7.4571 -2.3918 0.8823
30.4064 -7.0816 -2.3918 0.8823
30.4496 -6.8934 -2.3918 0.8823
30.5723 -6.3273 -2.3918 0.8823
30.6108 -6.1381 -2.3918 0.8823
30.6844 -5.7590 -2.3918 0.8823
30.7194 -5.5692 -2.3918 0.8823
30.8478 -4.8077 -2.3918 0.8823
30.9049 -4.4257 -2.3918 0.8823
30.9317 -4.2346 -2.3918 0.8823
30.9817 -3.8517 -2.3918 0.8823
31.0049 -3.6600 -2.3918 0.8823
31.0269 -3.4682 -2.3918 0.8823
31.0478 -3.2762 -2.3918 0.8823
31.0675 -3.0842 -2.3918 0.8823
31.0859 -2.8920 -2.3918 0.8823
31.1032 -2.6997 -2.3918 0.8823
31.1480 -2.1222 -2.3918 0.8823
31.1718 -1.7368 -2.3918 0.8823
31.1820 -1.5439 -2.3918 0.8823
18.7431 -0.5797 -1.4366 0.9275
14.0945 -0.3487 -1.0801 0.9450
12.8480 -0.2384 -0.9845 0.9498
12.7419 0.2364 -0.9763 0.9502
12.7447 0.3153 -0.9767 0.9501
12.7659 0.4739 -0.9787 0.9500
12.7855 0.5538 -0.9804 0.9500
12.8189 0.6347 -0.9833 0.9498
13.1051 0.7302 -1.0056 0.9487
29.1750 1.8065 -2.2394 0.8893
29.1505 2.1672 -2.2394 0.8893
29.0879 2.8876 -2.2394 0.8893
29.0695 3.0674 -2.2394 0.8893
29.0257 3.9736 -2.2444 0.8891
28.9732 4.3321 -2.2444 0.8891
28.9453 4.5111 -2.2443 0.8891
28.9162 4.6899 -2.2443 0.8891
28.8861 4.8685 -2.2442 0.8891
28.8549 5.0470 -2.2442 0.8891
20.8125 3.7731 -1.6205 0.9186
19.3237 3.9993 -1.5118 0.9239
25.4833 5.6036 -1.9990 0.9006
25.4559 5.7628 -1.9996 0.9006
23.9417 5.7322 -1.8860 0.9060
23.9438 5.8895 -1.8890 0.9058
23.9463 6.0475 -1.8922 0.9057
23.9489 6.2059 -1.8954 0.9055
23.9515 6.3649 -1.8986 0.9054
23.9593 6.8453 -1.9090 0.9049
23.9620 7.0066 -1.9126 0.9047
21.8474 6.8307 -1.7537 0.9123
20.9786 6.9889 -1.6940 0.9151
20.7910 7.0696 -1.6824 0.9157
20.8314 7.2273 -1.6892 0.9153
18.9775 6.8482 -1.5457 0.9223
16.4613 6.1714 -1.3469 0.9319
16.2190 6.5425 -1.3398 0.9322
16.2213 6.6604 -1.3434 0.9321
14.6550 6.3375 -1.2232 0.9380
14.4531 6.3565 -1.2096 0.9386
14.4941 6.5897 -1.2198 0.9381
14.4962 6.6992 -1.2234 0.9379
14.4984 6.8093 -1.2271 0.9378
14.5005 6.9200 -1.2309 0.9376
13.1444 6.4737 -1.1225 0.9429
12.9711 6.4883 -1.1111 0.9435
12.9389 6.5726 -1.1118 0.9434
12.9794 6.6944 -1.1188 0.9431
12.9810 6.7972 -1.1226 0.9429
12.9827 6.9007 -1.1264 0.9427
12.9844 7.0049 -1.1303 0.9425
12.9860 7.1099 -1.1342 0.9423
12.9877 7.2155 -1.1383 0.9421
12.9912 7.4292 -1.1465 0.9417
12.9929 7.5372 -1.1508 0.9415
12.9947 7.6461 -1.1551 0.9413
12.9983 7.8662 -1.1640 0.9409
10.7031 6.9381 -0.9772 0.9501
10.5898 6.9581 -0.9708 0.9504
10.2823 7.0326 -0.9544 0.9513
10.2058 7.0733 -0.9513 0.9514
10.0542 7.1538 -0.9453 0.9517
9.9791 7.1938 -0.9425 0.9518
9.8576 7.2932 -0.9394 0.9520
9.8045 7.3482 -0.9387 0.9520
9.6457 7.5126 -0.9367 0.9521
9.5622 7.6394 -0.9377 0.9521
9.5281 7.7092 -0.9390 0.9520
9.4597 7.8494 -0.9417 0.9519
9.4254 7.9199 -0.9432 0.9518
9.3948 7.9938 -0.9450 0.9517
9.3822 8.0836 -0.9488 0.9515
9.3437 8.3575 -0.9604 0.9510
9.3340 8.5590 -0.9702 0.9505
9.3359 8.6676 -0.9760 0.9502
9.3398 8.8888 -0.9878 0.9496
9.3418 9.0014 -0.9939 0.9493
9.3458 9.2309 -1.0064 0.9487
9.3478 9.3478 -1.0128 0.9483
9.3520 9.5862 -1.0260 0.9477
9.3249 9.7980 -1.0363 0.9472
9.3056 9.8997 -1.0409 0.9470
9.3078 10.0255 -1.0481 0.9466
9.3123 10.2825 -1.0628 0.9459
9.3146 10.4138 -1.0704 0.9455
9.3169 10.5469 -1.0781 0.9451
9.3241 10.9582 -1.1023 0.9439
9.3266 11.0995 -1.1107 0.9435
9.3820 11.3067 -1.1256 0.9428
9.3871 11.6020 -1.1433 0.9419
9.3980 12.2216 -1.1811 0.9400
9.4008 12.3829 -1.1911 0.9395
9.4065 12.7140 -1.2116 0.9385
9.4095 12.8839 -1.2223 0.9380
9.4125 13.0568 -1.2331 0.9375
9.3928 13.2008 -1.2412 0.9371
9.5266 13.5656 -1.2700 0.9357
9.5331 13.9383 -1.2937 0.9345
9.5433 14.5244 -1.3314 0.9327
9.5468 14.7274 -1.3446 0.9320
4.8365 7.7733 -0.7014 0.9639
4.4132 7.1917 -0.6464 0.9667
4.3604 7.2052 -0.6452 0.9668
4.2748 7.1635 -0.6391 0.9671
3.9202 6.9546 -0.6116 0.9685
3.8616 6.9508 -0.6092 0.9686
3.8502 7.0322 -0.6142 0.9683
3.8154 7.0722 -0.6156 0.9683
3.7596 7.0732 -0.6137 0.9684
3.7042 7.0742 -0.6118 0.9685
3.6492 7.0751 -0.6099 0.9686
3.5269 7.0509 -0.6040 0.9689
3.4322 7.0789 -0.6027 0.9689
3.3787 7.0798 -0.6010 0.9690
3.3255 7.0808 -0.5993 0.9691
3.2727 7.0817 -0.5977 0.9692
3.1146 6.9646 -0.5845 0.9699
3.0407 7.0315 -0.5869 0.9697
2.9987 7.0538 -0.5872 0.9697
2.8725 7.1209 -0.5883 0.9697
2.8303 7.1434 -0.5887 0.9696
2.7458 7.1883 -0.5895 0.9696
2.7034 7.2109 -0.5900 0.9696
2.6609 7.2334 -0.5905 0.9696
2.6075 7.2258 -0.5885 0.9697
2.5417 7.4751 -0.6049 0.9688
2.4717 7.5751 -0.6105 0.9685
2.4361 7.6259 -0.6133 0.9684
2.3641 7.7288 -0.6192 0.9681
2.3275 7.7810 -0.6222 0.9679
2.2533 7.8870 -0.6284 0.9676
2.0537 8.3492 -0.6587 0.9661
2.0240 8.4535 -0.6659 0.9657
1.8594 8.4560 -0.6633 0.9659
1.3493 7.1891 -0.5604 0.9711
1.2298 7.0309 -0.5468 0.9718
1.1916 7.0697 -0.5493 0.9716
1.1215 7.1963 -0.5580 0.9712
1.0762 7.1976 -0.5576 0.9712
1.1227 8.2006 -0.6341 0.9673
1.1014 8.4331 -0.6516 0.9665
1.0482 8.4313 -0.6509 0.9665
0.9951 8.4296 -0.6503 0.9665
0.9001 8.5296 -0.6571 0.9662
0.7939 8.5334 -0.6566 0.9662
0.7406 8.5324 -0.6561 0.9662
0.6345 8.5342 -0.6556 0.9663
0.5815 8.5351 -0.6554 0.9663
0.5286 8.5361 -0.6552 0.9663
0.4756 8.5370 -0.6550 0.9663
0.3170 8.5397 -0.6547 0.9663
0.2113 8.5416 -0.6546 0.9663
0.1585 8.5425 -0.6546 0.9663
0.1057 8.5434 -0.6546 0.9663
0.0528 8.5444 -0.6546 0.9663
0.0000 8.5453 -0.6547 0.9663
-0.1787 7.2238 -0.5536 0.9714
-0.2682 7.2248 -0.5539 0.9714
-0.3578 7.2257 -0.5543 0.9714
-0.4475 7.2268 -0.5547 0.9714
-0.5253 7.0659 -0.5428 0.9720
-0.5824 7.2286 -0.5556 0.9713
-0.4060 3.8479 -0.2964 0.9846
-0.4302 3.8483 -0.2967 0.9846
-0.4543 3.8487 -0.2969 0.9846
-0.4999 3.8280 -0.2958 0.9846
-0.5457 3.8108 -0.2949 0.9847
-0.5692 3.8071 -0.2949 0.9847
-0.5936 3.8087 -0.2953 0.9847
-0.6441 3.8213 -0.2969 0.9846
-0.6719 3.8416 -0.2988 0.9845
-0.7030 3.8777 -0.3019 0.9843
-1.6091 8.5734 -0.6683 0.9656
-1.7195 8.5753 -0.6700 0.9655
-1.7544 8.4770 -0.6632 0.9659
-1.8988 8.3877 -0.6589 0.9661
-1.9054 7.9583 -0.6269 0.9677
-1.8722 7.6115 -0.6005 0.9690
-1.8754 7.4259 -0.5868 0.9697
-1.8784 7.2489 -0.5737 0.9704
-1.9699 7.2325 -0.5743 0.9704
-2.0199 7.0697 -0.5633 0.9709
-2.6104 8.5340 -0.6837 0.9648
-2.7270 8.5363 -0.6865 0.9647
-2.8205 8.4664 -0.6837 0.9648
-1.5684 4.5205 -0.3666 0.9810
-1.6001 4.2681 -0.3492 0.9819
-1.6169 4.2330 -0.3471 0.9820
-1.6182 4.1590 -0.3419 0.9823
-1.6241 3.8203 -0.3180 0.9835
-1.6283 3.5814 -0.3014 0.9843
-1.6292 3.5255 -0.2975 0.9845
-1.6302 3.4710 -0.2938 0.9847
-1.5843 3.3198 -0.2818 0.9854
-1.5970 3.2939 -0.2804 0.9854
-1.5909 3.2302 -0.2759 0.9857
-1.5917 3.1821 -0.2726 0.9858
-1.6084 3.1184 -0.2688 0.9860
-1.6475 3.1464 -0.2721 0.9859
-1.7083 3.1202 -0.2725 0.9858
-4.1236 7.2108 -0.6364 0.9672
-2.6621 4.5243 -0.4022 0.9792
-2.6632 4.4628 -0.3981 0.9794
-2.7393 4.4639 -0.4012 0.9792
-2.8310 4.4879 -0.4065 0.9789
-2.9101 4.4893 -0.4099 0.9788
-3.0313 4.4914 -0.4151 0.9785
-3.1556 4.4935 -0.4207 0.9782
-3.1978 4.4943 -0.4226 0.9781
-3.3268 4.4965 -0.4285 0.9778
-3.3706 4.4973 -0.4306 0.9777
-3.4148 4.4981 -0.4327 0.9776
-3.4594 4.4988 -0.4348 0.9775
-3.5961 4.5012 -0.4414 0.9772
-3.6896 4.5029 -0.4460 0.9769
-3.7370 4.5037 -0.4483 0.9768
-3.7693 4.4858 -0.4489 0.9768
-3.7906 4.4550 -0.4481 0.9768
-3.9822 4.5080 -0.4608 0.9762
-4.0329 4.5088 -0.4634 0.9760
-4.0842 4.5097 -0.4661 0.9759
-4.1886 4.5116 -0.4716 0.9756
-4.2955 4.5134 -0.4773 0.9753
-4.4050 4.5154 -0.4833 0.9750
-4.5173 4.5173 -0.4894 0.9747
-4.7508 4.5214 -0.5024 0.9740
-4.8111 4.5224 -0.5059 0.9739
-4.8791 4.4739 -0.5072 0.9738
-4.9720 4.5029 -0.5139 0.9734
-4.9226 4.3486 -0.5032 0.9740
-4.9236 4.2955 -0.5006 0.9741
-4.9272 4.0884 -0.4905 0.9746
-4.9307 3.8895 -0.4811 0.9751
-4.8893 3.7118 -0.4703 0.9757
-4.8901 3.6650 -0.4682 0.9758
-4.8909 3.6186 -0.4661 0.9759
-10.8498 7.8215 -1.0247 0.9478
-10.8530 7.6216 -1.0160 0.9482
-10.8578 7.3280 -1.0036 0.9488
-10.8593 7.2317 -0.9995 0.9490
-10.8608 7.1361 -0.9956 0.9492
-10.8523 6.9399 -0.9869 0.9496
-10.9899 6.9325 -0.9955 0.9492
-10.9531 6.8150 -0.9883 0.9496
-11.2742 6.9184 -1.0134 0.9483
-12.5805 7.5075 -1.1224 0.9429
-12.5855 7.1972 -1.1107 0.9435
-12.5871 7.0952 -1.1070 0.9437
-12.6862 6.8441 -1.1043 0.9438
-14.1490 7.5207 -1.2276 0.9377
-14.3712 7.4123 -1.2388 0.9372
-14.5542 7.2802 -1.2467 0.9368
-15.2738 7.4054 -1.3004 0.9342
-15.3404 7.3209 -1.3022 0.9341
-28.2587 13.2719 -2.3918 0.8823
-17.4492 7.6742 -1.4604 0.9264
-17.5281 7.5799 -1.4630 0.9262
-17.6199 7.4906 -1.4668 0.9261
-17.7144 7.4018 -1.4709 0.9259
-28.8805 11.8581 -2.3918 0.8823
-28.9533 11.6793 -2.3918 0.8823
-29.0249 11.5001 -2.3918 0.8823
-29.2333 10.9596 -2.3918 0.8823
-29.3005 10.7786 -2.3918 0.8823
-29.4954 10.2332 -2.3918 0.8823
-29.6198 9.8676 -2.3918 0.8823
-26.1437 8.3519 -2.1026 0.8957
-26.0512 7.9686 -2.0871 0.8965
-25.7266 7.5226 -2.0535 0.8980
-25.4999 7.1152 -2.0282 0.8992
-25.3798 6.9128 -2.0152 0.8999
-25.2494 6.7098 -2.0015 0.9005
-25.1252 6.5107 -1.9885 0.9011
-25.0031 6.3143 -1.9757 0.9017
-24.7213 5.9189 -1.9475 0.9030
-24.6105 5.7317 -1.9359 0.9036
-24.5010 5.5467 -1.9246 0.9041
-24.4693 5.3806 -1.9194 0.9044
-24.4959 4.9119 -1.9140 0.9046
-24.7260 4.6407 -1.9274 0.9040
-25.1056 4.3913 -1.9526 0.9028
-25.4329 4.2866 -1.9759 0.9017
-30.8175 4.9983 -2.3918 0.8823
-30.8478 4.8076 -2.3918 0.8823
-30.8769 4.6168 -2.3918 0.8823
-30.9049 4.4257 -2.3918 0.8823
-30.9317 4.2345 -2.3918 0.8823
-30.9573 4.0431 -2.3918 0.8823
-30.9817 3.8516 -2.3918 0.8823
-31.0860 2.8919 -2.3918 0.8823
-31.1193 2.5072 -2.3918 0.8823
-31.1342 2.3147 -2.3918 0.8823
-31.1480 2.1221 -2.3918 0.8823
-31.1718 1.7367 -2.3918 0.8823
-31.1987 1.1581 -2.3918 0.8823
-31.2052 0.9652 -2.3918 0.8823
-31.2106 0.7722 -2.3918 0.8823
-31.2178 0.3861 -2.3918 0.8823
-31.2196 0.1930 -2.3918 0.8823
-28.4451 -0.1760 -2.3918 0.8921
-28.4435 -0.3519 -2.3918 0.8921
-28.4407 -0.5278 -2.3918 0.8921
-28.4369 -0.7036 -2.3918 0.8921
-28.4260 -1.0553 -2.3918 0.8921
-28.4190 -1.2310 -2.3918 0.8921
-28.4108 -1.4068 -2.3918 0.8921
-28.3912 -1.7581 -2.3918 0.8921
-28.3673 -2.1091 -2.3918 0.8921
-28.3538 -2.2845 -2.3918 0.8921
-28.3391 -2.4598 -2.3918 0.8921
-28.2696 -3.1600 -2.3918 0.8921
-28.2495 -3.3347 -2.3918 0.8921
-28.2283 -3.5094 -2.3918 0.8921
-28.1584 -4.0324 -2.3918 0.8921
-28.1329 -4.2065 -2.3918 0.8921
-28.1063 -4.3804 -2.3918 0.8921
-28.0787 -4.5541 -2.3918 0.8921
-27.9894 -5.0743 -2.3918 0.8921
-27.9575 -5.2472 -2.3918 0.8921
-27.9245 -5.4201 -2.3918 0.8921
-27.8191 -5.9372 -2.3918 0.8921
-27.7436 -6.2808 -2.3918 0.8921
-27.6638 -6.6234 -2.3918 0.8921
-27.5797 -6.9651 -2.3918 0.8921
-27.5362 -7.1355 -2.3918 0.8921
-27.4915 -7.3057 -2.3918 0.8921
-27.3990 -7.6451 -2.3918 0.8921
-27.3024 -7.9834 -2.3918 0.8921
-27.2525 -8.1521 -2.3918 0.8921
-27.2016 -8.3205 -2.3918 0.8921
-27.0966 -8.6563 -2.3918 0.8921
-27.0425 -8.8237 -2.3918 0.8921
-26.9874 -8.9908 -2.3918 0.8921
-26.8742 -9.3238 -2.3918 0.8921
-26.7568 -9.6555 -2.3918 0.8921
-26.6966 -9.8208 -2.3918 0.8921
-26.6353 -9.9857 -2.3918 0.8921
-26.5098 -10.3144 -2.3918 0.8921
-26.4455 -10.4781 -2.3918 0.8921
-26.3139 -10.8044 -2.3918 0.8921
-26.2465 -10.9669 -2.3918 0.8921
-26.1783 -11.1292 -2.3918 0.8921
-26.0386 -11.4519 -2.3918 0.8921
-25.9673 -11.6128 -2.3918 0.8921
-25.8950 -11.7731 -2.3918 0.8921
-25.8216 -11.9330 -2.3918 0.8921
-25.6721 -12.2515 -2.3918 0.8921
-25.5958 -12.4100 -2.3918 0.8921
-25.5186 -12.5680 -2.3918 0.8921
-25.3612 -12.8827 -2.3918 0.8921
-25.1999 -13.1954 -2.3918 0.8921
-24.8658 -13.8146 -2.3918 0.8921
-24.7799 -13.9682 -2.3918 0.8921
-24.6053 -14.2736 -2.3918 0.8921
-24.4268 -14.5768 -2.3918 0.8921
-24.3362 -14.7276 -2.3918 0.8921
-24.1522 -15.0275 -2.3918 0.8921
-24.0588 -15.1766 -2.3918 0.8921
-23.9645 -15.3251 -2.3918 0.8921
-23.8693 -15.4730 -2.3918 0.8921
-23.6761 -15.7670 -2.3918 0.8921
-23.5781 -15.9131 -2.3918 0.8921
-23.4792 -16.0587 -2.3918 0.8921
-23.2789 -16.3478 -2.3918 0.8921
-23.1773 -16.4914 -2.3918 0.8921
-22.9716 -16.7769 -2.3918 0.8921
-22.8674 -16.9186 -2.3918 0.8921
-22.6564 -17.2001 -2.3918 0.8921
-22.3334 -17.6174 -2.3918 0.8921
-22.1138 -17.8923 -2.3918 0.8921
-21.8908 -18.1645 -2.3918 0.8921
-21.7780 -18.2995 -2.3918 0.8921
-21.5500 -18.5675 -2.3918 0.8921
-21.4348 -18.7004 -2.3918 0.8921
-21.3188 -18.8325 -2.3918 0.8921
-21.0842 -19.0948 -2.3918 0.8921
-20.9657 -19.2248 -2.3918 0.8921
-20.7263 -19.4827 -2.3918 0.8921
-20.6055 -19.6104 -2.3918 0.8921
-20.4838 -19.7375 -2.3918 0.8921
-19.9893 -20.2381 -2.3918 0.8921
-19.8219 -20.3185 -2.3868 0.8923
-19.6341 -20.3765 -2.3793 0.8926
-19.2617 -20.4913 -2.3647 0.8932
-19.0738 -20.5446 -2.3572 0.8936
-18.8871 -20.5974 -2.3498 0.8939
-18.7015 -20.6500 -2.3426 0.8942
-18.3336 -20.7540 -2.3285 0.8948
-18.1480 -20.8018 -2.3212 0.8951
-17.0519 -21.0751 -2.2795 0.8969
-16.8708 -21.1170 -2.2727 0.8972
-16.3331 -21.2404 -2.2530 0.8980
-15.3061 -21.7956 -2.2394 0.8986
-15.1710 -21.8898 -2.2394 0.8986
-14.8991 -22.0758 -2.2394 0.8986
-14.4870 -22.3484 -2.2394 0.8986
-14.2095 -22.5259 -2.2394 0.8986
-13.9298 -22.6999 -2.2394 0.8986
-13.6480 -22.8705 -2.2394 0.8986
-13.5063 -22.9544 -2.2394 0.8986
-13.3641 -23.0375 -2.2394 0.8986
-13.2214 -23.1197 -2.2394 0.8986
-13.0781 -23.2011 -2.2394 0.8986
-10.9574 -19.7228 -1.8971 0.9134
-10.7595 -19.6521 -1.8839 0.9140
-10.2953 -19.6616 -1.8662 0.9148
-10.0281 -19.7417 -1.8619 0.9150
-9.7893 -19.8766 -1.8630 0.9149
-9.4883 -19.8821 -1.8524 0.9154
-9.0441 -19.8925 -1.8374 0.9160
-8.7528 -19.9016 -1.8281 0.9164
-8.6092 -19.9082 -1.8238 0.9166
-8.4685 -19.9202 -1.8200 0.9168
-8.1235 -19.7846 -1.7983 0.9177
-7.9888 -19.8043 -1.7956 0.9179
-7.8260 -19.7520 -1.7864 0.9183
-7.6972 -19.7833 -1.7849 0.9183
-7.4228 -19.7992 -1.7779 0.9186
-7.2236 -20.4122 -1.8206 0.9168
-7.2298 -20.8385 -1.8546 0.9153
-8.5739 -25.2154 -2.2394 0.8986
-8.4178 -25.2679 -2.2394 0.8986
-8.2614 -25.3195 -2.2394 0.8986
-8.1047 -25.3701 -2.2394 0.8986
-7.7903 -25.4684 -2.2394 0.8986
-7.6326 -25.5161 -2.2394 0.8986
-7.3165 -25.6085 -2.2394 0.8986
-7.1580 -25.6533 -2.2394 0.8986
-6.8401 -25.7398 -2.2394 0.8986
-6.5213 -25.8225 -2.2394 0.8986
-6.3614 -25.8623 -2.2394 0.8986
-6.2014 -25.9012 -2.2394 0.8986
-5.8806 -25.9759 -2.2394 0.8986
-5.5588 -26.0466 -2.2394 0.8986
-5.3976 -26.0805 -2.2394 0.8986
-5.0747 -26.1452 -2.2394 0.8986
-4.7509 -26.2060 -2.2394 0.8986
-4.1013 -26.3155 -2.2394 0.8986
-3.9384 -26.3404 -2.2394 0.8986
-3.6124 -26.3871 -2.2394 0.8986
-3.4491 -26.4089 -2.2394 0.8986
-3.1222 -26.4495 -2.2394 0.8986
-2.9586 -26.4684 -2.2394 0.8986
-2.7948 -26.4861 -2.2394 0.8986
-2.4670 -26.5187 -2.2394 0.8986
-2.1389 -26.5472 -2.2394 0.8986
-1.8104 -26.5716 -2.2394 0.8986
-1.4816 -26.5919 -2.2394 0.8986
-0.9880 -26.6148 -2.2394 0.8986
-0.8234 -26.6204 -2.2394 0.8986
-0.6588 -26.6251 -2.2394 0.8986
-0.1647 -26.6327 -2.2394 0.8986
-0.0000 -26.6332 -2.2394 0.8986
0.1647 -26.6327 -2.2394 0.8986
0.4941 -26.6286 -2.2394 0.8986
0.6588 -26.6250 -2.2394 0.8986
0.8234 -26.6205 -2.2394 0.8986
1.1526 -26.6082 -2.2394 0.8986
1.2485 -20.1626 -1.6986 0.9221
1.6255 -20.1753 -1.7019 0.9220
1.8786 -20.1934 -1.7053 0.9218
2.1332 -20.2158 -1.7093 0.9216
2.6316 -20.1494 -1.7086 0.9217
2.8855 -20.1495 -1.7115 0.9215
3.3959 -20.1484 -1.7180 0.9213
3.5242 -20.1484 -1.7199 0.9212
3.6527 -20.1484 -1.7218 0.9211
3.7814 -20.1473 -1.7236 0.9210
4.0417 -20.1560 -1.7285 0.9208
4.1840 -20.2165 -1.7359 0.9205
4.3036 -20.1650 -1.7337 0.9206
4.4315 -20.1530 -1.7350 0.9205
4.5662 -20.1701 -1.7389 0.9203
4.7084 -20.2167 -1.7454 0.9201
5.0932 -20.1678 -1.7490 0.9199
5.2399 -20.2209 -1.7564 0.9196
7.4747 -25.5628 -2.2394 0.8986
7.7903 -25.4684 -2.2394 0.8986
8.2614 -25.3195 -2.2394 0.8986
6.8279 -19.6802 -1.7515 0.9198
7.0180 -19.8312 -1.7688 0.9190
7.1035 -19.6850 -1.7597 0.9194
8.0732 -19.6621 -1.7872 0.9182
8.2182 -19.6682 -1.7923 0.9180
8.5054 -19.6682 -1.8018 0.9176
8.6502 -19.6682 -1.8067 0.9174
8.7957 -19.6682 -1.8116 0.9171
9.0893 -19.6682 -1.8218 0.9167
9.5780 -19.4475 -1.8228 0.9167
10.0359 -19.4579 -1.8409 0.9159
10.2904 -19.6521 -1.8653 0.9148
10.4035 -19.5725 -1.8638 0.9149
12.6455 -23.4397 -2.2394 0.8986
12.9344 -23.2814 -2.2394 0.8986
13.0781 -23.2011 -2.2394 0.8986
13.2214 -23.1197 -2.2394 0.8986
13.5063 -22.9544 -2.2394 0.8986
13.6480 -22.8705 -2.2394 0.8986
13.7892 -22.7856 -2.2394 0.8986
13.9298 -22.6999 -2.2394 0.8986
14.0699 -22.6134 -2.2394 0.8986
14.4870 -22.3484 -2.2394 0.8986
14.6250 -22.2584 -2.2394 0.8986
14.7623 -22.1675 -2.2394 0.8986
14.8991 -22.0758 -2.2394 0.8986
15.2033 -21.9364 -2.2442 0.8984
15.3978 -21.9262 -2.2528 0.8980
15.5978 -21.9215 -2.2622 0.8976
16.2111 -21.9113 -2.2918 0.8964
16.6291 -21.9043 -2.3124 0.8955
16.8408 -21.9007 -2.3230 0.8950
17.0546 -21.8971 -2.3337 0.8946
17.2703 -21.8934 -2.3447 0.8941
17.4880 -21.8896 -2.3558 0.8936
17.7078 -21.8858 -2.3672 0.8931
18.4338 -21.6645 -2.3918 0.8921
19.3541 -20.8465 -2.3918 0.8921
19.6104 -20.6055 -2.3918 0.8921
19.7375 -20.4838 -2.3918 0.8921
20.9657 -19.2249 -2.3918 0.8921
21.0842 -19.0948 -2.3918 0.8921
21.3188 -18.8326 -2.3918 0.8921
21.5501 -18.5674 -2.3918 0.8921
21.6645 -18.4338 -2.3918 0.8921
21.7780 -18.2995 -2.3918 0.8921
22.0027 -18.0287 -2.3918 0.8921
22.1138 -17.8923 -2.3918 0.8921
22.3334 -17.6174 -2.3918 0.8921
22.4419 -17.4790 -2.3918 0.8921
22.6564 -17.2001 -2.3918 0.8921
22.7623 -17.0596 -2.3918 0.8921
22.8674 -16.9186 -2.3918 0.8921
22.9716 -16.7768 -2.3918 0.8921
23.0749 -16.6345 -2.3918 0.8921
23.3796 -16.2035 -2.3918 0.8921
23.4793 -16.0586 -2.3918 0.8921
23.5782 -15.9131 -2.3918 0.8921
23.7732 -15.6203 -2.3918 0.8921
23.9645 -15.3250 -2.3918 0.8921
24.1522 -15.0275 -2.3918 0.8921
24.2447 -14.8778 -2.3918 0.8921
24.5165 -14.4255 -2.3918 0.8921
24.6053 -14.2736 -2.3918 0.8921
24.6931 -14.1212 -2.3918 0.8921
24.8658 -13.8146 -2.3918 0.8921
25.0348 -13.5061 -2.3918 0.8921
25.1178 -13.3510 -2.3918 0.8921
25.2811 -13.0393 -2.3918 0.8921
25.4404 -12.7256 -2.3918 0.8921
25.5186 -12.5680 -2.3918 0.8921
25.5958 -12.4100 -2.3918 0.8921
25.7474 -12.0925 -2.3918 0.8921
25.8950 -11.7731 -2.3918 0.8921
25.9673 -11.6127 -2.3918 0.8921
26.1089 -11.2907 -2.3918 0.8921
26.2465 -10.9669 -2.3918 0.8921
26.3139 -10.8044 -2.3918 0.8921
26.4455 -10.4781 -2.3918 0.8921
26.6353 -9.9857 -2.3918 0.8921
26.8742 -9.3238 -2.3918 0.8921
26.9313 -9.1574 -2.3918 0.8921
26.9874 -8.9907 -2.3918 0.8921
27.0425 -8.8237 -2.3918 0.8921
27.2525 -8.1521 -2.3918 0.8921
27.4458 -7.4755 -2.3918 0.8921
27.5797 -6.9651 -2.3918 0.8921
27.7819 -6.1091 -2.3918 0.8921
27.8191 -5.9371 -2.3918 0.8921
27.8904 -5.5927 -2.3918 0.8921
27.9575 -5.2472 -2.3918 0.8921
28.0202 -4.9011 -2.3918 0.8921
28.1329 -4.2065 -2.3918 0.8921
28.1584 -4.0324 -2.3918 0.8921
28.2061 -3.6838 -2.3918 0.8921
28.2283 -3.5094 -2.3918 0.8921
28.2495 -3.3347 -2.3918 0.8921
28.2886 -2.9851 -2.3918 0.8921
28.3065 -2.8101 -2.3918 0.8921
28.3233 -2.6349 -2.3918 0.8921
28.3391 -2.4598 -2.3918 0.8921
28.4016 -1.5824 -2.3918 0.8921
28.4190 -1.2311 -2.3918 0.8921
12.5317 -0.1550 -1.0538 0.9509
12.5275 0.2325 -1.0535 0.9509
12.5302 0.3100 -1.0539 0.9509
12.5339 0.4653 -1.0546 0.9509
26.5822 1.6460 -2.2394 0.8986
26.5716 1.8104 -2.2394 0.8986
26.5334 2.3030 -2.2394 0.8986
26.5186 2.4670 -2.2394 0.8986
26.5029 2.6310 -2.2394 0.8986
26.4683 2.9586 -2.2394 0.8986
26.4495 3.1222 -2.2394 0.8986
26.2876 4.5979 -2.2439 0.8984
20.8125 3.7731 -1.7785 0.9186
19.3292 3.8759 -1.6576 0.9239
19.3315 4.0009 -1.6599 0.9238
20.0970 4.4192 -1.7302 0.9207
23.9420 5.7323 -2.0700 0.9059
23.9440 5.8896 -2.0733 0.9058
23.9462 6.0474 -2.0767 0.9056
23.9539 6.5244 -2.0875 0.9051
23.9566 6.6845 -2.0913 0.9050
23.9592 6.8453 -2.0952 0.9048
23.9618 7.0066 -2.0992 0.9046
22.1260 6.7679 -1.9455 0.9113
21.9284 6.8561 -1.9318 0.9119
21.3134 6.8087 -1.8813 0.9141
20.9786 6.9889 -1.8593 0.9151
20.7910 7.0696 -1.8465 0.9156
16.4270 5.6993 -1.4620 0.9326
16.1647 5.7205 -1.4418 0.9335
16.1669 5.8340 -1.4452 0.9333
16.1690 5.9480 -1.4486 0.9332
16.1734 6.1778 -1.4558 0.9329
16.2168 6.4253 -1.4667 0.9324
14.7851 5.9641 -1.3405 0.9380
14.4490 6.2484 -1.3237 0.9388
14.4963 6.6992 -1.3428 0.9379
13.0602 6.2327 -1.2168 0.9436
13.1208 6.3615 -1.2261 0.9431
12.9373 6.4714 -1.2163 0.9436
12.9778 6.5923 -1.2239 0.9432
12.9810 6.7972 -1.2321 0.9429
12.9827 6.9007 -1.2363 0.9427
12.9861 7.1099 -1.2449 0.9423
12.9877 7.2155 -1.2493 0.9421
12.9895 7.3220 -1.2538 0.9419
12.9912 7.4292 -1.2584 0.9417
12.9947 7.6460 -1.2678 0.9413
12.9984 7.8662 -1.2775 0.9408
10.9145 6.8850 -1.0851 0.9495
10.5267 6.9166 -1.0591 0.9507
10.3344 6.9748 -1.0483 0.9512
10.2058 7.0733 -1.0441 0.9514
10.1297 7.1137 -1.0408 0.9515
9.9791 7.1938 -1.0344 0.9518
9.9107 7.2381 -1.0319 0.9519
9.8576 7.2932 -1.0311 0.9520
9.6986 7.4579 -1.0287 0.9521
9.6457 7.5126 -1.0280 0.9521
9.5961 7.5698 -1.0277 0.9521
9.5622 7.6394 -1.0291 0.9521
9.4940 7.7792 -1.0320 0.9519
9.3948 7.9938 -1.0372 0.9517
