ply
format ascii 1.0
element vertex 1595
property float32 x
property float32 y
property float32 z
property float32 I
end_header
4.8522 -2.6957 -1.8485 0.9769
4.8522 -2.6565 -1.8422 0.9769
4.8522 -2.6177 -1.8360 0.9770
4.8522 -2.5791 -1.8300 0.9771
4.8522 -2.5407 -1.8240 0.9772
4.8522 -2.4271 -1.8068 0.9774
4.8522 -2.3897 -1.8012 0.9775
4.8522 -2.3525 -1.7958 0.9775
5.0284 -2.3238 -1.8448 0.9769
5.1962 -2.3238 -1.8956 0.9763
5.3736 -2.3238 -1.9497 0.9756
5.6596 -2.3238 -2.0375 0.9745
5.7427 -2.3165 -2.0622 0.9742
6.2428 -2.4289 -2.2308 0.9722
6.7310 -2.4289 -2.3831 0.9703
7.1433 -2.4289 -2.5127 0.9687
7.3243 -2.3898 -2.5657 0.9680
7.3533 -2.2990 -2.5657 0.9680
7.8778 -2.3035 -2.7333 0.9660
7.9056 -2.2058 -2.7333 0.9660
7.9190 -2.1569 -2.7333 0.9660
7.9321 -2.1079 -2.7333 0.9660
7.9450 -2.0588 -2.7333 0.9660
7.9698 -1.9603 -2.7333 0.9660
7.9934 -1.8616 -2.7332 0.9660
8.0047 -1.8121 -2.7332 0.9660
8.0157 -1.7626 -2.7332 0.9660
8.0567 -1.5638 -2.7332 0.9660
8.0662 -1.5139 -2.7331 0.9660
8.0754 -1.4640 -2.7331 0.9660
8.0928 -1.3640 -2.7331 0.9660
8.1010 -1.3139 -2.7331 0.9660
8.1309 -1.1131 -2.7330 0.9660
8.1440 -1.0124 -2.7330 0.9660
8.1500 -0.9621 -2.7330 0.9660
8.1558 -0.9116 -2.7330 0.9660
8.1757 -0.7096 -2.7330 0.9660
8.1799 -0.6590 -2.7329 0.9660
8.1838 -0.6084 -2.7329 0.9660
8.1987 -0.3551 -2.7329 0.9660
8.2025 -0.2537 -2.7329 0.9660
8.2063 -0.0507 -2.7330 0.9660
8.2065 0.0000 -2.7330 0.9660
8.2059 0.1015 -2.7330 0.9660
8.2027 0.2537 -2.7330 0.9660
8.2010 0.3045 -2.7330 0.9660
8.1990 0.3552 -2.7330 0.9660
8.1940 0.4566 -2.7330 0.9660
8.1878 0.5579 -2.7330 0.9660
8.1842 0.6085 -2.7330 0.9660
8.1803 0.6591 -2.7331 0.9660
8.1761 0.7097 -2.7331 0.9660
8.1715 0.7602 -2.7331 0.9660
8.1667 0.8107 -2.7331 0.9660
8.1561 0.9117 -2.7331 0.9660
8.1442 1.0125 -2.7331 0.9660
8.1378 1.0629 -2.7331 0.9660
8.1311 1.1132 -2.7331 0.9660
8.1011 1.3139 -2.7331 0.9660
8.0929 1.3640 -2.7331 0.9660
8.0843 1.4140 -2.7331 0.9660
8.0754 1.4640 -2.7331 0.9660
8.0662 1.5139 -2.7332 0.9660
8.0368 1.6633 -2.7332 0.9660
8.0263 1.7130 -2.7332 0.9660
8.0156 1.7626 -2.7332 0.9660
8.0046 1.8121 -2.7332 0.9660
7.9932 1.8616 -2.7332 0.9660
7.9816 1.9110 -2.7332 0.9660
7.8516 1.9829 -2.6969 0.9664
7.3078 2.0391 -2.5266 0.9685
6.6301 2.0280 -2.3090 0.9712
6.4753 2.0686 -2.2638 0.9717
6.2149 2.0279 -2.1771 0.9728
6.1790 2.0585 -2.1690 0.9729
5.6790 1.9311 -1.9976 0.9750
5.6428 1.9577 -1.9891 0.9751
5.3901 1.9829 -1.9126 0.9761
5.2889 1.9829 -1.8811 0.9765
5.1911 1.9829 -1.8506 0.9768
4.7522 2.1252 -1.7336 0.9783
4.7522 2.1606 -1.7385 0.9782
4.7522 2.1962 -1.7434 0.9782
4.7522 2.2319 -1.7484 0.9781
4.7522 2.4140 -1.7751 0.9778
4.7522 2.6018 -1.8043 0.9774
4.7522 2.8359 -1.8430 0.9769
4.7522 2.8759 -1.8498 0.9769
4.7522 2.9162 -1.8568 0.9768
4.7522 2.9977 -1.8712 0.9766
4.7522 3.2073 -1.9093 0.9761
4.7522 3.3373 -1.9338 0.9758
4.7522 3.4258 -1.9509 0.9756
4.7522 3.6077 -1.9870 0.9752
4.7522 3.7966 -2.0256 0.9747
4.7004 3.8514 -2.0237 0.9747
4.8573 4.0305 -2.1020 0.9737
4.8573 4.0815 -2.1129 0.9736
4.8573 4.1851 -2.1352 0.9733
4.8573 4.2909 -2.1584 0.9730
4.8573 4.3446 -2.1703 0.9729
4.8573 4.4540 -2.1947 0.9726
4.8573 4.6228 -2.2331 0.9721
4.8048 4.8646 -2.2770 0.9716
4.8573 5.1038 -2.3464 0.9707
4.8573 5.1674 -2.3618 0.9705
4.8573 5.2319 -2.3775 0.9704
4.8573 5.4305 -2.4264 0.9697
4.7773 5.4759 -2.4201 0.9698
4.7004 5.5242 -2.4155 0.9699
4.7521 5.9483 -2.5355 0.9684
4.7521 6.1800 -2.5962 0.9677
4.7521 6.4231 -2.6608 0.9669
4.7521 6.5069 -2.6833 0.9666
4.7166 6.7163 -2.7331 0.9660
4.5911 6.8026 -2.7331 0.9660
4.5066 6.8588 -2.7331 0.9660
4.4641 6.8866 -2.7331 0.9660
4.4214 6.9140 -2.7331 0.9660
4.3786 6.9412 -2.7331 0.9660
4.3356 6.9682 -2.7331 0.9660
4.2924 6.9948 -2.7331 0.9660
4.1619 7.0732 -2.7331 0.9660
4.1180 7.0988 -2.7331 0.9660
4.0740 7.1241 -2.7330 0.9660
4.0299 7.1491 -2.7330 0.9660
3.9411 7.1984 -2.7330 0.9660
3.6713 7.3396 -2.7330 0.9660
3.5803 7.3844 -2.7330 0.9660
3.5345 7.4063 -2.7330 0.9660
3.4886 7.4280 -2.7330 0.9660
3.3502 7.4914 -2.7329 0.9660
3.3038 7.5120 -2.7329 0.9660
3.2573 7.5322 -2.7329 0.9660
3.2106 7.5522 -2.7329 0.9660
3.1638 7.5719 -2.7329 0.9660
3.1170 7.5913 -2.7329 0.9660
3.0699 7.6104 -2.7329 0.9660
3.0229 7.6294 -2.7329 0.9660
2.9283 7.6662 -2.7330 0.9660
2.8333 7.7019 -2.7330 0.9660
2.7378 7.7364 -2.7330 0.9660
2.6899 7.7533 -2.7330 0.9660
2.3520 7.8626 -2.7331 0.9660
2.3033 7.8771 -2.7331 0.9660
2.2546 7.8912 -2.7331 0.9660
2.2057 7.9050 -2.7331 0.9660
2.1568 7.9186 -2.7331 0.9660
2.1078 7.9318 -2.7331 0.9660
2.0096 7.9573 -2.7332 0.9660
1.8616 7.9933 -2.7332 0.9660
1.6633 8.0371 -2.7333 0.9660
1.6137 8.0473 -2.7333 0.9660
1.5638 8.0571 -2.7333 0.9660
1.5140 8.0667 -2.7333 0.9660
1.4641 8.0759 -2.7333 0.9660
1.4141 8.0849 -2.7333 0.9660
1.3641 8.0935 -2.7333 0.9660
1.3140 8.1018 -2.7334 0.9660
1.2138 8.1175 -2.7334 0.9660
1.0126 8.1452 -2.7334 0.9660
0.9622 8.1514 -2.7335 0.9660
0.9118 8.1572 -2.7335 0.9660
0.8108 8.1679 -2.7335 0.9660
0.7603 8.1729 -2.7335 0.9660
0.7098 8.1774 -2.7335 0.9660
0.6592 8.1817 -2.7335 0.9660
0.6086 8.1857 -2.7336 0.9660
0.5073 8.1927 -2.7336 0.9660
0.3552 8.2008 -2.7336 0.9660
0.3045 8.2029 -2.7336 0.9660
0.2031 8.2061 -2.7337 0.9660
0.1523 8.2073 -2.7337 0.9660
0.0508 8.2086 -2.7337 0.9660
0.0000 8.2088 -2.7337 0.9660
-0.0508 8.2087 -2.7337 0.9660
-0.1015 8.2082 -2.7338 0.9660
-0.3045 8.2034 -2.7338 0.9660
-0.3553 8.2014 -2.7338 0.9660
-0.4060 8.1991 -2.7339 0.9660
-0.4567 8.1965 -2.7339 0.9660
-0.6087 8.1868 -2.7339 0.9660
-0.7099 8.1787 -2.7339 0.9660
-0.7604 8.1742 -2.7340 0.9660
-0.8110 8.1694 -2.7340 0.9660
-0.8615 8.1643 -2.7340 0.9660
-0.9120 8.1588 -2.7340 0.9660
-1.1135 8.1340 -2.7341 0.9660
-1.1638 8.1270 -2.7341 0.9660
-1.2140 8.1197 -2.7341 0.9660
-1.3144 8.1041 -2.7341 0.9660
-1.3645 8.0959 -2.7342 0.9660
-1.4645 8.0785 -2.7342 0.9660
-1.5644 8.0599 -2.7342 0.9660
-1.6142 8.0501 -2.7342 0.9660
-1.7137 8.0296 -2.7343 0.9660
-1.8624 7.9966 -2.7343 0.9660
-1.9611 7.9730 -2.7344 0.9660
-2.0596 7.9483 -2.7344 0.9660
-2.1088 7.9354 -2.7344 0.9660
-2.1578 7.9223 -2.7344 0.9660
-2.2556 7.8951 -2.7345 0.9660
-2.3532 7.8667 -2.7345 0.9660
-2.4018 7.8521 -2.7345 0.9660
-2.5953 7.7904 -2.7346 0.9660
-2.7873 7.7241 -2.7347 0.9660
-2.8350 7.7067 -2.7347 0.9660
-2.9302 7.6712 -2.7347 0.9660
-2.9776 7.6529 -2.7347 0.9660
-3.3061 7.5173 -2.7349 0.9660
-3.3526 7.4967 -2.7349 0.9660
-3.3989 7.4759 -2.7349 0.9660
-3.6285 7.3675 -2.7350 0.9660
-3.6740 7.3450 -2.7350 0.9660
-3.7194 7.3221 -2.7350 0.9660
-3.7646 7.2990 -2.7350 0.9660
-3.8097 7.2757 -2.7350 0.9660
-3.8995 7.2281 -2.7351 0.9660
-3.9441 7.2039 -2.7351 0.9660
-4.0330 7.1546 -2.7351 0.9660
-4.0771 7.1296 -2.7352 0.9660
-4.1212 7.1043 -2.7352 0.9660
-4.2524 7.0268 -2.7352 0.9660
-4.3390 6.9737 -2.7353 0.9660
-4.4250 6.9196 -2.7353 0.9660
-4.5103 6.8645 -2.7353 0.9660
-4.5527 6.8365 -2.7354 0.9660
-4.5949 6.8082 -2.7354 0.9660
-4.6370 6.7797 -2.7354 0.9660
-4.6788 6.7510 -2.7354 0.9660
-4.7205 6.7220 -2.7354 0.9660
-4.7621 6.6927 -2.7354 0.9660
-4.8034 6.6631 -2.7355 0.9660
-4.8854 6.6033 -2.7355 0.9660
-5.0072 6.5116 -2.7356 0.9660
-5.0474 6.4806 -2.7356 0.9660
-5.0874 6.4493 -2.7356 0.9660
-5.2063 6.3540 -2.7356 0.9660
-5.3234 6.2564 -2.7357 0.9660
-5.4004 6.1902 -2.7357 0.9660
-5.4387 6.1567 -2.7357 0.9660
-5.4767 6.1229 -2.7358 0.9660
-5.5894 6.0204 -2.7358 0.9660
-5.6266 5.9858 -2.7358 0.9660
-5.8090 5.8091 -2.7359 0.9660
-5.8449 5.7730 -2.7359 0.9660
-5.9158 5.7003 -2.7359 0.9660
-6.0550 5.5522 -2.7359 0.9660
-6.0892 5.5147 -2.7359 0.9660
-6.1232 5.4769 -2.7359 0.9660
-6.1570 5.4390 -2.7359 0.9660
-6.1905 5.4008 -2.7359 0.9660
-6.2238 5.3624 -2.7359 0.9660
-6.2568 5.3238 -2.7359 0.9660
-6.2896 5.2850 -2.7359 0.9660
-6.3222 5.2460 -2.7359 0.9660
-6.4184 5.1278 -2.7359 0.9660
-6.4500 5.0880 -2.7359 0.9660
-6.5124 5.0079 -2.7359 0.9660
-6.5739 4.9270 -2.7359 0.9660
-6.6343 4.8453 -2.7359 0.9660
-6.6642 4.8041 -2.7359 0.9660
-6.6937 4.7628 -2.7359 0.9660
-6.7231 4.7214 -2.7359 0.9660
-6.8095 4.5958 -2.7359 0.9660
-6.9484 4.3831 -2.7359 0.9660
-7.0285 4.2534 -2.7359 0.9660
-7.0805 4.1662 -2.7359 0.9660
-7.1315 4.0783 -2.7359 0.9660
-7.1814 3.9898 -2.7359 0.9660
-7.2060 3.9453 -2.7359 0.9660
-7.2302 3.9007 -2.7359 0.9660
-7.3013 3.7658 -2.7359 0.9660
-7.3922 3.5841 -2.7359 0.9660
-7.4143 3.5383 -2.7359 0.9660
-7.4995 3.3538 -2.7359 0.9660
-7.5201 3.3074 -2.7359 0.9660
-7.5404 3.2608 -2.7359 0.9660
-7.5801 3.1673 -2.7359 0.9660
-7.5996 3.1204 -2.7359 0.9660
-7.6376 3.0261 -2.7359 0.9660
-7.6562 2.9788 -2.7359 0.9660
-7.6744 2.9314 -2.7359 0.9660
-7.6924 2.8839 -2.7359 0.9660
-7.7101 2.8363 -2.7359 0.9660
-7.8100 2.5483 -2.7359 0.9660
-7.8409 2.4515 -2.7359 0.9660
-7.8559 2.4030 -2.7359 0.9660
-7.8706 2.3544 -2.7359 0.9660
-7.8991 2.2569 -2.7359 0.9660
-7.9129 2.2079 -2.7359 0.9660
-7.9396 2.1099 -2.7359 0.9660
-7.9525 2.0608 -2.7359 0.9660
-7.9651 2.0115 -2.7359 0.9660
-7.9774 1.9622 -2.7359 0.9660
-8.0235 1.7643 -2.7359 0.9660
-8.0342 1.7147 -2.7359 0.9660
-8.0742 1.5154 -2.7358 0.9660
-8.0833 1.4654 -2.7358 0.9660
-8.0923 1.4154 -2.7358 0.9660
-8.1091 1.3152 -2.7358 0.9660
-8.1171 1.2651 -2.7358 0.9660
-8.1248 1.2149 -2.7358 0.9660
-8.1392 1.1143 -2.7358 0.9660
-8.1459 1.0639 -2.7358 0.9660
-8.1642 0.9126 -2.7358 0.9660
-8.1749 0.8116 -2.7358 0.9660
-8.1797 0.7610 -2.7358 0.9660
-8.1842 0.7104 -2.7358 0.9660
-8.1885 0.6598 -2.7358 0.9660
-8.1924 0.6091 -2.7358 0.9660
-8.1993 0.5077 -2.7358 0.9660
-8.2023 0.4570 -2.7358 0.9660
-8.2049 0.4063 -2.7358 0.9660
-8.2093 0.3048 -2.7358 0.9660
-8.2110 0.2540 -2.7358 0.9660
-8.2125 0.2032 -2.7358 0.9660
-8.2136 0.1524 -2.7358 0.9660
-8.2143 0.1016 -2.7358 0.9660
-8.2148 0.0508 -2.7358 0.9660
-8.0152 -0.0991 -2.7358 0.9667
-8.0145 -0.1487 -2.7358 0.9667
-8.0120 -0.2478 -2.7358 0.9667
-8.0083 -0.3469 -2.7357 0.9667
-8.0034 -0.4459 -2.7357 0.9667
-8.0005 -0.4954 -2.7357 0.9667
-7.9937 -0.5943 -2.7357 0.9667
-7.9899 -0.6437 -2.7357 0.9667
-7.9857 -0.6931 -2.7357 0.9667
-7.9813 -0.7425 -2.7357 0.9667
-7.9661 -0.8904 -2.7357 0.9667
-7.9416 -1.0872 -2.7357 0.9667
-7.9275 -1.1853 -2.7357 0.9667
-7.8958 -1.3810 -2.7357 0.9667
-7.8781 -1.4786 -2.7357 0.9667
-7.8688 -1.5273 -2.7357 0.9667
-7.8492 -1.6245 -2.7357 0.9667
-7.8390 -1.6730 -2.7357 0.9667
-7.8285 -1.7214 -2.7357 0.9667
-7.8066 -1.8181 -2.7357 0.9667
-7.7835 -1.9145 -2.7356 0.9667
-7.7592 -2.0106 -2.7356 0.9667
-7.7337 -2.1065 -2.7356 0.9667
-7.6933 -2.2496 -2.7356 0.9667
-7.6792 -2.2971 -2.7356 0.9667
-7.6502 -2.3919 -2.7356 0.9667
-7.5887 -2.5804 -2.7356 0.9667
-7.5562 -2.6740 -2.7356 0.9667
-7.5395 -2.7207 -2.7356 0.9667
-7.4698 -2.9063 -2.7356 0.9667
-7.4333 -2.9985 -2.7356 0.9667
-7.3956 -3.0902 -2.7356 0.9667
-7.3763 -3.1358 -2.7356 0.9667
-7.3169 -3.2721 -2.7355 0.9667
-7.2758 -3.3624 -2.7355 0.9667
-7.2549 -3.4073 -2.7355 0.9667
-7.2337 -3.4521 -2.7355 0.9667
-7.2121 -3.4968 -2.7355 0.9667
-7.1904 -3.5413 -2.7355 0.9667
-7.1683 -3.5857 -2.7355 0.9667
-7.1460 -3.6299 -2.7355 0.9667
-7.1005 -3.7180 -2.7355 0.9667
-7.0774 -3.7619 -2.7355 0.9667
-7.0540 -3.8055 -2.7355 0.9667
-7.0303 -3.8491 -2.7355 0.9667
-7.0064 -3.8925 -2.7355 0.9667
-6.9079 -4.0646 -2.7355 0.9667
-6.7789 -4.2762 -2.7354 0.9667
-6.7255 -4.3597 -2.7354 0.9667
-6.6984 -4.4012 -2.7354 0.9667
-6.6710 -4.4425 -2.7354 0.9667
-6.5874 -4.5655 -2.7354 0.9667
-6.5590 -4.6061 -2.7354 0.9667
-6.5304 -4.6466 -2.7354 0.9667
-6.4724 -4.7270 -2.7354 0.9667
-6.3231 -4.9248 -2.7354 0.9667
-6.2926 -4.9638 -2.7354 0.9667
-6.1678 -5.1179 -2.7354 0.9667
-6.0393 -5.2688 -2.7353 0.9667
-5.9404 -5.3799 -2.7353 0.9667
-5.9071 -5.4166 -2.7353 0.9667
-5.8735 -5.4530 -2.7353 0.9667
-5.8396 -5.4892 -2.7353 0.9667
-5.7367 -5.5966 -2.7353 0.9667
-5.7020 -5.6319 -2.7353 0.9667
-5.6671 -5.6671 -2.7353 0.9667
-5.5965 -5.7367 -2.7353 0.9667
-5.5609 -5.7712 -2.7353 0.9667
-5.3430 -5.9735 -2.7352 0.9667
-5.3059 -6.0064 -2.7352 0.9667
-5.2687 -6.0390 -2.7352 0.9667
-5.2312 -6.0715 -2.7352 0.9667
-5.1935 -6.1037 -2.7352 0.9667
-5.1557 -6.1357 -2.7352 0.9667
-5.0794 -6.1990 -2.7352 0.9667
-5.0409 -6.2303 -2.7352 0.9667
-5.0023 -6.2613 -2.7352 0.9667
-4.8853 -6.3530 -2.7352 0.9667
-4.8459 -6.3831 -2.7352 0.9667
-4.6865 -6.5010 -2.7352 0.9667
-4.6462 -6.5298 -2.7352 0.9667
-4.5242 -6.6148 -2.7351 0.9667
-4.4420 -6.6703 -2.7351 0.9667
-4.4007 -6.6976 -2.7351 0.9667
-4.3175 -6.7515 -2.7351 0.9667
-4.2757 -6.7780 -2.7351 0.9667
-4.2337 -6.8044 -2.7351 0.9667
-4.0212 -6.9319 -2.7351 0.9667
-3.9783 -6.9567 -2.7351 0.9667
-3.9352 -6.9811 -2.7351 0.9667
-3.7613 -7.0763 -2.7351 0.9667
-3.7174 -7.0994 -2.7350 0.9667
-3.6293 -7.1448 -2.7350 0.9667
-3.4515 -7.2323 -2.7350 0.9667
-3.3617 -7.2744 -2.7350 0.9667
-3.3167 -7.2951 -2.7350 0.9667
-3.2715 -7.3154 -2.7350 0.9667
-3.2262 -7.3355 -2.7350 0.9667
-3.1352 -7.3748 -2.7350 0.9667
-3.0438 -7.4130 -2.7350 0.9667
-2.9978 -7.4317 -2.7350 0.9667
-2.8594 -7.4860 -2.7350 0.9667
-2.7201 -7.5377 -2.7349 0.9667
-2.6734 -7.5544 -2.7349 0.9667
-2.6266 -7.5707 -2.7349 0.9667
-2.5328 -7.6026 -2.7349 0.9667
-2.4385 -7.6333 -2.7349 0.9667
-2.3913 -7.6482 -2.7349 0.9667
-2.3439 -7.6629 -2.7349 0.9667
-2.2965 -7.6772 -2.7349 0.9667
-2.2490 -7.6912 -2.7349 0.9667
-2.2014 -7.7050 -2.7349 0.9667
-2.1537 -7.7185 -2.7349 0.9667
-2.1059 -7.7316 -2.7349 0.9667
-2.0101 -7.7571 -2.7349 0.9667
-1.9621 -7.7693 -2.7349 0.9667
-1.8658 -7.7930 -2.7349 0.9667
-1.8176 -7.8043 -2.7349 0.9667
-1.7693 -7.8154 -2.7349 0.9667
-1.6725 -7.8367 -2.7348 0.9667
-1.5268 -7.8663 -2.7348 0.9667
-0.9393 -7.9577 -2.7348 0.9667
-0.8901 -7.9633 -2.7348 0.9667
-0.8408 -7.9687 -2.7348 0.9667
-0.7422 -7.9785 -2.7348 0.9667
-0.6929 -7.9829 -2.7348 0.9667
-0.6435 -7.9870 -2.7348 0.9667
-0.5941 -7.9908 -2.7347 0.9667
-0.5447 -7.9943 -2.7347 0.9667
-0.4952 -7.9975 -2.7347 0.9667
-0.4457 -8.0004 -2.7347 0.9667
-0.3468 -8.0053 -2.7347 0.9667
-0.1982 -8.0103 -2.7347 0.9667
-0.1487 -8.0114 -2.7347 0.9667
-0.0991 -8.0121 -2.7347 0.9667
-0.0495 -8.0126 -2.7347 0.9667
0.0496 -8.0126 -2.7347 0.9667
0.1982 -8.0103 -2.7347 0.9667
0.2477 -8.0088 -2.7347 0.9667
0.3468 -8.0052 -2.7347 0.9667
0.3963 -8.0028 -2.7347 0.9667
0.4458 -8.0002 -2.7347 0.9667
0.5446 -7.9941 -2.7347 0.9667
0.5941 -7.9905 -2.7346 0.9667
0.6435 -7.9867 -2.7346 0.9667
0.6929 -7.9826 -2.7346 0.9667
0.9393 -7.9572 -2.7346 0.9667
0.9885 -7.9513 -2.7346 0.9667
1.0377 -7.9450 -2.7346 0.9667
1.1358 -7.9315 -2.7346 0.9667
1.1849 -7.9244 -2.7346 0.9667
1.3317 -7.9010 -2.7346 0.9667
1.3805 -7.8926 -2.7346 0.9667
1.4293 -7.8839 -2.7346 0.9667
1.6723 -7.8359 -2.7346 0.9667
1.7208 -7.8254 -2.7346 0.9667
1.7691 -7.8146 -2.7346 0.9667
1.8174 -7.8035 -2.7346 0.9667
1.9619 -7.7684 -2.7345 0.9667
2.0099 -7.7561 -2.7345 0.9667
2.0578 -7.7435 -2.7345 0.9667
2.2011 -7.7040 -2.7345 0.9667
2.2962 -7.6762 -2.7345 0.9667
2.3910 -7.6471 -2.7345 0.9667
2.4854 -7.6170 -2.7345 0.9667
2.5793 -7.5856 -2.7345 0.9667
2.6730 -7.5531 -2.7345 0.9667
2.7196 -7.5364 -2.7345 0.9667
2.7662 -7.5195 -2.7345 0.9667
2.9513 -7.4487 -2.7345 0.9667
2.9973 -7.4304 -2.7345 0.9667
3.1346 -7.3734 -2.7345 0.9667
3.1802 -7.3539 -2.7345 0.9667
3.2709 -7.3140 -2.7345 0.9667
3.3611 -7.2729 -2.7345 0.9667
3.4508 -7.2308 -2.7345 0.9667
3.4954 -7.2093 -2.7344 0.9667
3.5399 -7.1876 -2.7344 0.9667
3.5843 -7.1655 -2.7344 0.9667
3.6285 -7.1432 -2.7344 0.9667
3.8041 -7.0512 -2.7344 0.9667
3.8476 -7.0276 -2.7344 0.9667
3.9774 -6.9550 -2.7344 0.9667
4.0203 -6.9303 -2.7344 0.9667
4.0630 -6.9053 -2.7344 0.9667
4.1057 -6.8800 -2.7344 0.9667
4.1481 -6.8545 -2.7344 0.9667
4.1904 -6.8287 -2.7344 0.9667
4.3164 -6.7497 -2.7344 0.9667
4.3996 -6.6958 -2.7344 0.9667
4.5230 -6.6130 -2.7344 0.9667
4.5638 -6.5850 -2.7344 0.9667
4.6044 -6.5566 -2.7344 0.9667
4.6449 -6.5280 -2.7344 0.9667
4.7253 -6.4700 -2.7344 0.9667
4.8049 -6.4111 -2.7344 0.9667
4.8445 -6.3812 -2.7344 0.9667
4.8521 -6.3100 -2.7166 0.9669
4.8521 -6.0734 -2.6531 0.9677
4.8004 -5.8585 -2.5849 0.9685
4.8005 -5.7853 -2.5657 0.9687
4.9071 -5.6953 -2.5657 0.9687
4.9422 -5.6648 -2.5657 0.9687
4.9573 -5.5423 -2.5378 0.9691
4.9573 -5.4738 -2.5204 0.9693
4.9082 -5.3526 -2.4786 0.9698
4.9573 -5.1447 -2.4384 0.9703
4.9573 -4.8361 -2.3636 0.9712
4.9259 -4.6880 -2.3209 0.9717
4.9121 -4.6173 -2.3008 0.9719
4.9128 -4.5611 -2.2879 0.9721
4.9135 -4.5054 -2.2752 0.9722
4.9164 -4.4525 -2.2638 0.9724
4.9573 -4.3791 -2.2575 0.9724
4.8187 -4.1517 -2.1708 0.9735
4.8521 -4.0771 -2.1630 0.9736
4.8521 -4.0262 -2.1519 0.9737
4.8521 -3.9758 -2.1409 0.9738
4.8521 -3.9259 -2.1302 0.9740
4.8521 -3.7791 -2.0990 0.9743
4.8521 -3.7311 -2.0890 0.9745
4.8521 -3.6836 -2.0792 0.9746
4.8521 -3.6365 -2.0695 0.9747
4.8521 -3.4979 -2.0414 0.9750
4.8521 -3.3629 -2.0149 0.9754
4.8521 -3.2312 -1.9896 0.9757
4.8522 -3.0190 -1.9504 0.9761
4.8522 -2.9775 -1.9429 0.9762
4.8522 -2.8550 -1.9214 0.9765
4.8522 -2.7748 -1.9077 0.9767
4.8522 -2.7351 -1.9010 0.9767
4.8522 -2.6177 -1.8816 0.9770
4.8522 -2.5791 -1.8754 0.9770
4.8522 -2.5026 -1.8633 0.9772
4.9478 -2.3238 -1.8656 0.9772
5.1112 -2.3238 -1.9162 0.9765
5.1962 -2.3238 -1.9427 0.9762
5.2837 -2.3238 -1.9700 0.9759
5.4661 -2.3238 -2.0271 0.9752
5.5614 -2.3238 -2.0571 0.9748
5.7427 -2.2753 -2.1082 0.9742
6.3048 -2.3636 -2.2980 0.9719
6.6028 -2.4289 -2.4011 0.9707
7.1469 -2.3319 -2.5657 0.9687
7.4277 -2.2720 -2.6510 0.9677
7.6730 -2.2952 -2.7334 0.9667
7.6870 -2.2477 -2.7334 0.9667
7.7142 -2.1524 -2.7334 0.9667
7.7273 -2.1047 -2.7334 0.9667
7.7401 -2.0568 -2.7333 0.9667
7.7649 -1.9610 -2.7333 0.9667
7.7769 -1.9129 -2.7333 0.9667
7.7885 -1.8648 -2.7333 0.9667
7.7998 -1.8165 -2.7333 0.9667
7.8109 -1.7682 -2.7333 0.9667
7.8616 -1.5259 -2.7332 0.9667
7.8709 -1.4772 -2.7332 0.9667
7.8798 -1.4285 -2.7332 0.9667
7.8885 -1.3798 -2.7332 0.9667
7.9127 -1.2332 -2.7331 0.9667
7.9201 -1.1842 -2.7331 0.9667
7.9272 -1.1352 -2.7331 0.9667
7.9341 -1.0862 -2.7331 0.9667
7.9468 -0.9879 -2.7331 0.9667
7.9528 -0.9387 -2.7331 0.9667
7.9584 -0.8896 -2.7331 0.9667
7.9687 -0.7910 -2.7330 0.9667
7.9819 -0.6431 -2.7330 0.9667
7.9892 -0.5443 -2.7330 0.9667
7.9953 -0.4454 -2.7330 0.9667
7.9978 -0.3960 -2.7329 0.9667
8.0019 -0.2970 -2.7329 0.9667
8.0036 -0.2475 -2.7329 0.9667
8.0074 0.0496 -2.7329 0.9667
8.0052 0.1981 -2.7329 0.9667
8.0022 0.2971 -2.7330 0.9667
7.9979 0.3960 -2.7330 0.9667
7.9924 0.4949 -2.7330 0.9667
7.9892 0.5443 -2.7330 0.9667
7.9857 0.5938 -2.7330 0.9667
7.9778 0.6925 -2.7330 0.9667
7.9734 0.7418 -2.7330 0.9667
7.9687 0.7911 -2.7330 0.9667
7.9527 0.9388 -2.7330 0.9667
7.9468 0.9880 -2.7330 0.9667
7.9405 1.0371 -2.7331 0.9667
7.9339 1.0862 -2.7331 0.9667
7.9199 1.1842 -2.7331 0.9667
7.8883 1.3798 -2.7331 0.9667
7.8707 1.4772 -2.7331 0.9667
7.8419 1.6230 -2.7331 0.9667
7.8318 1.6715 -2.7331 0.9667
7.8105 1.7682 -2.7331 0.9667
7.7644 1.9608 -2.7331 0.9667
7.2534 1.9756 -2.5657 0.9687
7.2411 2.0205 -2.5657 0.9687
7.2285 2.0652 -2.5657 0.9687
6.8262 2.0880 -2.4363 0.9703
6.1790 2.0585 -2.2228 0.9728
5.6790 1.9311 -2.0472 0.9750
5.4947 1.9829 -1.9937 0.9756
5.3901 1.9829 -1.9601 0.9760
5.0963 1.9829 -1.8663 0.9772
4.9155 1.9829 -1.8090 0.9778
4.8292 1.9829 -1.7817 0.9782
4.7522 1.9857 -1.7578 0.9785
4.7522 2.0203 -1.7624 0.9784
4.7522 2.0551 -1.7670 0.9784
4.7522 2.1252 -1.7767 0.9782
4.7522 2.1962 -1.7867 0.9781
4.7522 2.2319 -1.7919 0.9781
4.7522 2.2679 -1.7971 0.9780
4.7522 2.4511 -1.8249 0.9777
4.7522 2.5638 -1.8429 0.9774
4.7522 2.6402 -1.8554 0.9773
4.7522 2.6788 -1.8618 0.9772
4.7522 2.7568 -1.8750 0.9770
4.7522 2.7962 -1.8818 0.9770
4.7522 2.9977 -1.9176 0.9765
4.7522 3.0805 -1.9328 0.9763
4.7522 3.2073 -1.9567 0.9761
4.7522 3.3373 -1.9819 0.9758
4.7522 3.5159 -2.0175 0.9753
4.7522 3.6077 -2.0363 0.9751
4.7522 3.7013 -2.0558 0.9749
4.7522 3.7487 -2.0658 0.9747
4.8573 4.0815 -2.1653 0.9735
4.8573 4.1330 -2.1767 0.9734
4.8573 4.1851 -2.1882 0.9733
4.8573 4.2377 -2.2000 0.9731
4.8573 4.4540 -2.2492 0.9725
4.8573 4.5096 -2.2621 0.9724
4.8084 4.5762 -2.2655 0.9723
4.8077 4.6325 -2.2786 0.9722
4.8070 4.6895 -2.2920 0.9720
4.8573 4.8573 -2.3444 0.9714
4.8573 4.9178 -2.3591 0.9712
4.8082 4.9900 -2.3650 0.9711
4.8573 5.1038 -2.4046 0.9707
4.8573 5.1674 -2.4204 0.9705
4.8573 5.2319 -2.4365 0.9703
4.8573 5.2972 -2.4529 0.9701
4.8573 5.4305 -2.4866 0.9697
4.7521 5.6555 -2.5211 0.9693
4.7521 5.7271 -2.5399 0.9690
4.7521 5.8734 -2.5785 0.9686
4.7521 5.9483 -2.5984 0.9683
4.7521 6.0243 -2.6187 0.9681
4.7521 6.1015 -2.6395 0.9678
4.7521 6.4231 -2.7269 0.9668
4.6427 6.5249 -2.7331 0.9667
4.5616 6.5818 -2.7331 0.9667
4.5208 6.6099 -2.7331 0.9667
4.4798 6.6377 -2.7331 0.9667
4.4387 6.6653 -2.7331 0.9667
4.3559 6.7196 -2.7331 0.9667
4.3143 6.7464 -2.7330 0.9667
4.2724 6.7729 -2.7330 0.9667
4.2305 6.7992 -2.7330 0.9667
4.1883 6.8253 -2.7330 0.9667
4.1460 6.8510 -2.7330 0.9667
4.0182 6.9267 -2.7330 0.9667
3.9752 6.9514 -2.7330 0.9667
3.8890 7.0000 -2.7330 0.9667
3.8456 7.0239 -2.7330 0.9667
3.7584 7.0709 -2.7330 0.9667
3.6265 7.1393 -2.7329 0.9667
3.5823 7.1616 -2.7329 0.9667
3.5379 7.1836 -2.7329 0.9667
3.4935 7.2053 -2.7329 0.9667
3.4488 7.2268 -2.7329 0.9667
3.3141 7.2894 -2.7329 0.9667
3.1784 7.3498 -2.7329 0.9667
3.1329 7.3694 -2.7329 0.9667
3.0415 7.4076 -2.7330 0.9667
2.9957 7.4263 -2.7330 0.9667
2.9036 7.4628 -2.7330 0.9667
2.8574 7.4806 -2.7330 0.9667
2.8111 7.4982 -2.7330 0.9667
2.7647 7.5155 -2.7330 0.9667
2.6716 7.5492 -2.7331 0.9667
2.6248 7.5656 -2.7331 0.9667
2.5311 7.5975 -2.7331 0.9667
2.3897 7.6433 -2.7331 0.9667
2.3424 7.6579 -2.7331 0.9667
2.2476 7.6864 -2.7332 0.9667
2.1523 7.7137 -2.7332 0.9667
2.1046 7.7269 -2.7332 0.9667
2.0568 7.7397 -2.7332 0.9667
2.0089 7.7524 -2.7332 0.9667
1.9129 7.7767 -2.7332 0.9667
1.8647 7.7884 -2.7332 0.9667
1.7683 7.8109 -2.7333 0.9667
1.6716 7.8323 -2.7333 0.9667
1.6231 7.8425 -2.7333 0.9667
1.5746 7.8524 -2.7333 0.9667
1.4774 7.8714 -2.7333 0.9667
1.3311 7.8975 -2.7334 0.9667
1.1844 7.9210 -2.7334 0.9667
1.0372 7.9417 -2.7335 0.9667
0.9881 7.9480 -2.7335 0.9667
0.9389 7.9540 -2.7335 0.9667
0.7419 7.9750 -2.7336 0.9667
0.6926 7.9794 -2.7336 0.9667
0.6432 7.9836 -2.7336 0.9667
0.4456 7.9972 -2.7336 0.9667
0.3961 7.9999 -2.7336 0.9667
0.3466 8.0022 -2.7337 0.9667
0.2476 8.0060 -2.7337 0.9667
0.1981 8.0074 -2.7337 0.9667
0.1486 8.0085 -2.7337 0.9667
0.0991 8.0094 -2.7337 0.9667
0.0496 8.0098 -2.7338 0.9667
-0.0495 8.0099 -2.7338 0.9667
-0.0990 8.0095 -2.7338 0.9667
-0.2477 8.0064 -2.7338 0.9667
-0.4456 7.9980 -2.7339 0.9667
-0.4951 7.9952 -2.7339 0.9667
-0.5445 7.9920 -2.7339 0.9667
-0.5939 7.9885 -2.7339 0.9667
-0.6433 7.9847 -2.7340 0.9667
-0.6927 7.9806 -2.7340 0.9667
-0.7913 7.9716 -2.7340 0.9667
-0.8899 7.9613 -2.7340 0.9667
-0.9883 7.9497 -2.7341 0.9667
-1.0374 7.9435 -2.7341 0.9667
-1.0865 7.9370 -2.7341 0.9667
-1.1847 7.9230 -2.7341 0.9667
-1.4291 7.8829 -2.7342 0.9667
-1.4778 7.8739 -2.7342 0.9667
-1.5751 7.8552 -2.7343 0.9667
-1.6237 7.8453 -2.7343 0.9667
-1.6721 7.8352 -2.7343 0.9667
-1.7206 7.8247 -2.7343 0.9667
-1.8173 7.8029 -2.7344 0.9667
-1.9137 7.7800 -2.7344 0.9667
-1.9618 7.7680 -2.7344 0.9667
-2.0097 7.7558 -2.7344 0.9667
-2.0577 7.7432 -2.7344 0.9667
-2.1055 7.7304 -2.7345 0.9667
-2.1533 7.7173 -2.7345 0.9667
-2.2486 7.6902 -2.7345 0.9667
-2.3436 7.6619 -2.7345 0.9667
-2.3910 7.6473 -2.7346 0.9667
-2.4382 7.6324 -2.7346 0.9667
-2.4854 7.6172 -2.7346 0.9667
-2.5324 7.6018 -2.7346 0.9667
-2.5795 7.5860 -2.7346 0.9667
-2.6263 7.5699 -2.7346 0.9667
-2.7198 7.5370 -2.7347 0.9667
-2.7664 7.5201 -2.7347 0.9667
-2.8592 7.4854 -2.7347 0.9667
-2.9054 7.4676 -2.7347 0.9667
-2.9976 7.4312 -2.7348 0.9667
-3.0435 7.4125 -2.7348 0.9667
-3.1350 7.3744 -2.7348 0.9667
-3.1806 7.3549 -2.7348 0.9667
-3.2714 7.3151 -2.7349 0.9667
-3.3165 7.2948 -2.7349 0.9667
-3.4514 7.2322 -2.7349 0.9667
-3.4961 7.2107 -2.7350 0.9667
-3.5406 7.1890 -2.7350 0.9667
-3.6734 7.1222 -2.7350 0.9667
-3.7174 7.0994 -2.7351 0.9667
-3.8050 7.0530 -2.7351 0.9667
-3.8486 7.0294 -2.7351 0.9667
-3.8920 7.0055 -2.7351 0.9667
-4.0214 6.9322 -2.7352 0.9667
-4.0642 6.9072 -2.7352 0.9667
-4.1069 6.8820 -2.7352 0.9667
-4.1494 6.8565 -2.7352 0.9667
-4.3178 6.7520 -2.7353 0.9667
-4.5655 6.5874 -2.7354 0.9667
-4.6062 6.5591 -2.7354 0.9667
-4.6870 6.5017 -2.7355 0.9667
-4.7271 6.4726 -2.7355 0.9667
-4.7671 6.4433 -2.7355 0.9667
-4.8465 6.3839 -2.7355 0.9667
-5.0417 6.2312 -2.7356 0.9667
-5.0802 6.2000 -2.7356 0.9667
-5.2321 6.0726 -2.7357 0.9667
-5.2696 6.0402 -2.7357 0.9667
-5.3069 6.0075 -2.7357 0.9667
-5.4175 5.9081 -2.7358 0.9667
-5.4540 5.8746 -2.7358 0.9667
-5.4902 5.8407 -2.7358 0.9667
-5.5263 5.8067 -2.7358 0.9667
-5.5621 5.7725 -2.7359 0.9667
-5.5977 5.7380 -2.7359 0.9667
-5.6683 5.6683 -2.7359 0.9667
-5.7032 5.6331 -2.7359 0.9667
-5.7724 5.5621 -2.7359 0.9667
-5.8067 5.5264 -2.7359 0.9667
-5.9082 5.4177 -2.7359 0.9667
-5.9417 5.3811 -2.7359 0.9667
-6.0729 5.2324 -2.7359 0.9667
-6.1052 5.1948 -2.7359 0.9667
-6.1372 5.1569 -2.7359 0.9667
-6.1690 5.1189 -2.7359 0.9667
-6.2005 5.0806 -2.7359 0.9667
-6.2937 4.9647 -2.7359 0.9667
-6.3546 4.8865 -2.7359 0.9667
-6.5027 4.6877 -2.7359 0.9667
-6.5315 4.6474 -2.7359 0.9667
-6.5602 4.6069 -2.7359 0.9667
-6.5885 4.5663 -2.7359 0.9667
-6.6166 4.5254 -2.7359 0.9667
-6.6445 4.4845 -2.7359 0.9667
-6.6721 4.4433 -2.7359 0.9667
-6.6995 4.4019 -2.7359 0.9667
-6.7534 4.3187 -2.7359 0.9667
-6.8063 4.2349 -2.7359 0.9667
-6.8837 4.1079 -2.7359 0.9667
-6.9089 4.0652 -2.7359 0.9667
-6.9832 3.9363 -2.7359 0.9667
-7.0313 3.8497 -2.7359 0.9667
-7.0550 3.8061 -2.7359 0.9667
-7.1015 3.7186 -2.7359 0.9667
-7.1244 3.6746 -2.7359 0.9667
-7.1693 3.5862 -2.7359 0.9667
-7.1913 3.5418 -2.7359 0.9667
-7.2346 3.4526 -2.7359 0.9667
-7.2558 3.4077 -2.7359 0.9667
-7.2767 3.3628 -2.7359 0.9667
-7.2974 3.3177 -2.7359 0.9667
-7.3379 3.2272 -2.7359 0.9667
-7.3577 3.1818 -2.7359 0.9667
-7.3965 3.0906 -2.7359 0.9667
-7.4154 3.0447 -2.7359 0.9667
-7.4341 2.9988 -2.7359 0.9667
-7.4706 2.9067 -2.7359 0.9667
-7.4884 2.8604 -2.7359 0.9667
-7.5060 2.8140 -2.7359 0.9667
-7.5233 2.7676 -2.7359 0.9667
-7.5402 2.7210 -2.7359 0.9667
-7.5569 2.6743 -2.7359 0.9667
-7.5733 2.6275 -2.7359 0.9667
-7.6052 2.5337 -2.7359 0.9667
-7.6207 2.4866 -2.7359 0.9667
-7.6360 2.4394 -2.7359 0.9667
-7.6509 2.3921 -2.7359 0.9667
-7.6655 2.3448 -2.7359 0.9667
-7.6799 2.2973 -2.7359 0.9667
-7.6939 2.2498 -2.7359 0.9667
-7.7077 2.2021 -2.7358 0.9667
-7.7212 2.1544 -2.7358 0.9667
-7.7344 2.1067 -2.7358 0.9667
-7.7472 2.0588 -2.7358 0.9667
-7.7598 2.0108 -2.7358 0.9667
-7.7721 1.9628 -2.7358 0.9667
-7.7841 1.9147 -2.7358 0.9667
-7.7958 1.8665 -2.7358 0.9667
-7.8290 1.7216 -2.7358 0.9667
-7.8692 1.5274 -2.7358 0.9667
-7.8785 1.4787 -2.7358 0.9667
-7.8875 1.4299 -2.7358 0.9667
-7.9046 1.3323 -2.7358 0.9667
-7.9279 1.1854 -2.7358 0.9667
-7.9351 1.1363 -2.7358 0.9667
-7.9419 1.0873 -2.7358 0.9667
-7.9485 1.0381 -2.7358 0.9667
-7.9607 0.9397 -2.7358 0.9667
-7.9664 0.8905 -2.7358 0.9667
-7.9717 0.8412 -2.7358 0.9667
-7.9768 0.7919 -2.7358 0.9667
-7.9815 0.7425 -2.7358 0.9667
-7.9901 0.6438 -2.7358 0.9667
-7.9939 0.5943 -2.7358 0.9667
-8.0035 0.4459 -2.7358 0.9667
-8.0061 0.3964 -2.7358 0.9667
-8.0104 0.2974 -2.7358 0.9667
-8.0145 0.1487 -2.7358 0.9667
-8.0153 0.0992 -2.7358 0.9667
-8.0157 0.0496 -2.7358 0.9667
-7.8253 0.0000 -2.7357 0.9674
-7.8251 -0.0484 -2.7357 0.9674
-7.8246 -0.0968 -2.7357 0.9674
-7.8179 -0.3386 -2.7357 0.9674
-7.8131 -0.4353 -2.7357 0.9674
-7.8071 -0.5319 -2.7357 0.9674
-7.7915 -0.7248 -2.7357 0.9674
-7.7869 -0.7730 -2.7357 0.9674
-7.7767 -0.8692 -2.7357 0.9674
-7.7592 -1.0134 -2.7357 0.9674
-7.7461 -1.1093 -2.7357 0.9674
-7.7391 -1.1571 -2.7357 0.9674
-7.7317 -1.2050 -2.7357 0.9674
-7.6907 -1.4434 -2.7357 0.9674
-7.6526 -1.6332 -2.7357 0.9674
-7.6424 -1.6805 -2.7356 0.9674
-7.6318 -1.7277 -2.7356 0.9674
-7.5747 -1.9628 -2.7356 0.9674
-7.5625 -2.0096 -2.7356 0.9674
-7.5104 -2.1961 -2.7356 0.9674
-7.4826 -2.2888 -2.7356 0.9674
-7.4683 -2.3350 -2.7356 0.9674
-7.4537 -2.3811 -2.7356 0.9674
-7.4388 -2.4272 -2.7356 0.9674
-7.4237 -2.4731 -2.7356 0.9674
-7.4082 -2.5190 -2.7356 0.9674
-7.3925 -2.5648 -2.7356 0.9674
-7.3765 -2.6104 -2.7356 0.9674
-7.3268 -2.7468 -2.7356 0.9674
-7.2745 -2.8823 -2.7356 0.9674
-7.2566 -2.9272 -2.7356 0.9674
-7.2383 -2.9720 -2.7355 0.9674
-7.2010 -3.0613 -2.7355 0.9674
-7.1819 -3.1058 -2.7355 0.9674
-7.1029 -3.2824 -2.7355 0.9674
-7.0617 -3.3700 -2.7355 0.9674
-7.0194 -3.4571 -2.7355 0.9674
-6.9979 -3.5004 -2.7355 0.9674
-6.9761 -3.5436 -2.7355 0.9674
-6.9541 -3.5867 -2.7355 0.9674
-6.8863 -3.7151 -2.7355 0.9674
-6.8632 -3.7576 -2.7355 0.9674
-6.8398 -3.7999 -2.7355 0.9674
-6.7922 -3.8842 -2.7355 0.9674
-6.7681 -3.9262 -2.7355 0.9674
-6.7437 -3.9680 -2.7355 0.9674
-6.7190 -4.0096 -2.7355 0.9674
-6.6941 -4.0511 -2.7354 0.9674
-6.6434 -4.1335 -2.7354 0.9674
-6.5391 -4.2966 -2.7354 0.9674
-6.4854 -4.3771 -2.7354 0.9674
-6.4582 -4.4171 -2.7354 0.9674
-6.4308 -4.4569 -2.7354 0.9674
-6.4031 -4.4966 -2.7354 0.9674
-6.3752 -4.5361 -2.7354 0.9674
-6.3470 -4.5754 -2.7354 0.9674
-6.2899 -4.6536 -2.7354 0.9674
-6.1129 -4.8837 -2.7354 0.9674
-5.9901 -5.0333 -2.7353 0.9674
-5.9589 -5.0703 -2.7353 0.9674
-5.9274 -5.1070 -2.7353 0.9674
-5.7666 -5.2878 -2.7353 0.9674
-5.7338 -5.3234 -2.7353 0.9674
-5.6340 -5.4288 -2.7353 0.9674
-5.4980 -5.5664 -2.7353 0.9674
-5.4635 -5.6003 -2.7353 0.9674
-5.3232 -5.7337 -2.7353 0.9674
-5.1434 -5.8955 -2.7352 0.9674
-5.0701 -5.9586 -2.7352 0.9674
-4.9960 -6.0209 -2.7352 0.9674
-4.9586 -6.0516 -2.7352 0.9674
-4.9211 -6.0822 -2.7352 0.9674
-4.8455 -6.1426 -2.7352 0.9674
-4.7691 -6.2020 -2.7352 0.9674
-4.7306 -6.2314 -2.7352 0.9674
-4.5751 -6.3464 -2.7352 0.9674
-4.3766 -6.4848 -2.7351 0.9674
-4.2961 -6.5384 -2.7351 0.9674
-4.2148 -6.5910 -2.7351 0.9674
-4.1740 -6.6169 -2.7351 0.9674
-4.0919 -6.6680 -2.7351 0.9674
-4.0505 -6.6932 -2.7351 0.9674
-3.9257 -6.7671 -2.7351 0.9674
-3.7994 -6.8388 -2.7351 0.9674
-3.7570 -6.8621 -2.7351 0.9674
-3.7145 -6.8852 -2.7351 0.9674
-3.6291 -6.9306 -2.7350 0.9674
-3.5861 -6.9529 -2.7350 0.9674
-3.5430 -6.9750 -2.7350 0.9674
-3.4998 -6.9967 -2.7350 0.9674
-3.4130 -7.0395 -2.7350 0.9674
-3.3257 -7.0811 -2.7350 0.9674
-3.2818 -7.1015 -2.7350 0.9674
-3.2379 -7.1216 -2.7350 0.9674
-3.1495 -7.1612 -2.7350 0.9674
-3.1052 -7.1804 -2.7350 0.9674
-3.0607 -7.1995 -2.7350 0.9674
-3.0161 -7.2183 -2.7350 0.9674
-2.8817 -7.2730 -2.7350 0.9674
-2.8366 -7.2906 -2.7350 0.9674
-2.7915 -7.3080 -2.7350 0.9674
-2.7009 -7.3420 -2.7350 0.9674
-2.6554 -7.3585 -2.7349 0.9674
-2.6098 -7.3748 -2.7349 0.9674
-2.4726 -7.4219 -2.7349 0.9674
-2.4266 -7.4370 -2.7349 0.9674
-2.3806 -7.4519 -2.7349 0.9674
-2.2419 -7.4947 -2.7349 0.9674
-2.1955 -7.5084 -2.7349 0.9674
-2.1490 -7.5219 -2.7349 0.9674
-2.1025 -7.5350 -2.7349 0.9674
-1.7744 -7.6188 -2.7349 0.9674
-1.4430 -7.6884 -2.7348 0.9674
-1.3954 -7.6971 -2.7348 0.9674
-1.3001 -7.7138 -2.7348 0.9674
-1.2046 -7.7293 -2.7348 0.9674
-1.1568 -7.7365 -2.7348 0.9674
-1.0610 -7.7503 -2.7348 0.9674
-1.0131 -7.7567 -2.7348 0.9674
-0.9170 -7.7686 -2.7348 0.9674
-0.8690 -7.7741 -2.7348 0.9674
-0.7728 -7.7842 -2.7348 0.9674
-0.6764 -7.7931 -2.7348 0.9674
-0.6282 -7.7971 -2.7348 0.9674
-0.5800 -7.8009 -2.7348 0.9674
-0.5317 -7.8043 -2.7348 0.9674
-0.4835 -7.8075 -2.7347 0.9674
-0.3868 -7.8128 -2.7347 0.9674
-0.3385 -7.8150 -2.7347 0.9674
-0.2902 -7.8170 -2.7347 0.9674
-0.2419 -7.8186 -2.7347 0.9674
-0.1935 -7.8199 -2.7347 0.9674
-0.1451 -7.8210 -2.7347 0.9674
-0.0968 -7.8217 -2.7347 0.9674
0.0000 -7.8223 -2.7347 0.9674
0.0967 -7.8217 -2.7347 0.9674
0.3385 -7.8149 -2.7347 0.9674
0.4352 -7.8101 -2.7347 0.9674
0.4834 -7.8072 -2.7347 0.9674
0.5317 -7.8041 -2.7347 0.9674
0.5800 -7.8006 -2.7347 0.9674
0.6764 -7.7928 -2.7347 0.9674
0.7727 -7.7838 -2.7346 0.9674
0.8209 -7.7789 -2.7346 0.9674
0.9650 -7.7623 -2.7346 0.9674
1.0130 -7.7562 -2.7346 0.9674
1.0609 -7.7498 -2.7346 0.9674
1.1567 -7.7360 -2.7346 0.9674
1.3953 -7.6965 -2.7346 0.9674
1.4429 -7.6877 -2.7346 0.9674
1.5853 -7.6596 -2.7346 0.9674
1.6326 -7.6496 -2.7346 0.9674
1.6799 -7.6394 -2.7346 0.9674
1.8213 -7.6069 -2.7346 0.9674
1.9152 -7.5838 -2.7346 0.9674
2.0556 -7.5469 -2.7345 0.9674
2.1488 -7.5209 -2.7345 0.9674
2.1952 -7.5075 -2.7345 0.9674
2.2416 -7.4937 -2.7345 0.9674
2.2879 -7.4797 -2.7345 0.9674
2.3803 -7.4508 -2.7345 0.9674
2.4263 -7.4359 -2.7345 0.9674
2.4722 -7.4208 -2.7345 0.9674
2.5638 -7.3896 -2.7345 0.9674
2.6095 -7.3736 -2.7345 0.9674
2.6550 -7.3573 -2.7345 0.9674
2.8812 -7.2717 -2.7345 0.9674
2.9261 -7.2537 -2.7345 0.9674
3.1046 -7.1791 -2.7345 0.9674
3.1931 -7.1402 -2.7345 0.9674
3.2372 -7.1203 -2.7345 0.9674
3.3250 -7.0797 -2.7345 0.9674
3.3687 -7.0590 -2.7345 0.9674
3.4124 -7.0380 -2.7345 0.9674
3.4558 -7.0167 -2.7345 0.9674
3.4991 -6.9952 -2.7345 0.9674
3.5854 -6.9514 -2.7345 0.9674
3.7562 -6.8606 -2.7344 0.9674
3.8408 -6.8136 -2.7344 0.9674
3.9247 -6.7655 -2.7344 0.9674
4.0081 -6.7165 -2.7344 0.9674
4.1320 -6.6409 -2.7344 0.9674
4.2138 -6.5893 -2.7344 0.9674
4.2545 -6.5631 -2.7344 0.9674
4.2950 -6.5367 -2.7344 0.9674
4.4155 -6.4559 -2.7344 0.9674
4.4553 -6.4284 -2.7344 0.9674
4.4950 -6.4008 -2.7344 0.9674
4.6130 -6.3162 -2.7344 0.9674
4.8060 -6.1706 -2.7344 0.9674
4.8004 -5.5714 -2.5711 0.9693
4.9573 -5.2737 -2.5304 0.9698
4.9573 -5.2088 -2.5139 0.9700
4.9573 -5.1447 -2.4977 0.9702
4.9573 -5.0814 -2.4818 0.9704
4.9573 -5.0190 -2.4663 0.9705
4.9573 -4.9573 -2.4510 0.9707
4.9573 -4.8963 -2.4359 0.9709
4.9573 -4.8361 -2.4212 0.9711
4.9259 -4.6880 -2.3774 0.9716
4.9573 -4.6598 -2.3786 0.9716
4.9573 -4.6024 -2.3649 0.9717
4.9573 -4.4895 -2.3382 0.9721
4.9148 -4.3960 -2.3053 0.9724
4.8004 -4.1879 -2.2271 0.9734
4.8187 -4.1517 -2.2237 0.9734
4.8521 -4.1286 -2.2273 0.9734
4.8521 -4.0262 -2.2043 0.9736
4.8521 -3.7791 -2.1501 0.9743
4.8521 -3.6836 -2.1298 0.9745
4.8521 -3.5437 -2.1006 0.9749
4.8521 -3.4979 -2.0912 0.9750
4.8521 -3.4525 -2.0819 0.9751
4.8521 -3.3629 -2.0639 0.9753
4.8521 -3.3186 -2.0551 0.9754
4.8521 -3.2748 -2.0465 0.9755
4.8521 -3.1881 -2.0297 0.9757
4.8521 -3.1453 -2.0216 0.9758
4.8522 -3.0608 -2.0056 0.9760
4.8522 -3.0190 -1.9979 0.9761
4.8522 -2.9364 -1.9828 0.9763
4.8522 -2.8955 -1.9754 0.9763
4.8522 -2.8550 -1.9682 0.9764
4.8522 -2.8147 -1.9611 0.9765
4.8522 -2.7748 -1.9541 0.9766
4.8522 -2.7351 -1.9473 0.9767
4.8522 -2.6565 -1.9339 0.9768
4.8522 -2.6177 -1.9274 0.9769
4.8522 -2.5407 -1.9148 0.9771
4.8522 -2.4647 -1.9026 0.9772
4.8522 -2.3897 -1.8909 0.9773
4.9478 -2.3238 -1.9111 0.9771
5.1112 -2.3238 -1.9629 0.9765
5.3736 -2.3238 -2.0468 0.9755
5.4661 -2.3238 -2.0765 0.9751
5.5614 -2.3238 -2.1072 0.9748
5.7427 -2.3165 -2.1649 0.9741
5.7427 -2.2753 -2.1595 0.9742
6.2790 -2.3984 -2.3499 0.9719
6.8636 -2.4289 -2.5454 0.9696
6.9100 -2.3974 -2.5570 0.9695
6.9483 -2.3626 -2.5657 0.9694
7.1120 -2.2720 -2.6102 0.9689
7.4768 -2.2870 -2.7335 0.9674
7.5309 -2.1013 -2.7334 0.9674
7.6254 -1.7262 -2.7333 0.9674
7.6358 -1.6790 -2.7333 0.9674
7.6461 -1.6318 -2.7333 0.9674
7.6656 -1.5371 -2.7333 0.9674
7.6927 -1.3946 -2.7332 0.9674
7.7171 -1.2516 -2.7332 0.9674
7.7247 -1.2039 -2.7332 0.9674
7.7389 -1.1082 -2.7332 0.9674
7.7456 -1.0603 -2.7331 0.9674
7.7693 -0.8684 -2.7331 0.9674
7.7746 -0.8204 -2.7331 0.9674
7.7794 -0.7722 -2.7331 0.9674
7.7840 -0.7241 -2.7331 0.9674
7.7923 -0.6278 -2.7331 0.9674
7.8026 -0.4831 -2.7330 0.9674
7.8149 -0.1933 -2.7330 0.9674
7.8167 -0.0967 -2.7329 0.9674
7.8165 0.0967 -2.7329 0.9674
7.8147 0.1934 -2.7329 0.9674
7.8134 0.2417 -2.7329 0.9674
7.7992 0.5314 -2.7330 0.9674
7.7958 0.5796 -2.7330 0.9674
7.7921 0.6278 -2.7330 0.9674
7.7742 0.8204 -2.7330 0.9674
7.7635 0.9165 -2.7330 0.9674
7.7516 1.0124 -2.7330 0.9674
7.7452 1.0603 -2.7330 0.9674
7.7243 1.2038 -2.7330 0.9674
7.7088 1.2993 -2.7330 0.9674
7.7006 1.3470 -2.7330 0.9674
7.6834 1.4421 -2.7331 0.9674
7.6744 1.4896 -2.7331 0.9674
7.6650 1.5370 -2.7331 0.9674
7.6554 1.5844 -2.7331 0.9674
7.6454 1.6317 -2.7331 0.9674
7.5677 1.9611 -2.7331 0.9674
7.2666 1.9311 -2.6286 0.9686
7.0689 1.9725 -2.5657 0.9694
7.0440 2.0597 -2.5657 0.9694
6.8262 2.0880 -2.4956 0.9702
6.1990 2.0227 -2.2796 0.9727
5.6790 1.9311 -2.0971 0.9749
5.6428 1.9577 -2.0881 0.9750
5.6030 1.9829 -2.0779 0.9751
5.4947 1.9829 -2.0422 0.9756
5.2889 1.9829 -1.9747 0.9763
5.0963 1.9829 -1.9118 0.9771
4.9155 1.9829 -1.8530 0.9778
4.7522 2.0203 -1.8053 0.9784
4.7522 2.0551 -1.8101 0.9783
4.7522 2.1252 -1.8199 0.9782
4.7522 2.2679 -1.8409 0.9779
4.7522 2.3405 -1.8519 0.9778
4.7522 2.4884 -1.8754 0.9775
4.7522 2.5260 -1.8815 0.9775
4.7522 2.6019 -1.8941 0.9773
4.7522 3.0390 -1.9720 0.9764
4.7522 3.0805 -1.9799 0.9763
4.7522 3.2503 -2.0128 0.9759
4.7522 3.2936 -2.0214 0.9758
4.7522 3.3373 -2.0301 0.9757
4.7522 3.3813 -2.0390 0.9756
4.7522 3.4258 -2.0481 0.9755
4.7522 3.4707 -2.0573 0.9754
4.7522 3.5616 -2.0762 0.9751
4.7522 3.6543 -2.0958 0.9749
4.7522 3.7013 -2.1058 0.9748
4.7522 3.7487 -2.1161 0.9747
4.7099 3.8108 -2.1181 0.9747
4.7004 3.8514 -2.1245 0.9746
4.8573 4.1330 -2.2297 0.9733
4.8263 4.3169 -2.2638 0.9729
4.8104 4.4110 -2.2817 0.9727
4.8573 4.7387 -2.3724 0.9717
4.8573 4.8573 -2.4015 0.9713
4.8573 4.9178 -2.4165 0.9711
4.8573 5.1038 -2.4632 0.9706
4.8573 5.3634 -2.5297 0.9698
4.8573 5.4305 -2.5472 0.9696
4.8373 5.4759 -2.5544 0.9695
4.7773 5.4759 -2.5405 0.9697
4.7004 5.5242 -2.5358 0.9697
4.7521 5.7997 -2.6213 0.9687
4.7521 5.9483 -2.6617 0.9683
4.6884 6.2557 -2.7331 0.9674
4.6496 6.2846 -2.7331 0.9674
4.4132 6.4526 -2.7330 0.9674
4.3331 6.5067 -2.7330 0.9674
4.2928 6.5333 -2.7330 0.9674
4.2523 6.5597 -2.7330 0.9674
4.2116 6.5859 -2.7330 0.9674
4.1298 6.6375 -2.7330 0.9674
4.0474 6.6880 -2.7330 0.9674
4.0059 6.7129 -2.7330 0.9674
3.8807 6.7860 -2.7330 0.9674
3.8386 6.8099 -2.7329 0.9674
3.7964 6.8335 -2.7329 0.9674
3.7541 6.8568 -2.7329 0.9674
3.6690 6.9027 -2.7329 0.9674
3.6263 6.9252 -2.7329 0.9674
3.5833 6.9475 -2.7329 0.9674
3.4538 7.0127 -2.7329 0.9674
3.3669 7.0550 -2.7329 0.9674
3.3232 7.0758 -2.7329 0.9674
3.1914 7.1363 -2.7330 0.9674
3.1472 7.1559 -2.7330 0.9674
3.1029 7.1752 -2.7330 0.9674
3.0139 7.2131 -2.7330 0.9674
2.9693 7.2316 -2.7330 0.9674
2.9245 7.2499 -2.7330 0.9674
2.7895 7.3030 -2.7331 0.9674
2.6990 7.3370 -2.7331 0.9674
2.6536 7.3536 -2.7331 0.9674
2.5625 7.3859 -2.7331 0.9674
2.4709 7.4171 -2.7331 0.9674
2.3791 7.4471 -2.7332 0.9674
2.3329 7.4617 -2.7332 0.9674
2.2868 7.4760 -2.7332 0.9674
2.2405 7.4901 -2.7332 0.9674
2.1942 7.5038 -2.7332 0.9674
2.1477 7.5173 -2.7332 0.9674
2.0546 7.5433 -2.7332 0.9674
1.8674 7.5920 -2.7333 0.9674
1.5372 7.6659 -2.7334 0.9674
1.4897 7.6753 -2.7334 0.9674
1.3471 7.7017 -2.7334 0.9674
1.2518 7.7178 -2.7334 0.9674
1.1562 7.7328 -2.7335 0.9674
1.1084 7.7399 -2.7335 0.9674
1.0605 7.7466 -2.7335 0.9674
1.0126 7.7530 -2.7335 0.9674
0.8686 7.7706 -2.7336 0.9674
0.8205 7.7759 -2.7336 0.9674
0.7724 7.7808 -2.7336 0.9674
0.6279 7.7939 -2.7336 0.9674
0.5315 7.8012 -2.7336 0.9674
0.4350 7.8072 -2.7337 0.9674
0.1451 7.8183 -2.7338 0.9674
0.0484 7.8195 -2.7338 0.9674
0.0000 7.8197 -2.7338 0.9674
-0.0967 7.8192 -2.7338 0.9674
-0.1451 7.8185 -2.7338 0.9674
-0.2418 7.8162 -2.7339 0.9674
-0.2901 7.8146 -2.7339 0.9674
-0.3867 7.8105 -2.7339 0.9674
-0.4350 7.8080 -2.7339 0.9674
-0.4833 7.8052 -2.7340 0.9674
-0.5316 7.8021 -2.7340 0.9674
-0.5798 7.7987 -2.7340 0.9674
-0.6280 7.7950 -2.7340 0.9674
-0.8207 7.7773 -2.7341 0.9674
-0.8687 7.7721 -2.7341 0.9674
-0.9648 7.7608 -2.7341 0.9674
-1.0128 7.7548 -2.7341 0.9674
-1.1087 7.7417 -2.7341 0.9674
-1.2521 7.7200 -2.7342 0.9674
-1.4427 7.6868 -2.7343 0.9674
-1.4902 7.6778 -2.7343 0.9674
-1.6797 7.6388 -2.7343 0.9674
-1.7269 7.6283 -2.7344 0.9674
-1.7740 7.6175 -2.7344 0.9674
-1.8212 7.6064 -2.7344 0.9674
-1.8682 7.5950 -2.7344 0.9674
-2.0088 7.5592 -2.7345 0.9674
-2.1022 7.5339 -2.7345 0.9674
-2.1952 7.5074 -2.7345 0.9674
-2.2416 7.4937 -2.7345 0.9674
-2.3803 7.4510 -2.7346 0.9674
-2.5181 7.4057 -2.7346 0.9674
-2.6096 7.3741 -2.7347 0.9674
-2.6551 7.3579 -2.7347 0.9674
-2.7006 7.3413 -2.7347 0.9674
-2.7460 7.3245 -2.7347 0.9674
-2.7912 7.3074 -2.7347 0.9674
-2.8364 7.2901 -2.7348 0.9674
-2.9264 7.2545 -2.7348 0.9674
-3.0159 7.2179 -2.7348 0.9674
-3.0605 7.1991 -2.7348 0.9674
-3.1050 7.1801 -2.7349 0.9674
-3.1493 7.1608 -2.7349 0.9674
-3.2377 7.1214 -2.7349 0.9674
-3.3256 7.0809 -2.7349 0.9674
-3.3693 7.0602 -2.7350 0.9674
-3.4130 7.0393 -2.7350 0.9674
-3.4564 7.0181 -2.7350 0.9674
-3.4998 6.9966 -2.7350 0.9674
-3.6719 6.9081 -2.7351 0.9674
-3.7571 6.8623 -2.7351 0.9674
-3.7995 6.8389 -2.7351 0.9674
-3.8417 6.8154 -2.7351 0.9674
-3.8838 6.7915 -2.7352 0.9674
-3.9258 6.7674 -2.7352 0.9674
-4.0092 6.7184 -2.7352 0.9674
-4.1333 6.6430 -2.7353 0.9674
-4.1743 6.6174 -2.7353 0.9674
-4.2152 6.5914 -2.7353 0.9674
-4.2559 6.5653 -2.7353 0.9674
-4.2964 6.5389 -2.7353 0.9674
-4.3368 6.5123 -2.7353 0.9674
-4.4569 6.4308 -2.7354 0.9674
-4.5362 6.3753 -2.7354 0.9674
-4.6147 6.3187 -2.7355 0.9674
-4.6926 6.2613 -2.7355 0.9674
-4.7313 6.2321 -2.7355 0.9674
-4.8080 6.1733 -2.7356 0.9674
-4.8462 6.1434 -2.7356 0.9674
-4.8841 6.1134 -2.7356 0.9674
-4.9218 6.0831 -2.7356 0.9674
-4.9594 6.0526 -2.7356 0.9674
-5.0339 5.9909 -2.7357 0.9674
-5.1077 5.9282 -2.7357 0.9674
-5.1443 5.8966 -2.7357 0.9674
-5.1807 5.8646 -2.7357 0.9674
-5.2529 5.8002 -2.7358 0.9674
-5.2887 5.7676 -2.7358 0.9674
-5.4646 5.6015 -2.7358 0.9674
-5.5335 5.5335 -2.7358 0.9674
-5.5676 5.4992 -2.7358 0.9674
-5.6352 5.4299 -2.7358 0.9674
-5.6687 5.3950 -2.7358 0.9674
-5.8004 5.2531 -2.7358 0.9674
-5.8328 5.2171 -2.7358 0.9674
-5.9285 5.1080 -2.7359 0.9674
-5.9600 5.0713 -2.7359 0.9674
-5.9913 5.0343 -2.7359 0.9674
-6.0223 4.9972 -2.7359 0.9674
-6.0837 4.9223 -2.7359 0.9674
-6.1140 4.8846 -2.7359 0.9674
-6.1440 4.8467 -2.7359 0.9674
-6.1739 4.8086 -2.7359 0.9674
-6.2035 4.7703 -2.7359 0.9674
-6.2329 4.7318 -2.7359 0.9674
-6.2621 4.6932 -2.7359 0.9674
-6.2910 4.6544 -2.7359 0.9674
-6.3196 4.6154 -2.7359 0.9674
-6.3762 4.5369 -2.7359 0.9674
-6.4319 4.4577 -2.7359 0.9674
-6.4593 4.4179 -2.7359 0.9674
-6.4865 4.3778 -2.7359 0.9674
-6.5134 4.3376 -2.7359 0.9674
-6.5402 4.2972 -2.7359 0.9674
-6.5666 4.2567 -2.7359 0.9674
-6.5928 4.2160 -2.7359 0.9674
-6.6444 4.1342 -2.7359 0.9674
-6.6699 4.0930 -2.7359 0.9674
-6.6951 4.0517 -2.7359 0.9674
-6.7447 3.9686 -2.7359 0.9674
-6.7932 3.8848 -2.7359 0.9674
-6.8171 3.8428 -2.7359 0.9674
-6.8641 3.7581 -2.7359 0.9674
-7.1037 3.2829 -2.7359 0.9674
-7.1634 3.1505 -2.7359 0.9674
-7.1827 3.1061 -2.7359 0.9674
-7.2018 3.0617 -2.7359 0.9674
-7.2573 2.9275 -2.7358 0.9674
-7.2753 2.8826 -2.7358 0.9674
-7.3275 2.7471 -2.7358 0.9674
-7.3443 2.7018 -2.7358 0.9674
-7.3609 2.6563 -2.7358 0.9674
-7.4395 2.4274 -2.7358 0.9674
-7.5110 2.1963 -2.7358 0.9674
-7.5244 2.1498 -2.7358 0.9674
-7.5504 2.0566 -2.7358 0.9674
-7.5873 1.9161 -2.7358 0.9674
-7.6104 1.8221 -2.7358 0.9674
-7.6429 1.6806 -2.7358 0.9674
-7.6630 1.5860 -2.7358 0.9674
-7.6821 1.4911 -2.7358 0.9674
-7.6999 1.3959 -2.7358 0.9674
-7.7321 1.2050 -2.7358 0.9674
-7.7464 1.1093 -2.7358 0.9674
-7.7531 1.0614 -2.7358 0.9674
-7.7595 1.0134 -2.7358 0.9674
-7.7769 0.8693 -2.7358 0.9674
-7.7822 0.8212 -2.7358 0.9674
-7.7871 0.7731 -2.7358 0.9674
-7.7961 0.6767 -2.7358 0.9674
-7.8038 0.5802 -2.7358 0.9674
-7.8132 0.4353 -2.7358 0.9674
-7.8157 0.3870 -2.7358 0.9674
-7.8180 0.3387 -2.7358 0.9674
-7.8199 0.2903 -2.7358 0.9674
-7.8216 0.2419 -2.7358 0.9674
-7.8229 0.1936 -2.7358 0.9674
-7.8239 0.1452 -2.7358 0.9674
-7.8247 0.0968 -2.7358 0.9674
-7.6425 -0.0472 -2.7357 0.9681
-7.6402 -0.1890 -2.7357 0.9681
-7.6373 -0.2835 -2.7357 0.9681
-7.6096 -0.7079 -2.7357 0.9681
-7.6003 -0.8020 -2.7357 0.9681
-7.5898 -0.8959 -2.7357 0.9681
-7.5584 -1.1301 -2.7357 0.9681
-7.5513 -1.1768 -2.7357 0.9681
-7.5438 -1.2235 -2.7357 0.9681
-7.5281 -1.3167 -2.7357 0.9681
-7.5112 -1.4097 -2.7357 0.9681
-7.5024 -1.4562 -2.7356 0.9681
-7.4838 -1.5488 -2.7356 0.9681
-7.4740 -1.5951 -2.7356 0.9681
-7.4640 -1.6413 -2.7356 0.9681
-7.4537 -1.6874 -2.7356 0.9681
-7.3859 -1.9627 -2.7356 0.9681
-7.3611 -2.0539 -2.7356 0.9681
-7.3482 -2.0994 -2.7356 0.9681
-7.3351 -2.1448 -2.7356 0.9681
-7.3080 -2.2354 -2.7356 0.9681
-7.2652 -2.3705 -2.7356 0.9681
-7.2504 -2.4154 -2.7356 0.9681
-7.1884 -2.5940 -2.7356 0.9681
-7.1722 -2.6384 -2.7356 0.9681
-7.1390 -2.7269 -2.7356 0.9681
-7.1220 -2.7710 -2.7355 0.9681
-7.0872 -2.8588 -2.7355 0.9681
-7.0694 -2.9026 -2.7355 0.9681
-7.0513 -2.9463 -2.7355 0.9681
-7.0142 -3.0333 -2.7355 0.9681
-6.9953 -3.0766 -2.7355 0.9681
-6.9762 -3.1198 -2.7355 0.9681
-6.9171 -3.2487 -2.7355 0.9681
-6.8968 -3.2913 -2.7355 0.9681
-6.8764 -3.3339 -2.7355 0.9681
-6.8556 -3.3764 -2.7355 0.9681
-6.8346 -3.4187 -2.7355 0.9681
-6.8133 -3.4609 -2.7355 0.9681
-6.7256 -3.6284 -2.7355 0.9681
-6.7030 -3.6699 -2.7355 0.9681
-6.6571 -3.7525 -2.7355 0.9681
-6.6101 -3.8345 -2.7355 0.9681
-6.5863 -3.8753 -2.7354 0.9681
-6.5378 -3.9565 -2.7354 0.9681
-6.5132 -3.9968 -2.7354 0.9681
-6.4633 -4.0771 -2.7354 0.9681
-6.4123 -4.1567 -2.7354 0.9681
-6.2807 -4.3529 -2.7354 0.9681
-6.1988 -4.4687 -2.7354 0.9681
-6.1711 -4.5069 -2.7354 0.9681
-6.1148 -4.5829 -2.7354 0.9681
-5.9996 -4.7327 -2.7354 0.9681
-5.9702 -4.7697 -2.7354 0.9681
-5.9406 -4.8065 -2.7353 0.9681
-5.8806 -4.8796 -2.7353 0.9681
-5.7581 -5.0235 -2.7353 0.9681
-5.6321 -5.1644 -2.7353 0.9681
-5.6000 -5.1991 -2.7353 0.9681
-5.5678 -5.2336 -2.7353 0.9681
-5.5353 -5.2679 -2.7353 0.9681
-5.5026 -5.3021 -2.7353 0.9681
-5.4697 -5.3360 -2.7353 0.9681
-5.4366 -5.3697 -2.7353 0.9681
-5.4032 -5.4032 -2.7353 0.9681
-5.3697 -5.4365 -2.7353 0.9681
-5.3360 -5.4696 -2.7353 0.9681
-5.3020 -5.5025 -2.7353 0.9681
-5.2679 -5.5352 -2.7353 0.9681
-5.1643 -5.6319 -2.7352 0.9681
-5.1293 -5.6637 -2.7352 0.9681
-5.0589 -5.7267 -2.7352 0.9681
-5.0234 -5.7579 -2.7352 0.9681
-4.9877 -5.7889 -2.7352 0.9681
-4.9517 -5.8196 -2.7352 0.9681
-4.8794 -5.8803 -2.7352 0.9681
-4.8062 -5.9402 -2.7352 0.9681
-4.7694 -5.9698 -2.7352 0.9681
-4.6203 -6.0859 -2.7352 0.9681
-4.5066 -6.1706 -2.7352 0.9681
-4.4683 -6.1983 -2.7352 0.9681
-4.4299 -6.2258 -2.7352 0.9681
-4.3913 -6.2531 -2.7351 0.9681
-4.3136 -6.3069 -2.7351 0.9681
-4.1165 -6.4372 -2.7351 0.9681
-4.0366 -6.4876 -2.7351 0.9681
-3.9155 -6.5613 -2.7351 0.9681
-3.8748 -6.5854 -2.7351 0.9681
-3.5444 -6.7689 -2.7351 0.9681
-3.5024 -6.7906 -2.7350 0.9681
-3.4182 -6.8334 -2.7350 0.9681
-3.3334 -6.8752 -2.7350 0.9681
-3.2908 -6.8956 -2.7350 0.9681
-3.2053 -6.9358 -2.7350 0.9681
-3.1192 -6.9749 -2.7350 0.9681
-3.0760 -6.9940 -2.7350 0.9681
-3.0327 -7.0129 -2.7350 0.9681
-2.9893 -7.0315 -2.7350 0.9681
-2.9021 -7.0679 -2.7350 0.9681
-2.8583 -7.0857 -2.7350 0.9681
-2.8144 -7.1033 -2.7350 0.9681
-2.6821 -7.1542 -2.7350 0.9681
-2.5935 -7.1868 -2.7350 0.9681
-2.5489 -7.2027 -2.7349 0.9681
-2.5043 -7.2183 -2.7349 0.9681
-2.4596 -7.2336 -2.7349 0.9681
-2.4148 -7.2487 -2.7349 0.9681
-2.3700 -7.2635 -2.7349 0.9681
-2.2799 -7.2922 -2.7349 0.9681
-2.2348 -7.3062 -2.7349 0.9681
-2.1896 -7.3198 -2.7349 0.9681
-2.0534 -7.3591 -2.7349 0.9681
-1.9622 -7.3840 -2.7349 0.9681
-1.9165 -7.3959 -2.7349 0.9681
-1.8707 -7.4076 -2.7349 0.9681
-1.8249 -7.4191 -2.7349 0.9681
-1.7789 -7.4302 -2.7349 0.9681
-1.6408 -7.4619 -2.7349 0.9681
-1.4093 -7.5090 -2.7348 0.9681
-1.3629 -7.5175 -2.7348 0.9681
-1.3163 -7.5258 -2.7348 0.9681
-1.2231 -7.5415 -2.7348 0.9681
-1.1765 -7.5489 -2.7348 0.9681
-1.1298 -7.5560 -2.7348 0.9681
-1.0362 -7.5694 -2.7348 0.9681
-0.9425 -7.5816 -2.7348 0.9681
-0.8956 -7.5873 -2.7348 0.9681
-0.7077 -7.6071 -2.7348 0.9681
-0.6136 -7.6152 -2.7348 0.9681
-0.5664 -7.6189 -2.7348 0.9681
-0.5193 -7.6222 -2.7348 0.9681
-0.4721 -7.6253 -2.7348 0.9681
-0.3778 -7.6305 -2.7347 0.9681
-0.3306 -7.6327 -2.7347 0.9681
-0.2834 -7.6346 -2.7347 0.9681
-0.2362 -7.6362 -2.7347 0.9681
-0.1890 -7.6375 -2.7347 0.9681
-0.1417 -7.6385 -2.7347 0.9681
0.0000 -7.6398 -2.7347 0.9681
0.0472 -7.6396 -2.7347 0.9681
0.1890 -7.6374 -2.7347 0.9681
0.2362 -7.6361 -2.7347 0.9681
0.2834 -7.6344 -2.7347 0.9681
0.4250 -7.6278 -2.7347 0.9681
0.5664 -7.6186 -2.7347 0.9681
0.6606 -7.6110 -2.7347 0.9681
0.7077 -7.6067 -2.7347 0.9681
0.7547 -7.6022 -2.7347 0.9681
0.8487 -7.5923 -2.7346 0.9681
1.0362 -7.5689 -2.7346 0.9681
1.0830 -7.5624 -2.7346 0.9681
1.1297 -7.5555 -2.7346 0.9681
1.1764 -7.5484 -2.7346 0.9681
1.2231 -7.5409 -2.7346 0.9681
1.3628 -7.5169 -2.7346 0.9681
1.4556 -7.4995 -2.7346 0.9681
1.5483 -7.4809 -2.7346 0.9681
1.5945 -7.4712 -2.7346 0.9681
1.6868 -7.4508 -2.7346 0.9681
1.9163 -7.3951 -2.7346 0.9681
1.9620 -7.3831 -2.7346 0.9681
2.0076 -7.3708 -2.7346 0.9681
2.2346 -7.3052 -2.7345 0.9681
2.2797 -7.2912 -2.7345 0.9681
2.5040 -7.2172 -2.7345 0.9681
2.5485 -7.2016 -2.7345 0.9681
2.5930 -7.1857 -2.7345 0.9681
2.8139 -7.1021 -2.7345 0.9681
2.9452 -7.0486 -2.7345 0.9681
2.9887 -7.0302 -2.7345 0.9681
