ply
format ascii 1.0
element vertex 1598
property float32 x
property float32 y
property float32 z
property float32 I
end_header
-2.9496 -6.9382 -2.3869 0.9689
-2.8635 -6.9741 -2.3869 0.9689
-2.7770 -7.0090 -2.3869 0.9689
-2.6901 -7.0428 -2.3869 0.9689
-2.6028 -7.0755 -2.3869 0.9689
-2.5590 -7.0915 -2.3869 0.9689
-2.5151 -7.1072 -2.3869 0.9689
-2.4270 -7.1377 -2.3869 0.9689
-2.3829 -7.1526 -2.3869 0.9689
-2.3385 -7.1672 -2.3869 0.9689
-2.2942 -7.1815 -2.3869 0.9689
-2.2497 -7.1956 -2.3869 0.9689
-2.2052 -7.2094 -2.3869 0.9689
-2.1158 -7.2361 -2.3869 0.9689
-1.9813 -7.2741 -2.3869 0.9689
-1.9362 -7.2862 -2.3869 0.9689
-1.8911 -7.2980 -2.3869 0.9689
-1.8460 -7.3096 -2.3869 0.9689
-1.7554 -7.3319 -2.3869 0.9689
-1.7101 -7.3426 -2.3869 0.9689
-1.6646 -7.3530 -2.3869 0.9689
-1.5735 -7.3731 -2.3869 0.9689
-1.5279 -7.3827 -2.3869 0.9689
-1.3907 -7.4097 -2.3869 0.9689
-1.3448 -7.4182 -2.3869 0.9689
-1.2989 -7.4264 -2.3870 0.9689
-1.2070 -7.4419 -2.3870 0.9689
-1.1609 -7.4492 -2.3870 0.9689
-1.0687 -7.4630 -2.3870 0.9689
-1.0225 -7.4695 -2.3870 0.9689
-0.9763 -7.4756 -2.3870 0.9689
-0.7911 -7.4975 -2.3870 0.9689
-0.7447 -7.5023 -2.3870 0.9689
-0.6983 -7.5067 -2.3870 0.9689
-0.6054 -7.5148 -2.3870 0.9689
-0.5589 -7.5184 -2.3870 0.9689
-0.5124 -7.5217 -2.3870 0.9689
-0.4659 -7.5248 -2.3870 0.9689
-0.3728 -7.5300 -2.3870 0.9689
-0.3262 -7.5321 -2.3870 0.9689
-0.2797 -7.5340 -2.3870 0.9689
-0.2331 -7.5356 -2.3870 0.9689
-0.1864 -7.5369 -2.3870 0.9689
-0.0932 -7.5387 -2.3870 0.9689
-0.0466 -7.5391 -2.3870 0.9689
0.0466 -7.5391 -2.3870 0.9689
0.1399 -7.5379 -2.3870 0.9689
0.1865 -7.5370 -2.3870 0.9689
0.2797 -7.5341 -2.3870 0.9689
0.3263 -7.5322 -2.3870 0.9689
0.4660 -7.5249 -2.3870 0.9689
0.5590 -7.5185 -2.3870 0.9689
0.6520 -7.5111 -2.3870 0.9689
0.6984 -7.5069 -2.3870 0.9689
0.7448 -7.5024 -2.3870 0.9689
0.7912 -7.4977 -2.3870 0.9689
0.8839 -7.4873 -2.3870 0.9689
0.9764 -7.4759 -2.3870 0.9689
1.1610 -7.4495 -2.3870 0.9689
1.4366 -7.4013 -2.3870 0.9689
1.4823 -7.3923 -2.3871 0.9689
1.5280 -7.3830 -2.3871 0.9689
1.6647 -7.3534 -2.3871 0.9689
1.7556 -7.3322 -2.3871 0.9689
1.8913 -7.2985 -2.3871 0.9689
1.9364 -7.2866 -2.3871 0.9689
2.0264 -7.2621 -2.3871 0.9689
2.0713 -7.2495 -2.3871 0.9689
2.1160 -7.2365 -2.3871 0.9689
2.2499 -7.1961 -2.3871 0.9689
2.3388 -7.1677 -2.3871 0.9689
2.3831 -7.1531 -2.3871 0.9689
2.4713 -7.1231 -2.3871 0.9689
2.5153 -7.1077 -2.3871 0.9689
2.6031 -7.0761 -2.3871 0.9689
2.6468 -7.0598 -2.3871 0.9689
2.6904 -7.0434 -2.3871 0.9689
2.7339 -7.0266 -2.3871 0.9689
2.7773 -7.0096 -2.3871 0.9689
2.8638 -6.9747 -2.3871 0.9689
2.9927 -6.9204 -2.3872 0.9689
3.0354 -6.9018 -2.3872 0.9689
3.1206 -6.8637 -2.3872 0.9689
3.1630 -6.8443 -2.3872 0.9689
3.3313 -6.7640 -2.3872 0.9689
3.5389 -6.6578 -2.3872 0.9689
3.6618 -6.5911 -2.3872 0.9689
3.7025 -6.5683 -2.3872 0.9689
3.7431 -6.5453 -2.3872 0.9689
3.7835 -6.5221 -2.3872 0.9689
3.8238 -6.4985 -2.3872 0.9689
3.8639 -6.4748 -2.3872 0.9689
3.9437 -6.4265 -2.3872 0.9689
3.9833 -6.4020 -2.3872 0.9689
4.0229 -6.3773 -2.3873 0.9689
4.0622 -6.3523 -2.3873 0.9689
4.2181 -6.2499 -2.3873 0.9689
4.2567 -6.2237 -2.3873 0.9689
4.3715 -6.1437 -2.3873 0.9689
4.5221 -6.0338 -2.3873 0.9689
4.5594 -6.0057 -2.3873 0.9689
4.6333 -5.9488 -2.3873 0.9689
4.6700 -5.9201 -2.3873 0.9689
4.7065 -5.8911 -2.3873 0.9689
4.7790 -5.8325 -2.3873 0.9689
4.8509 -5.7729 -2.3874 0.9689
4.8521 -5.7025 -2.3706 0.9691
4.8521 -5.6315 -2.3535 0.9693
4.8003 -5.4340 -2.2956 0.9700
4.8003 -5.3004 -2.2641 0.9704
4.8003 -5.1704 -2.2338 0.9708
4.8312 -5.0763 -2.2187 0.9710
4.8624 -5.0463 -2.2187 0.9710
4.8936 -5.0162 -2.2187 0.9710
4.9553 -4.9553 -2.2187 0.9710
4.9573 -4.8963 -2.2060 0.9712
4.9573 -4.8362 -2.1927 0.9714
4.9082 -4.7294 -2.1580 0.9718
4.9573 -4.6024 -2.1417 0.9720
4.9573 -4.5456 -2.1295 0.9722
4.9573 -4.3792 -2.0942 0.9726
4.8003 -4.1879 -2.0169 0.9736
4.8521 -4.0771 -2.0066 0.9738
4.8521 -3.9259 -1.9761 0.9742
4.8521 -3.6836 -1.9288 0.9748
4.8521 -3.6365 -1.9198 0.9749
4.8521 -3.5899 -1.9110 0.9750
4.8521 -3.5437 -1.9023 0.9751
4.8521 -3.4979 -1.8938 0.9752
4.8521 -3.3187 -1.8612 0.9756
4.8521 -3.2748 -1.8534 0.9757
4.8522 -3.1029 -1.8235 0.9761
4.8522 -3.0190 -1.8093 0.9763
4.8522 -2.8955 -1.7890 0.9766
4.8522 -2.8148 -1.7760 0.9767
4.8522 -2.7351 -1.7635 0.9769
4.8522 -2.4271 -1.7177 0.9775
5.2835 -2.3237 -1.8274 0.9761
5.3735 -2.3237 -1.8535 0.9757
6.2790 -2.3984 -2.1281 0.9722
6.3183 -2.3687 -2.1364 0.9721
6.5779 -2.4198 -2.2191 0.9710
6.5928 -2.3791 -2.2191 0.9710
6.6217 -2.2974 -2.2191 0.9710
6.6816 -2.2719 -2.2344 0.9708
7.1218 -2.3238 -2.3718 0.9691
7.1816 -2.2942 -2.3870 0.9689
7.2094 -2.2052 -2.3870 0.9689
7.2361 -2.1159 -2.3869 0.9689
7.2490 -2.0711 -2.3869 0.9689
7.2861 -1.9362 -2.3869 0.9689
7.3207 -1.8007 -2.3869 0.9689
7.3424 -1.7100 -2.3869 0.9689
7.3528 -1.6646 -2.3869 0.9689
7.3629 -1.6191 -2.3869 0.9689
7.3728 -1.5735 -2.3868 0.9689
7.4006 -1.4364 -2.3868 0.9689
7.4414 -1.2069 -2.3868 0.9689
7.4624 -1.0687 -2.3868 0.9689
7.4689 -1.0225 -2.3868 0.9689
7.4865 -0.8837 -2.3867 0.9689
7.4968 -0.7911 -2.3867 0.9689
7.5015 -0.7447 -2.3867 0.9689
7.5101 -0.6519 -2.3867 0.9689
7.5209 -0.5124 -2.3867 0.9689
7.5239 -0.4659 -2.3867 0.9689
7.5266 -0.4194 -2.3867 0.9689
7.5290 -0.3728 -2.3867 0.9689
7.5312 -0.3262 -2.3867 0.9689
7.5368 -0.1398 -2.3866 0.9689
7.5375 -0.0932 -2.3866 0.9689
7.5380 -0.0466 -2.3866 0.9689
7.5379 0.0466 -2.3866 0.9689
7.5375 0.0932 -2.3866 0.9689
7.5367 0.1398 -2.3866 0.9689
7.5357 0.1864 -2.3866 0.9689
7.5328 0.2796 -2.3866 0.9689
7.5309 0.3262 -2.3866 0.9689
7.5233 0.4659 -2.3865 0.9689
7.5135 0.6054 -2.3865 0.9689
7.5054 0.6982 -2.3865 0.9689
7.4860 0.8837 -2.3866 0.9689
7.4552 1.1147 -2.3866 0.9689
7.4409 1.2068 -2.3866 0.9689
7.4254 1.2988 -2.3866 0.9689
7.4173 1.3447 -2.3867 0.9689
7.4089 1.3905 -2.3867 0.9689
7.4001 1.4363 -2.3867 0.9689
7.3911 1.4821 -2.3867 0.9689
7.3723 1.5734 -2.3867 0.9689
7.3523 1.6645 -2.3867 0.9689
7.3419 1.7099 -2.3867 0.9689
7.3202 1.8006 -2.3867 0.9689
7.2856 1.9361 -2.3867 0.9689
7.2735 1.9811 -2.3867 0.9689
6.9208 1.9311 -2.2749 0.9703
6.7590 1.9311 -2.2256 0.9709
6.7158 2.0089 -2.2194 0.9710
6.6784 2.0880 -2.2154 0.9711
5.4949 1.9829 -1.8495 0.9758
5.3903 1.9829 -1.8184 0.9762
5.0046 1.9829 -1.7044 0.9777
4.8294 1.9829 -1.6529 0.9783
4.7522 1.9857 -1.6306 0.9786
4.7522 2.0203 -1.6349 0.9786
4.7522 2.0900 -1.6437 0.9785
4.7522 2.1252 -1.6482 0.9784
4.7522 2.1606 -1.6528 0.9783
4.7522 2.2679 -1.6671 0.9781
4.7522 2.3771 -1.6823 0.9780
4.7522 2.4139 -1.6876 0.9779
4.7522 2.5259 -1.7039 0.9777
4.7522 2.5638 -1.7096 0.9776
4.7522 2.6018 -1.7153 0.9775
4.7522 2.6402 -1.7212 0.9774
4.7522 2.6787 -1.7272 0.9774
4.7522 2.7962 -1.7457 0.9771
4.7522 2.9162 -1.7653 0.9769
4.7521 2.9977 -1.7789 0.9767
4.7521 3.1224 -1.8003 0.9764
4.7521 3.2073 -1.8152 0.9762
4.7522 3.2502 -1.8228 0.9761
4.7521 3.3813 -1.8466 0.9758
4.7522 3.4258 -1.8548 0.9757
4.7521 3.5159 -1.8716 0.9755
4.7521 3.5616 -1.8802 0.9754
4.7521 3.6077 -1.8890 0.9753
4.7521 3.6542 -1.8980 0.9752
4.7521 3.7966 -1.9258 0.9748
4.7003 3.8514 -1.9239 0.9748
4.8572 4.1850 -2.0299 0.9735
4.8572 4.2376 -2.0409 0.9733
4.8572 4.3446 -2.0633 0.9730
4.8572 4.7975 -2.1615 0.9718
4.8572 4.8572 -2.1748 0.9716
4.8081 4.9899 -2.1939 0.9713
4.8325 5.0777 -2.2193 0.9710
4.7693 5.1371 -2.2193 0.9710
4.7375 5.1664 -2.2193 0.9710
4.7003 5.2550 -2.2322 0.9709
4.7003 5.3208 -2.2478 0.9707
4.7003 5.3876 -2.2637 0.9704
4.7003 5.4553 -2.2799 0.9702
4.7003 5.5240 -2.2964 0.9700
4.7521 5.6554 -2.3387 0.9695
4.7521 5.7996 -2.3739 0.9690
4.7415 5.8602 -2.3866 0.9689
4.7052 5.8894 -2.3866 0.9689
4.6319 5.9471 -2.3866 0.9689
4.5951 5.9756 -2.3866 0.9689
4.5580 6.0039 -2.3866 0.9689
4.5208 6.0320 -2.3866 0.9689
4.4458 6.0874 -2.3866 0.9689
4.3702 6.1419 -2.3866 0.9689
4.3321 6.1687 -2.3866 0.9689
4.2938 6.1954 -2.3866 0.9689
4.1002 6.3251 -2.3865 0.9689
4.0610 6.3503 -2.3865 0.9689
4.0216 6.3753 -2.3865 0.9689
3.9821 6.4000 -2.3865 0.9689
3.8626 6.4727 -2.3865 0.9689
3.7822 6.5199 -2.3865 0.9689
3.7013 6.5662 -2.3864 0.9689
3.6607 6.5891 -2.3865 0.9689
3.5789 6.6339 -2.3865 0.9689
3.4553 6.6991 -2.3865 0.9689
3.4138 6.7204 -2.3865 0.9689
3.3304 6.7621 -2.3865 0.9689
3.1622 6.8425 -2.3865 0.9689
3.1198 6.8619 -2.3866 0.9689
3.0347 6.9000 -2.3866 0.9689
2.9920 6.9187 -2.3866 0.9689
2.9491 6.9371 -2.3866 0.9689
2.9062 6.9552 -2.3866 0.9689
2.8631 6.9730 -2.3866 0.9689
2.8199 6.9906 -2.3866 0.9689
2.6025 7.0746 -2.3866 0.9689
2.5587 7.0905 -2.3866 0.9689
2.5148 7.1062 -2.3866 0.9689
2.4708 7.1217 -2.3866 0.9689
2.3826 7.1517 -2.3866 0.9689
2.3383 7.1663 -2.3867 0.9689
2.2495 7.1948 -2.3867 0.9689
2.2050 7.2086 -2.3867 0.9689
2.1604 7.2221 -2.3867 0.9689
2.1157 7.2353 -2.3867 0.9689
2.0709 7.2483 -2.3867 0.9689
2.0260 7.2610 -2.3867 0.9689
1.8006 7.3202 -2.3867 0.9689
1.5735 7.3725 -2.3868 0.9689
1.3906 7.4093 -2.3868 0.9689
1.3448 7.4177 -2.3868 0.9689
1.2530 7.4338 -2.3868 0.9689
1.2070 7.4415 -2.3868 0.9689
1.1148 7.4559 -2.3868 0.9689
1.0687 7.4627 -2.3868 0.9689
0.8375 7.4922 -2.3869 0.9689
0.7912 7.4973 -2.3869 0.9689
0.7448 7.5021 -2.3869 0.9689
0.6984 7.5066 -2.3869 0.9689
0.6520 7.5108 -2.3869 0.9689
0.6055 7.5147 -2.3869 0.9689
0.5590 7.5183 -2.3869 0.9689
0.5125 7.5216 -2.3869 0.9689
0.4194 7.5275 -2.3870 0.9689
0.3729 7.5299 -2.3870 0.9689
0.3263 7.5321 -2.3870 0.9689
0.2331 7.5356 -2.3870 0.9689
0.1865 7.5370 -2.3870 0.9689
0.1399 7.5380 -2.3870 0.9689
0.0933 7.5387 -2.3870 0.9689
0.0000 7.5394 -2.3870 0.9689
-0.1865 7.5372 -2.3871 0.9689
-0.3263 7.5325 -2.3871 0.9689
-0.3729 7.5304 -2.3871 0.9689
-0.4194 7.5279 -2.3871 0.9689
-0.4660 7.5252 -2.3871 0.9689
-0.5125 7.5222 -2.3871 0.9689
-0.6055 7.5154 -2.3871 0.9689
-0.6984 7.5074 -2.3872 0.9689
-0.7912 7.4982 -2.3872 0.9689
-0.8839 7.4879 -2.3872 0.9689
-0.9301 7.4823 -2.3872 0.9689
-0.9764 7.4765 -2.3872 0.9689
-1.0227 7.4703 -2.3872 0.9689
-1.1150 7.4571 -2.3872 0.9689
-1.1611 7.4501 -2.3873 0.9689
-1.2531 7.4353 -2.3873 0.9689
-1.2991 7.4274 -2.3873 0.9689
-1.3450 7.4193 -2.3873 0.9689
-1.4367 7.4021 -2.3873 0.9689
-1.5281 7.3838 -2.3873 0.9689
-1.5738 7.3743 -2.3873 0.9689
-1.6194 7.3644 -2.3874 0.9689
-1.6649 7.3543 -2.3874 0.9689
-1.7557 7.3332 -2.3874 0.9689
-1.8011 7.3222 -2.3874 0.9689
-1.9366 7.2877 -2.3874 0.9689
-2.0715 7.2506 -2.3874 0.9689
-2.1610 7.2245 -2.3875 0.9689
-2.2057 7.2110 -2.3875 0.9689
-2.2502 7.1972 -2.3875 0.9689
-2.2947 7.1832 -2.3875 0.9689
-2.3834 7.1543 -2.3875 0.9689
-2.4717 7.1244 -2.3875 0.9689
-2.5157 7.1090 -2.3875 0.9689
-2.5597 7.0933 -2.3876 0.9689
-2.8643 6.9761 -2.3876 0.9689
-2.9074 6.9583 -2.3876 0.9689
-3.0787 6.8844 -2.3877 0.9689
-3.1212 6.8652 -2.3877 0.9689
-3.1636 6.8458 -2.3877 0.9689
-3.2060 6.8262 -2.3877 0.9689
-3.4155 6.7239 -2.3878 0.9689
-3.4570 6.7027 -2.3878 0.9689
-3.4984 6.6812 -2.3878 0.9689
-3.5397 6.6595 -2.3878 0.9689
-3.6218 6.6152 -2.3878 0.9689
-3.6627 6.5927 -2.3878 0.9689
-3.7034 6.5700 -2.3878 0.9689
-3.7440 6.5470 -2.3878 0.9689
-3.8247 6.5003 -2.3879 0.9689
-3.8649 6.4765 -2.3879 0.9689
-3.9048 6.4525 -2.3879 0.9689
-4.0633 6.3540 -2.3879 0.9689
-4.1805 6.2777 -2.3880 0.9689
-4.2193 6.2517 -2.3880 0.9689
-4.3346 6.1724 -2.3880 0.9688
-4.4106 6.1184 -2.3880 0.9688
-4.5235 6.0356 -2.3881 0.9688
-4.6347 5.9507 -2.3881 0.9688
-4.6714 5.9220 -2.3881 0.9688
-4.7080 5.8930 -2.3881 0.9688
-4.7444 5.8638 -2.3881 0.9688
-4.9235 5.7145 -2.3882 0.9688
-4.9939 5.6532 -2.3882 0.9688
-5.0287 5.6222 -2.3882 0.9688
-5.0635 5.5910 -2.3882 0.9688
-5.0979 5.5596 -2.3882 0.9688
-5.1322 5.5280 -2.3882 0.9688
-5.1664 5.4962 -2.3882 0.9688
-5.2003 5.4641 -2.3882 0.9688
-5.2340 5.4319 -2.3882 0.9688
-5.2674 5.3994 -2.3882 0.9688
-5.3007 5.3667 -2.3882 0.9688
-5.3667 5.3007 -2.3882 0.9688
-5.4641 5.2002 -2.3882 0.9688
-5.4961 5.1663 -2.3882 0.9688
-5.5279 5.1322 -2.3882 0.9688
-5.6531 4.9939 -2.3882 0.9688
-5.7448 4.8881 -2.3882 0.9688
-5.7749 4.8525 -2.3882 0.9688
-5.8047 4.8167 -2.3882 0.9688
-5.9794 4.5979 -2.3881 0.9688
-6.0358 4.5236 -2.3881 0.9688
-6.0636 4.4862 -2.3881 0.9688
-6.1727 4.3348 -2.3881 0.9688
-6.2258 4.2581 -2.3881 0.9688
-6.2779 4.1808 -2.3881 0.9688
-6.3291 4.1028 -2.3881 0.9688
-6.4287 3.9449 -2.3880 0.9688
-6.5242 3.7847 -2.3880 0.9688
-6.5705 3.7037 -2.3880 0.9688
-6.5932 3.6630 -2.3880 0.9688
-6.6380 3.5812 -2.3880 0.9688
-6.6600 3.5400 -2.3880 0.9689
-6.6817 3.4987 -2.3880 0.9689
-6.7245 3.4158 -2.3880 0.9689
-6.7866 3.2905 -2.3880 0.9689
-6.8069 3.2484 -2.3879 0.9689
-6.8465 3.1640 -2.3879 0.9689
-6.8659 3.1216 -2.3879 0.9689
-6.8850 3.0790 -2.3879 0.9689
-6.9226 2.9936 -2.3879 0.9689
-6.9410 2.9508 -2.3879 0.9689
-6.9944 2.8215 -2.3879 0.9689
-7.0117 2.7782 -2.3879 0.9689
-7.0288 2.7347 -2.3879 0.9689
-7.0621 2.6476 -2.3879 0.9689
-7.0782 2.6038 -2.3879 0.9689
-7.1553 2.3837 -2.3878 0.9689
-7.1842 2.2950 -2.3878 0.9689
-7.1982 2.2506 -2.3878 0.9689
-7.2255 2.1614 -2.3878 0.9689
-7.2516 2.0718 -2.3878 0.9689
-7.2767 1.9820 -2.3878 0.9689
-7.2888 1.9369 -2.3878 0.9689
-7.3234 1.8014 -2.3878 0.9689
-7.3451 1.7107 -2.3878 0.9689
-7.3555 1.6652 -2.3878 0.9689
-7.3851 1.5284 -2.3877 0.9689
-7.4034 1.4370 -2.3877 0.9689
-7.4287 1.2994 -2.3877 0.9689
-7.4366 1.2534 -2.3877 0.9689
-7.4442 1.2074 -2.3877 0.9689
-7.4652 1.0691 -2.3877 0.9689
-7.4779 0.9766 -2.3877 0.9689
-7.4893 0.8841 -2.3877 0.9689
-7.4997 0.7914 -2.3876 0.9689
-7.5044 0.7450 -2.3876 0.9689
-7.5237 0.5126 -2.3876 0.9689
-7.5319 0.3729 -2.3876 0.9689
-7.5341 0.3263 -2.3876 0.9689
-7.5359 0.2797 -2.3876 0.9689
-7.5398 0.1399 -2.3876 0.9689
-7.5404 0.0933 -2.3876 0.9689
-7.5409 0.0466 -2.3876 0.9689
-7.3509 -0.0000 -2.3876 0.9696
-7.3508 -0.0455 -2.3876 0.9696
-7.3486 -0.1818 -2.3875 0.9696
-7.3458 -0.2727 -2.3875 0.9696
-7.3418 -0.3635 -2.3875 0.9696
-7.3338 -0.4997 -2.3875 0.9696
-7.3305 -0.5450 -2.3875 0.9696
-7.3270 -0.5903 -2.3875 0.9696
-7.3191 -0.6809 -2.3875 0.9696
-7.3147 -0.7262 -2.3875 0.9696
-7.3101 -0.7714 -2.3875 0.9696
-7.3000 -0.8617 -2.3875 0.9696
-7.2629 -1.1319 -2.3874 0.9696
-7.2557 -1.1768 -2.3874 0.9696
-7.2483 -1.2217 -2.3874 0.9696
-7.2326 -1.3112 -2.3874 0.9696
-7.2243 -1.3559 -2.3874 0.9696
-7.2158 -1.4006 -2.3874 0.9696
-7.1690 -1.6230 -2.3874 0.9696
-7.1588 -1.6673 -2.3874 0.9696
-7.1483 -1.7115 -2.3874 0.9696
-7.1376 -1.7557 -2.3874 0.9696
-7.1266 -1.7998 -2.3874 0.9696
-7.1038 -1.8878 -2.3874 0.9696
-7.0798 -1.9755 -2.3874 0.9696
-7.0675 -2.0192 -2.3874 0.9696
-7.0548 -2.0629 -2.3873 0.9696
-7.0016 -2.2367 -2.3873 0.9696
-6.9876 -2.2800 -2.3873 0.9696
-6.9734 -2.3231 -2.3873 0.9696
-6.9589 -2.3662 -2.3873 0.9696
-6.9290 -2.4521 -2.3873 0.9696
-6.8498 -2.6651 -2.3873 0.9696
-6.8332 -2.7074 -2.3873 0.9696
-6.8163 -2.7496 -2.3873 0.9696
-6.7992 -2.7917 -2.3873 0.9696
-6.7818 -2.8337 -2.3873 0.9696
-6.7641 -2.8756 -2.3873 0.9696
-6.7462 -2.9174 -2.3873 0.9696
-6.7280 -2.9590 -2.3873 0.9696
-6.6909 -3.0420 -2.3872 0.9696
-6.6719 -3.0833 -2.3872 0.9696
-6.6527 -3.1245 -2.3872 0.9696
-6.6136 -3.2066 -2.3872 0.9696
-6.5936 -3.2474 -2.3872 0.9696
-6.5734 -3.2881 -2.3872 0.9696
-6.5322 -3.3691 -2.3872 0.9696
-6.5112 -3.4095 -2.3872 0.9696
-6.4248 -3.5695 -2.3872 0.9696
-6.3575 -3.6880 -2.3872 0.9696
-6.3346 -3.7272 -2.3872 0.9696
-6.2880 -3.8053 -2.3872 0.9696
-6.2643 -3.8441 -2.3872 0.9696
-6.2404 -3.8828 -2.3872 0.9696
-6.2162 -3.9213 -2.3872 0.9696
-6.1919 -3.9596 -2.3872 0.9696
-6.1673 -3.9979 -2.3872 0.9696
-6.1173 -4.0738 -2.3872 0.9696
-6.0147 -4.2238 -2.3871 0.9696
-5.9884 -4.2610 -2.3871 0.9696
-5.9620 -4.2979 -2.3871 0.9696
-5.9352 -4.3347 -2.3871 0.9696
-5.9083 -4.3713 -2.3871 0.9696
-5.8812 -4.4078 -2.3871 0.9696
-5.8538 -4.4440 -2.3871 0.9696
-5.8262 -4.4801 -2.3871 0.9696
-5.7983 -4.5161 -2.3871 0.9696
-5.7420 -4.5874 -2.3871 0.9696
-5.6848 -4.6581 -2.3871 0.9696
-5.6559 -4.6932 -2.3871 0.9696
-5.6268 -4.7280 -2.3871 0.9696
-5.5679 -4.7973 -2.3871 0.9696
-5.5381 -4.8316 -2.3871 0.9696
-5.4169 -4.9671 -2.3871 0.9696
-5.3550 -5.0337 -2.3871 0.9696
-5.2288 -5.1646 -2.3871 0.9696
-5.1968 -5.1968 -2.3871 0.9696
-5.1646 -5.2288 -2.3871 0.9696
-5.1321 -5.2607 -2.3871 0.9696
-5.0666 -5.3238 -2.3871 0.9696
-5.0336 -5.3550 -2.3870 0.9696
-5.0004 -5.3860 -2.3870 0.9696
-4.9670 -5.4168 -2.3870 0.9696
-4.9334 -5.4474 -2.3870 0.9696
-4.8996 -5.4778 -2.3870 0.9696
-4.8314 -5.5380 -2.3870 0.9696
-4.7971 -5.5677 -2.3870 0.9696
-4.6930 -5.6558 -2.3870 0.9696
-4.6579 -5.6847 -2.3870 0.9696
-4.5873 -5.7419 -2.3870 0.9696
-4.5516 -5.7701 -2.3870 0.9696
-4.5159 -5.7981 -2.3870 0.9696
-4.4799 -5.8259 -2.3870 0.9696
-4.4438 -5.8536 -2.3870 0.9696
-4.4075 -5.8809 -2.3870 0.9696
-4.3711 -5.9081 -2.3870 0.9696
-4.3344 -5.9350 -2.3870 0.9696
-4.2977 -5.9617 -2.3870 0.9696
-4.2607 -5.9881 -2.3870 0.9696
-4.1489 -6.0661 -2.3870 0.9696
-4.0735 -6.1169 -2.3870 0.9696
-4.0356 -6.1420 -2.3870 0.9696
-3.9976 -6.1669 -2.3870 0.9696
-3.9593 -6.1914 -2.3870 0.9696
-3.8825 -6.2399 -2.3870 0.9696
-3.7660 -6.3109 -2.3870 0.9696
-3.7269 -6.3340 -2.3870 0.9696
-3.6088 -6.4021 -2.3870 0.9696
-3.5691 -6.4243 -2.3870 0.9696
-3.4894 -6.4679 -2.3870 0.9696
-3.4493 -6.4894 -2.3870 0.9696
-3.4091 -6.5106 -2.3870 0.9696
-3.3283 -6.5522 -2.3870 0.9696
-3.2877 -6.5727 -2.3870 0.9696
-3.2470 -6.5929 -2.3870 0.9696
-3.2062 -6.6129 -2.3870 0.9696
-3.1241 -6.6520 -2.3870 0.9696
-3.0829 -6.6712 -2.3870 0.9696
-3.0417 -6.6902 -2.3870 0.9696
-3.0002 -6.7088 -2.3870 0.9696
-2.9587 -6.7272 -2.3870 0.9696
-2.9170 -6.7454 -2.3870 0.9696
-2.8752 -6.7633 -2.3870 0.9696
-2.7913 -6.7984 -2.3870 0.9696
-2.7492 -6.8155 -2.3870 0.9696
-2.6647 -6.8490 -2.3870 0.9696
-2.6223 -6.8653 -2.3870 0.9696
-2.5372 -6.8972 -2.3870 0.9696
-2.4088 -6.9431 -2.3870 0.9696
-2.2363 -7.0005 -2.3870 0.9696
-2.0625 -7.0537 -2.3870 0.9696
-2.0188 -7.0663 -2.3870 0.9696
-1.8435 -7.1141 -2.3870 0.9696
-1.7994 -7.1254 -2.3870 0.9696
-1.7554 -7.1364 -2.3870 0.9696
-1.6227 -7.1677 -2.3870 0.9696
-1.4894 -7.1966 -2.3870 0.9696
-1.4449 -7.2057 -2.3870 0.9696
-1.2662 -7.2392 -2.3870 0.9696
-1.2214 -7.2469 -2.3870 0.9696
-1.1765 -7.2543 -2.3870 0.9696
-1.1317 -7.2615 -2.3870 0.9696
-1.0867 -7.2683 -2.3870 0.9696
-1.0418 -7.2749 -2.3870 0.9696
-0.9968 -7.2812 -2.3870 0.9696
-0.9067 -7.2930 -2.3870 0.9696
-0.8615 -7.2985 -2.3870 0.9696
-0.8164 -7.3037 -2.3870 0.9696
-0.7712 -7.3086 -2.3870 0.9696
-0.7260 -7.3132 -2.3870 0.9696
-0.5902 -7.3254 -2.3870 0.9696
-0.4996 -7.3322 -2.3870 0.9696
-0.4088 -7.3378 -2.3870 0.9696
-0.2272 -7.3457 -2.3870 0.9696
-0.1363 -7.3479 -2.3870 0.9696
-0.0909 -7.3487 -2.3870 0.9696
-0.0454 -7.3491 -2.3870 0.9696
0.0000 -7.3492 -2.3870 0.9696
0.0454 -7.3491 -2.3870 0.9696
0.0909 -7.3487 -2.3870 0.9696
0.1818 -7.3470 -2.3870 0.9696
0.2727 -7.3442 -2.3870 0.9696
0.4996 -7.3323 -2.3870 0.9696
0.6355 -7.3218 -2.3870 0.9696
0.7713 -7.3087 -2.3870 0.9696
0.9518 -7.2875 -2.3870 0.9696
1.0419 -7.2752 -2.3870 0.9696
1.0869 -7.2686 -2.3871 0.9696
1.1318 -7.2617 -2.3871 0.9696
1.1766 -7.2546 -2.3871 0.9696
1.3110 -7.2315 -2.3871 0.9696
1.4004 -7.2148 -2.3871 0.9696
1.4895 -7.1969 -2.3871 0.9696
1.5340 -7.1876 -2.3871 0.9696
1.5784 -7.1780 -2.3871 0.9696
1.6228 -7.1681 -2.3871 0.9696
1.7113 -7.1475 -2.3871 0.9696
1.7996 -7.1258 -2.3871 0.9696
1.8436 -7.1145 -2.3871 0.9696
2.0627 -7.0542 -2.3871 0.9696
2.1063 -7.0413 -2.3871 0.9696
2.1498 -7.0281 -2.3871 0.9696
2.3661 -6.9583 -2.3871 0.9696
2.4091 -6.9436 -2.3871 0.9696
2.4519 -6.9286 -2.3871 0.9696
2.5375 -6.8977 -2.3871 0.9696
2.5801 -6.8819 -2.3871 0.9696
2.6226 -6.8658 -2.3872 0.9696
2.7916 -6.7989 -2.3872 0.9696
2.8337 -6.7815 -2.3872 0.9696
2.9590 -6.7278 -2.3872 0.9696
3.0420 -6.6907 -2.3872 0.9696
3.1245 -6.6526 -2.3872 0.9696
3.1656 -6.6332 -2.3872 0.9696
3.2065 -6.6135 -2.3872 0.9696
3.3287 -6.5529 -2.3872 0.9696
3.3692 -6.5322 -2.3872 0.9696
3.4095 -6.5112 -2.3872 0.9696
3.4497 -6.4900 -2.3872 0.9696
3.4898 -6.4686 -2.3872 0.9696
3.6881 -6.3577 -2.3872 0.9696
3.7274 -6.3347 -2.3872 0.9696
3.7665 -6.3116 -2.3873 0.9696
3.8054 -6.2882 -2.3873 0.9696
3.8443 -6.2645 -2.3873 0.9696
3.8830 -6.2406 -2.3873 0.9696
3.9598 -6.1922 -2.3873 0.9696
3.9981 -6.1676 -2.3873 0.9696
4.0361 -6.1427 -2.3873 0.9696
4.1118 -6.0924 -2.3873 0.9696
4.1869 -6.0411 -2.3873 0.9696
4.2242 -6.0151 -2.3873 0.9696
4.2983 -5.9624 -2.3873 0.9696
4.3351 -5.9357 -2.3873 0.9696
4.3717 -5.9088 -2.3873 0.9696
4.4444 -5.8543 -2.3873 0.9696
4.5523 -5.7709 -2.3873 0.9696
4.6586 -5.6854 -2.3874 0.9696
4.6937 -5.6565 -2.3874 0.9696
4.7286 -5.6274 -2.3874 0.9696
4.7979 -5.5685 -2.3874 0.9696
4.8322 -5.5388 -2.3874 0.9696
4.8521 -5.4247 -2.3639 0.9699
4.8521 -5.3576 -2.3477 0.9701
4.8521 -5.2915 -2.3318 0.9703
4.8003 -5.1704 -2.2915 0.9708
4.8003 -5.1068 -2.2764 0.9710
4.8003 -5.0439 -2.2616 0.9711
4.8003 -4.9818 -2.2470 0.9713
4.8003 -4.9206 -2.2327 0.9715
4.8304 -4.8304 -2.2187 0.9717
4.8601 -4.8004 -2.2187 0.9717
4.8897 -4.7702 -2.2187 0.9717
4.9573 -4.6598 -2.2098 0.9718
4.9573 -4.6024 -2.1970 0.9720
4.9573 -4.4895 -2.1723 0.9723
4.8186 -4.1517 -2.0659 0.9736
4.8521 -4.1286 -2.0693 0.9736
4.8521 -4.0771 -2.0585 0.9737
4.8521 -4.0262 -2.0479 0.9738
4.8521 -3.7791 -1.9976 0.9745
4.8521 -3.6836 -1.9787 0.9747
4.8521 -3.6365 -1.9695 0.9748
4.8521 -3.4979 -1.9428 0.9752
4.8521 -3.3629 -1.9175 0.9755
4.8521 -3.3186 -1.9093 0.9756
4.8521 -3.2748 -1.9013 0.9757
4.8521 -3.1881 -1.8857 0.9759
4.8521 -3.1454 -1.8781 0.9760
4.8522 -3.0608 -1.8633 0.9762
4.8522 -2.9775 -1.8490 0.9763
4.8522 -2.9364 -1.8421 0.9764
4.8522 -2.8955 -1.8353 0.9765
4.8522 -2.8147 -1.8219 0.9767
4.8522 -2.7748 -1.8155 0.9768
4.8522 -2.7351 -1.8091 0.9768
4.8522 -2.6957 -1.8029 0.9769
4.8522 -2.6177 -1.7907 0.9771
4.8522 -2.5791 -1.7848 0.9772
4.8522 -2.5407 -1.7790 0.9772
4.8522 -2.5026 -1.7732 0.9773
4.8522 -2.4271 -1.7621 0.9774
4.8522 -2.3526 -1.7514 0.9776
4.8692 -2.3237 -1.7524 0.9776
5.0283 -2.3237 -1.7991 0.9770
5.1111 -2.3237 -1.8236 0.9767
5.2835 -2.3237 -1.8747 0.9760
5.3735 -2.3237 -1.9015 0.9757
5.4660 -2.3237 -1.9291 0.9753
5.6594 -2.3237 -1.9871 0.9746
5.7427 -2.2754 -2.0063 0.9744
6.2790 -2.3984 -2.1831 0.9721
6.3183 -2.3688 -2.1916 0.9720
6.4121 -2.3588 -2.2191 0.9717
6.4265 -2.3191 -2.2191 0.9717
6.4408 -2.2793 -2.2191 0.9717
6.5485 -2.2720 -2.2513 0.9713
6.6816 -2.2720 -2.2922 0.9708
6.9725 -2.3229 -2.3870 0.9696
6.9868 -2.2797 -2.3870 0.9696
7.0007 -2.2364 -2.3870 0.9696
7.0144 -2.1931 -2.3870 0.9696
7.0278 -2.1496 -2.3870 0.9696
7.0538 -2.0626 -2.3870 0.9696
7.1025 -1.8874 -2.3869 0.9696
7.1140 -1.8435 -2.3869 0.9696
7.1253 -1.7994 -2.3869 0.9696
7.1363 -1.7553 -2.3869 0.9696
7.1469 -1.7112 -2.3869 0.9696
7.1574 -1.6669 -2.3869 0.9696
7.1675 -1.6226 -2.3869 0.9696
7.1870 -1.5338 -2.3869 0.9696
7.2054 -1.4448 -2.3869 0.9696
7.2142 -1.4002 -2.3869 0.9696
7.2226 -1.3556 -2.3868 0.9696
7.2388 -1.2661 -2.3868 0.9696
7.2539 -1.1765 -2.3868 0.9696
7.2610 -1.1316 -2.3868 0.9696
7.2678 -1.0867 -2.3868 0.9696
7.2744 -1.0417 -2.3868 0.9696
7.2867 -0.9517 -2.3868 0.9696
7.2924 -0.9066 -2.3868 0.9696
7.2979 -0.8615 -2.3868 0.9696
7.3246 -0.5901 -2.3867 0.9696
7.3281 -0.5448 -2.3867 0.9696
7.3370 -0.4088 -2.3867 0.9696
7.3414 -0.3180 -2.3867 0.9696
7.3432 -0.2726 -2.3867 0.9696
7.3447 -0.2272 -2.3867 0.9696
7.3460 -0.1818 -2.3867 0.9696
7.3477 -0.0909 -2.3867 0.9696
7.3480 -0.0454 -2.3867 0.9696
7.3482 0.0000 -2.3867 0.9696
7.3480 0.0454 -2.3866 0.9696
7.3468 0.1363 -2.3866 0.9696
7.3445 0.2272 -2.3866 0.9696
7.3390 0.3634 -2.3866 0.9696
7.3366 0.4088 -2.3866 0.9696
7.3339 0.4541 -2.3866 0.9696
7.3310 0.4995 -2.3866 0.9696
7.3242 0.5901 -2.3866 0.9696
7.3120 0.7259 -2.3866 0.9696
7.3073 0.7711 -2.3866 0.9696
7.2736 1.0416 -2.3865 0.9696
7.2602 1.1315 -2.3866 0.9696
7.2531 1.1764 -2.3866 0.9696
7.2457 1.2212 -2.3866 0.9696
7.2381 1.2660 -2.3866 0.9696
7.2301 1.3107 -2.3866 0.9696
7.2046 1.4447 -2.3866 0.9696
7.1955 1.4892 -2.3866 0.9696
7.1862 1.5337 -2.3866 0.9696
7.1766 1.5781 -2.3866 0.9696
7.1132 1.8432 -2.3867 0.9696
7.1017 1.8872 -2.3867 0.9696
7.0778 1.9749 -2.3867 0.9696
6.5217 2.0391 -2.2193 0.9717
6.5090 2.0793 -2.2193 0.9717
5.6792 1.9311 -1.9483 0.9751
5.6032 1.9829 -1.9305 0.9753
5.2891 1.9829 -1.8346 0.9765
5.1912 1.9829 -1.8049 0.9769
4.7522 2.0203 -1.6772 0.9785
4.7522 2.0551 -1.6816 0.9785
4.7522 2.1252 -1.6908 0.9783
4.7522 2.1606 -1.6955 0.9783
4.7522 2.3040 -1.7153 0.9780
4.7522 2.3771 -1.7258 0.9779
4.7522 2.4139 -1.7312 0.9778
4.7522 2.5259 -1.7480 0.9776
4.7521 2.6018 -1.7597 0.9775
4.7521 2.6402 -1.7657 0.9774
4.7521 2.7567 -1.7844 0.9772
4.7522 2.8359 -1.7974 0.9770
4.7522 2.8759 -1.8041 0.9769
4.7522 2.9568 -1.8179 0.9767
4.7522 3.0805 -1.8394 0.9765
4.7521 3.1647 -1.8544 0.9763
4.7521 3.2073 -1.8621 0.9762
4.7522 3.2502 -1.8700 0.9761
4.7521 3.2936 -1.8779 0.9760
4.7521 3.3813 -1.8943 0.9758
4.7522 3.4258 -1.9027 0.9757
4.7521 3.5159 -1.9200 0.9754
4.7521 3.5616 -1.9289 0.9753
4.7521 3.7487 -1.9659 0.9749
4.7521 3.7966 -1.9756 0.9747
4.7100 3.8109 -1.9678 0.9748
4.8572 4.0304 -2.0500 0.9738
4.8572 4.1850 -2.0824 0.9734
4.8081 4.3545 -2.1069 0.9731
4.8572 4.4539 -2.1405 0.9727
4.8572 4.6227 -2.1779 0.9722
4.8572 4.6803 -2.1908 0.9720
4.8572 4.7386 -2.2040 0.9719
4.8572 4.7975 -2.2174 0.9717
4.7715 4.8910 -2.2193 0.9717
4.7106 4.9496 -2.2193 0.9717
4.7003 5.0003 -2.2290 0.9716
4.7003 5.1259 -2.2589 0.9712
4.7003 5.2550 -2.2899 0.9708
4.7521 5.4469 -2.3478 0.9701
4.7521 5.5154 -2.3646 0.9698
4.7521 5.5849 -2.3817 0.9696
4.6922 5.6547 -2.3866 0.9696
4.6219 5.7123 -2.3866 0.9696
4.4067 5.8797 -2.3865 0.9696
4.2968 5.9604 -2.3865 0.9696
4.2599 5.9869 -2.3865 0.9696
4.2228 6.0130 -2.3865 0.9696
4.0727 6.1156 -2.3865 0.9696
4.0348 6.1406 -2.3865 0.9696
3.9967 6.1654 -2.3865 0.9696
3.8430 6.2625 -2.3865 0.9696
3.6870 6.3557 -2.3865 0.9696
3.6081 6.4008 -2.3865 0.9696
3.4887 6.4667 -2.3865 0.9696
3.4085 6.5094 -2.3865 0.9696
3.3278 6.5511 -2.3866 0.9696
3.2872 6.5715 -2.3866 0.9696
3.2056 6.6117 -2.3866 0.9696
3.1648 6.6314 -2.3866 0.9696
3.0412 6.6891 -2.3866 0.9696
2.9998 6.7078 -2.3866 0.9696
2.9166 6.7444 -2.3866 0.9696
2.7489 6.8145 -2.3866 0.9696
2.7068 6.8314 -2.3866 0.9696
2.6644 6.8480 -2.3866 0.9696
2.6220 6.8644 -2.3866 0.9696
2.5369 6.8963 -2.3867 0.9696
2.4943 6.9119 -2.3867 0.9696
2.4515 6.9272 -2.3867 0.9696
2.3226 6.9715 -2.3867 0.9696
2.2794 6.9858 -2.3867 0.9696
2.1494 7.0269 -2.3867 0.9696
2.1060 7.0401 -2.3867 0.9696
2.0187 7.0656 -2.3867 0.9696
1.9312 7.0901 -2.3867 0.9696
1.8873 7.1019 -2.3867 0.9696
1.7994 7.1248 -2.3868 0.9696
1.7552 7.1358 -2.3868 0.9696
1.6226 7.1672 -2.3868 0.9696
1.5338 7.1867 -2.3868 0.9696
1.3556 7.2226 -2.3868 0.9696
1.2214 7.2465 -2.3868 0.9696
1.0868 7.2680 -2.3869 0.9696
1.0418 7.2746 -2.3869 0.9696
0.9968 7.2809 -2.3869 0.9696
0.9517 7.2870 -2.3869 0.9696
0.9067 7.2928 -2.3869 0.9696
0.8616 7.2982 -2.3869 0.9696
0.8164 7.3034 -2.3869 0.9696
0.7712 7.3084 -2.3869 0.9696
0.7260 7.3130 -2.3869 0.9696
0.6808 7.3174 -2.3869 0.9696
0.6355 7.3215 -2.3869 0.9696
0.4996 7.3321 -2.3870 0.9696
0.4542 7.3351 -2.3870 0.9696
0.4088 7.3378 -2.3870 0.9696
0.3635 7.3402 -2.3870 0.9696
0.1818 7.3470 -2.3870 0.9696
0.0455 7.3492 -2.3871 0.9696
-0.0909 7.3489 -2.3871 0.9696
-0.2272 7.3460 -2.3871 0.9696
-0.4088 7.3382 -2.3871 0.9696
-0.4996 7.3327 -2.3872 0.9696
-0.5449 7.3295 -2.3872 0.9696
-0.5902 7.3260 -2.3872 0.9696
-0.6355 7.3222 -2.3872 0.9696
-0.6808 7.3182 -2.3872 0.9696
-0.7260 7.3138 -2.3872 0.9696
-0.7713 7.3092 -2.3872 0.9696
-0.8165 7.3044 -2.3872 0.9696
-0.9067 7.2938 -2.3872 0.9696
-0.9518 7.2880 -2.3872 0.9696
-0.9969 7.2821 -2.3872 0.9696
-1.0419 7.2758 -2.3873 0.9696
-1.0869 7.2692 -2.3873 0.9696
-1.1318 7.2624 -2.3873 0.9696
-1.2664 7.2402 -2.3873 0.9696
-1.3111 7.2323 -2.3873 0.9696
-1.3558 7.2241 -2.3873 0.9696
-1.4005 7.2156 -2.3873 0.9696
-1.4451 7.2068 -2.3873 0.9696
-1.4896 7.1977 -2.3873 0.9696
-1.6229 7.1690 -2.3874 0.9696
-1.6672 7.1588 -2.3874 0.9696
-1.7115 7.1484 -2.3874 0.9696
-1.7557 7.1377 -2.3874 0.9696
-1.8878 7.1040 -2.3874 0.9696
-1.9317 7.0922 -2.3874 0.9696
-1.9755 7.0802 -2.3875 0.9696
-2.1065 7.0424 -2.3875 0.9696
-2.2802 6.9882 -2.3875 0.9696
-2.3233 6.9740 -2.3875 0.9696
-2.4094 6.9448 -2.3875 0.9696
-2.4523 6.9298 -2.3876 0.9696
-2.4952 6.9145 -2.3876 0.9696
-2.5379 6.8990 -2.3876 0.9696
-2.5805 6.8832 -2.3876 0.9696
-2.6654 6.8508 -2.3876 0.9696
-2.7500 6.8174 -2.3876 0.9696
-2.7921 6.8003 -2.3876 0.9696
-2.8761 6.7653 -2.3877 0.9696
-2.9179 6.7474 -2.3877 0.9696
-2.9595 6.7292 -2.3877 0.9696
-3.1662 6.6346 -2.3877 0.9696
-3.2072 6.6150 -2.3877 0.9696
-3.2480 6.5950 -2.3877 0.9696
-3.3294 6.5544 -2.3878 0.9696
-3.3699 6.5337 -2.3878 0.9696
-3.4906 6.4702 -2.3878 0.9696
-3.5305 6.4485 -2.3878 0.9696
-3.6100 6.4044 -2.3878 0.9696
-3.6496 6.3820 -2.3878 0.9696
-3.6890 6.3593 -2.3879 0.9696
-3.7283 6.3364 -2.3879 0.9696
-3.8064 6.2898 -2.3879 0.9696
-3.8452 6.2662 -2.3879 0.9696
-3.8839 6.2423 -2.3879 0.9696
-3.9991 6.1693 -2.3879 0.9696
-4.0372 6.1445 -2.3879 0.9696
-4.0752 6.1194 -2.3880 0.9696
-4.1506 6.0686 -2.3880 0.9696
-4.2254 6.0168 -2.3880 0.9696
-4.3363 5.9375 -2.3880 0.9696
-4.4819 5.8285 -2.3881 0.9696
-4.5179 5.8007 -2.3881 0.9696
-4.8338 5.5406 -2.3882 0.9695
-4.9020 5.4804 -2.3882 0.9695
-4.9694 5.4194 -2.3882 0.9695
-5.0028 5.3887 -2.3882 0.9695
-5.1020 5.2949 -2.3882 0.9695
-5.1346 5.2632 -2.3882 0.9695
-5.1993 5.1993 -2.3882 0.9695
-5.2314 5.1671 -2.3882 0.9695
-5.2948 5.1020 -2.3882 0.9695
-5.3263 5.0691 -2.3882 0.9695
-5.3575 5.0361 -2.3882 0.9695
-5.3886 5.0028 -2.3882 0.9695
-5.5106 4.8679 -2.3882 0.9695
-5.5406 4.8338 -2.3882 0.9695
-5.5704 4.7994 -2.3882 0.9695
-5.6293 4.7301 -2.3882 0.9695
-5.6584 4.6952 -2.3881 0.9695
-5.6873 4.6601 -2.3881 0.9695
-5.7160 4.6248 -2.3881 0.9696
-5.7445 4.5894 -2.3881 0.9696
-5.8008 4.5180 -2.3881 0.9696
-5.8286 4.4820 -2.3881 0.9696
-5.8562 4.4459 -2.3881 0.9696
-5.9107 4.3731 -2.3881 0.9696
-5.9643 4.2996 -2.3881 0.9696
-6.0688 4.1508 -2.3881 0.9696
-6.0944 4.1131 -2.3881 0.9696
-6.1197 4.0754 -2.3881 0.9696
-6.1447 4.0374 -2.3881 0.9696
-6.3824 3.6499 -2.3880 0.9696
-6.4048 3.6103 -2.3880 0.9696
-6.4270 3.5706 -2.3880 0.9696
-6.4489 3.5308 -2.3880 0.9696
-6.4707 3.4909 -2.3880 0.9696
-6.5549 3.3297 -2.3880 0.9696
-6.5754 3.2891 -2.3880 0.9696
-6.5956 3.2484 -2.3880 0.9696
-6.6928 3.0429 -2.3879 0.9696
-6.7299 2.9598 -2.3879 0.9696
-6.7480 2.9182 -2.3879 0.9696
-6.7660 2.8764 -2.3879 0.9696
-6.7836 2.8345 -2.3879 0.9696
-6.8181 2.7503 -2.3879 0.9696
-6.8350 2.7081 -2.3879 0.9696
-6.8516 2.6658 -2.3879 0.9696
-6.8840 2.5808 -2.3879 0.9696
-6.9306 2.4527 -2.3879 0.9696
-6.9604 2.3668 -2.3878 0.9696
-6.9749 2.3237 -2.3878 0.9696
-6.9891 2.2805 -2.3878 0.9696
-7.0167 2.1938 -2.3878 0.9696
-7.0302 2.1504 -2.3878 0.9696
-7.0433 2.1069 -2.3878 0.9696
-7.0562 2.0633 -2.3878 0.9696
-7.0811 1.9758 -2.3878 0.9696
-7.1050 1.8881 -2.3878 0.9696
-7.1165 1.8441 -2.3878 0.9696
-7.1800 1.5788 -2.3877 0.9696
-7.2079 1.4453 -2.3877 0.9696
-7.2167 1.4007 -2.3877 0.9696
-7.2637 1.1320 -2.3877 0.9696
-7.2705 1.0871 -2.3877 0.9696
-7.2771 1.0421 -2.3877 0.9696
-7.2834 0.9971 -2.3877 0.9696
-7.2951 0.9069 -2.3877 0.9696
-7.3152 0.7262 -2.3876 0.9696
-7.3236 0.6357 -2.3876 0.9696
-7.3309 0.5450 -2.3876 0.9696
-7.3341 0.4997 -2.3876 0.9696
-7.3370 0.4543 -2.3876 0.9696
-7.3475 0.2273 -2.3876 0.9696
-7.3504 0.0909 -2.3876 0.9696
-7.3508 0.0455 -2.3876 0.9696
-7.1694 0.0000 -2.3876 0.9702
-7.1692 -0.0443 -2.3876 0.9702
-7.1671 -0.1773 -2.3876 0.9702
-7.1625 -0.3103 -2.3875 0.9702
-7.1555 -0.4431 -2.3875 0.9702
-7.1383 -0.6641 -2.3875 0.9702
-7.1340 -0.7082 -2.3875 0.9702
-7.1295 -0.7523 -2.3875 0.9702
-7.1247 -0.7964 -2.3875 0.9702
-7.1196 -0.8404 -2.3875 0.9702
-7.1028 -0.9724 -2.3875 0.9702
-7.0902 -1.0601 -2.3875 0.9702
-7.0765 -1.1478 -2.3874 0.9702
-7.0539 -1.2788 -2.3874 0.9702
-7.0201 -1.4529 -2.3874 0.9702
-7.0110 -1.4963 -2.3874 0.9702
-7.0016 -1.5396 -2.3874 0.9702
-6.9919 -1.5829 -2.3874 0.9702
-6.9613 -1.7123 -2.3874 0.9702
-6.9283 -1.8411 -2.3874 0.9702
-6.9049 -1.9267 -2.3874 0.9702
-6.8929 -1.9693 -2.3874 0.9702
-6.8806 -2.0119 -2.3874 0.9702
-6.8680 -2.0544 -2.3874 0.9702
-6.8011 -2.2658 -2.3873 0.9702
-6.7726 -2.3497 -2.3873 0.9702
-6.7579 -2.3915 -2.3873 0.9702
-6.7429 -2.4333 -2.3873 0.9702
-6.7278 -2.4749 -2.3873 0.9702
-6.5256 -2.9669 -2.3873 0.9702
-6.4694 -3.0874 -2.3873 0.9702
-6.4502 -3.1274 -2.3872 0.9702
-6.4307 -3.1672 -2.3872 0.9702
-6.4110 -3.2069 -2.3872 0.9702
-6.3910 -3.2465 -2.3872 0.9702
-6.3504 -3.3253 -2.3872 0.9702
-6.3087 -3.4035 -2.3872 0.9702
-6.1781 -3.6352 -2.3872 0.9702
-6.1555 -3.6733 -2.3872 0.9702
-6.1326 -3.7113 -2.3872 0.9702
-6.1096 -3.7492 -2.3872 0.9702
-6.0862 -3.7869 -2.3872 0.9702
-6.0149 -3.8991 -2.3872 0.9702
-5.9166 -4.0467 -2.3872 0.9702
-5.8661 -4.1195 -2.3872 0.9702
-5.8147 -4.1918 -2.3872 0.9702
-5.7886 -4.2276 -2.3871 0.9702
-5.7092 -4.3343 -2.3871 0.9702
-5.6551 -4.4046 -2.3871 0.9702
-5.6278 -4.4394 -2.3871 0.9702
-5.6002 -4.4741 -2.3871 0.9702
-5.5724 -4.5087 -2.3871 0.9702
-5.5444 -4.5430 -2.3871 0.9702
-5.5162 -4.5772 -2.3871 0.9702
-5.4304 -4.6788 -2.3871 0.9702
-5.3720 -4.7456 -2.3871 0.9702
-5.3426 -4.7787 -2.3871 0.9702
-5.3129 -4.8117 -2.3871 0.9702
-5.2227 -4.9094 -2.3871 0.9702
-5.1616 -4.9736 -2.3871 0.9702
-5.1307 -5.0054 -2.3871 0.9702
-5.0997 -5.0370 -2.3871 0.9702
-5.0684 -5.0685 -2.3871 0.9702
-4.9735 -5.1616 -2.3871 0.9702
-4.8443 -5.2830 -2.3871 0.9702
-4.8115 -5.3129 -2.3871 0.9702
-4.7786 -5.3425 -2.3871 0.9702
-4.7121 -5.4012 -2.3871 0.9702
-4.6787 -5.4302 -2.3871 0.9702
-4.4740 -5.6000 -2.3870 0.9702
-4.4392 -5.6276 -2.3870 0.9702
-4.4043 -5.6549 -2.3870 0.9702
-4.2274 -5.7884 -2.3870 0.9702
-4.1555 -5.8402 -2.3870 0.9702
-4.1192 -5.8658 -2.3870 0.9702
-4.0829 -5.8912 -2.3870 0.9702
-4.0464 -5.9163 -2.3870 0.9702
-4.0097 -5.9412 -2.3870 0.9702
-3.9729 -5.9659 -2.3870 0.9702
-3.9360 -5.9903 -2.3870 0.9702
-3.8615 -6.0385 -2.3870 0.9702
-3.7110 -6.1322 -2.3870 0.9702
-3.6730 -6.1550 -2.3870 0.9702
-3.5582 -6.2221 -2.3870 0.9702
-3.4810 -6.2656 -2.3870 0.9702
-3.4032 -6.3082 -2.3870 0.9702
-3.3249 -6.3498 -2.3870 0.9702
-3.2856 -6.3702 -2.3870 0.9702
-3.2461 -6.3904 -2.3870 0.9702
-3.2065 -6.4104 -2.3870 0.9702
-3.1668 -6.4301 -2.3870 0.9702
-3.1270 -6.4495 -2.3870 0.9702
-3.0470 -6.4877 -2.3870 0.9702
-3.0068 -6.5064 -2.3870 0.9702
-2.9261 -6.5431 -2.3870 0.9702
-2.8042 -6.5963 -2.3870 0.9702
-2.6813 -6.6471 -2.3870 0.9702
-2.4746 -6.7269 -2.3870 0.9702
-2.3912 -6.7570 -2.3870 0.9702
-2.3074 -6.7860 -2.3870 0.9702
-2.1811 -6.8277 -2.3870 0.9702
-2.0116 -6.8795 -2.3870 0.9702
-1.9690 -6.8918 -2.3870 0.9702
-1.9263 -6.9039 -2.3870 0.9702
-1.8836 -6.9157 -2.3870 0.9702
-1.8408 -6.9272 -2.3870 0.9702
-1.6258 -6.9808 -2.3870 0.9702
-1.4960 -7.0097 -2.3870 0.9702
-1.4092 -7.0277 -2.3870 0.9702
-1.3657 -7.0363 -2.3870 0.9702
-1.3221 -7.0446 -2.3870 0.9702
-1.2349 -7.0604 -2.3870 0.9702
-1.1037 -7.0821 -2.3870 0.9702
-1.0160 -7.0953 -2.3870 0.9702
-0.9282 -7.1073 -2.3870 0.9702
-0.8403 -7.1182 -2.3870 0.9702
-0.7962 -7.1233 -2.3870 0.9702
-0.7521 -7.1281 -2.3870 0.9702
-0.6639 -7.1368 -2.3870 0.9702
-0.6198 -7.1408 -2.3870 0.9702
-0.4872 -7.1511 -2.3870 0.9702
-0.4429 -7.1540 -2.3870 0.9702
-0.3987 -7.1566 -2.3870 0.9702
-0.3102 -7.1610 -2.3870 0.9702
-0.1773 -7.1655 -2.3870 0.9702
-0.0443 -7.1676 -2.3870 0.9702
0.0000 -7.1677 -2.3870 0.9702
0.2216 -7.1643 -2.3870 0.9702
0.2659 -7.1628 -2.3870 0.9702
0.3102 -7.1610 -2.3870 0.9702
0.3545 -7.1590 -2.3870 0.9702
0.4430 -7.1541 -2.3870 0.9702
0.5315 -7.1480 -2.3870 0.9702
0.7081 -7.1328 -2.3871 0.9702
0.7522 -7.1282 -2.3871 0.9702
0.7963 -7.1235 -2.3871 0.9702
0.9283 -7.1075 -2.3871 0.9702
0.9722 -7.1016 -2.3871 0.9702
1.0161 -7.0955 -2.3871 0.9702
1.0600 -7.0890 -2.3871 0.9702
1.1476 -7.0754 -2.3871 0.9702
1.1913 -7.0682 -2.3871 0.9702
1.2350 -7.0607 -2.3871 0.9702
1.2787 -7.0529 -2.3871 0.9702
1.3222 -7.0449 -2.3871 0.9702
1.4093 -7.0280 -2.3871 0.9702
1.4527 -7.0192 -2.3871 0.9702
1.4961 -7.0101 -2.3871 0.9702
1.6259 -6.9811 -2.3871 0.9702
1.6690 -6.9709 -2.3871 0.9702
1.7121 -6.9605 -2.3871 0.9702
1.8410 -6.9275 -2.3871 0.9702
1.8838 -6.9160 -2.3871 0.9702
1.9692 -6.8922 -2.3871 0.9702
2.0118 -6.8799 -2.3871 0.9702
2.2235 -6.8145 -2.3871 0.9702
2.2656 -6.8006 -2.3871 0.9702
2.3496 -6.7721 -2.3872 0.9702
2.3914 -6.7574 -2.3872 0.9702
2.4332 -6.7425 -2.3872 0.9702
2.4748 -6.7274 -2.3872 0.9702
2.5578 -6.6962 -2.3872 0.9702
2.6404 -6.6641 -2.3872 0.9702
2.7227 -6.6310 -2.3872 0.9702
2.7636 -6.6140 -2.3872 0.9702
3.0874 -6.4693 -2.3872 0.9702
3.1274 -6.4501 -2.3872 0.9702
3.1671 -6.4307 -2.3872 0.9702
3.2069 -6.4110 -2.3872 0.9702
3.2464 -6.3910 -2.3872 0.9702
3.3253 -6.3504 -2.3872 0.9702
3.3645 -6.3297 -2.3872 0.9702
3.4036 -6.3088 -2.3872 0.9702
3.5201 -6.2446 -2.3873 0.9702
3.5970 -6.2006 -2.3873 0.9702
3.6735 -6.1557 -2.3873 0.9702
3.7115 -6.1329 -2.3873 0.9702
3.7494 -6.1098 -2.3873 0.9702
3.7870 -6.0865 -2.3873 0.9702
3.9365 -5.9910 -2.3873 0.9702
3.9735 -5.9666 -2.3873 0.9702
4.0103 -5.9419 -2.3873 0.9702
4.1198 -5.8665 -2.3873 0.9702
4.1560 -5.8409 -2.3873 0.9702
4.2637 -5.7629 -2.3873 0.9702
4.2993 -5.7364 -2.3873 0.9702
4.3346 -5.7097 -2.3873 0.9702
4.5435 -5.5450 -2.3874 0.9702
4.7129 -5.4020 -2.3874 0.9702
4.7461 -5.3727 -2.3874 0.9702
4.8123 -5.3136 -2.3874 0.9702
4.8521 -5.2262 -2.3749 0.9704
4.8521 -5.1619 -2.3593 0.9706
4.8521 -5.0983 -2.3439 0.9708
4.8003 -4.9818 -2.3039 0.9713
4.8003 -4.9205 -2.2893 0.9714
4.8003 -4.8601 -2.2749 0.9716
4.8003 -4.8003 -2.2608 0.9718
4.8003 -4.6830 -2.2333 0.9721
4.8003 -4.6254 -2.2200 0.9723
4.8261 -4.5931 -2.2187 0.9723
4.8826 -4.5330 -2.2188 0.9723
4.9383 -4.4723 -2.2188 0.9723
4.9573 -4.3792 -2.2028 0.9725
4.8003 -4.1879 -2.1215 0.9735
4.8521 -3.9259 -2.0786 0.9740
4.8521 -3.7791 -2.0482 0.9744
4.8521 -3.6836 -2.0288 0.9746
4.8521 -3.6365 -2.0193 0.9748
4.8521 -3.5899 -2.0101 0.9749
4.8521 -3.5437 -2.0009 0.9750
4.8521 -3.3186 -1.9577 0.9755
4.8521 -3.2748 -1.9495 0.9756
4.8522 -3.2312 -1.9414 0.9757
4.8521 -3.1881 -1.9335 0.9758
4.8521 -3.1454 -1.9257 0.9759
4.8522 -3.1029 -1.9180 0.9760
4.8522 -3.0190 -1.9031 0.9762
4.8522 -2.9775 -1.8959 0.9763
4.8522 -2.8955 -1.8817 0.9765
4.8522 -2.7748 -1.8615 0.9767
4.8522 -2.7351 -1.8549 0.9768
4.8522 -2.6566 -1.8422 0.9769
4.8522 -2.5791 -1.8300 0.9771
4.8522 -2.5026 -1.8182 0.9772
4.8522 -2.4647 -1.8124 0.9773
4.8522 -2.4271 -1.8068 0.9774
4.8522 -2.3525 -1.7958 0.9775
4.9477 -2.3237 -1.8204 0.9772
5.0283 -2.3237 -1.8447 0.9769
5.1110 -2.3237 -1.8698 0.9766
5.1961 -2.3237 -1.8956 0.9763
5.6594 -2.3237 -2.0374 0.9745
5.7427 -2.2754 -2.0571 0.9743
6.2098 -2.4161 -2.2190 0.9723
6.2246 -2.3777 -2.2190 0.9723
6.2392 -2.3391 -2.2190 0.9723
6.2959 -2.2720 -2.2290 0.9722
6.7862 -2.3075 -2.3871 0.9702
6.8142 -2.2234 -2.3870 0.9702
6.8278 -2.1812 -2.3870 0.9702
6.8542 -2.0966 -2.3870 0.9702
6.8919 -1.9690 -2.3870 0.9702
6.9039 -1.9264 -2.3870 0.9702
6.9156 -1.8836 -2.3870 0.9702
6.9271 -1.8408 -2.3870 0.9702
6.9384 -1.7979 -2.3870 0.9702
6.9704 -1.6689 -2.3869 0.9702
6.9806 -1.6257 -2.3869 0.9702
6.9905 -1.5826 -2.3869 0.9702
7.0002 -1.5393 -2.3869 0.9702
7.0186 -1.4526 -2.3869 0.9702
7.0274 -1.4091 -2.3869 0.9702
7.0676 -1.1912 -2.3869 0.9702
7.0747 -1.1475 -2.3868 0.9702
7.0817 -1.1037 -2.3868 0.9702
7.0884 -1.0599 -2.3868 0.9702
7.1068 -0.9282 -2.3868 0.9702
7.1123 -0.8842 -2.3868 0.9702
7.1401 -0.6197 -2.3868 0.9702
7.1472 -0.5314 -2.3868 0.9702
7.1532 -0.4429 -2.3867 0.9702
7.1581 -0.3544 -2.3867 0.9702
7.1634 -0.2216 -2.3867 0.9702
7.1655 -0.1329 -2.3867 0.9702
7.1662 -0.0886 -2.3867 0.9702
7.1666 -0.0443 -2.3867 0.9702
7.1667 0.0000 -2.3867 0.9702
7.1665 0.0443 -2.3867 0.9702
7.1662 0.0886 -2.3867 0.9702
7.1654 0.1329 -2.3867 0.9702
7.1645 0.1773 -2.3867 0.9702
7.1617 0.2659 -2.3867 0.9702
7.1599 0.3102 -2.3866 0.9702
7.1578 0.3544 -2.3866 0.9702
7.1555 0.3987 -2.3866 0.9702
7.1500 0.4871 -2.3866 0.9702
7.1468 0.5313 -2.3866 0.9702
7.1397 0.6197 -2.3866 0.9702
7.1357 0.6638 -2.3866 0.9702
7.1221 0.7961 -2.3866 0.9702
7.1060 0.9281 -2.3866 0.9702
7.0940 1.0159 -2.3866 0.9702
7.0809 1.1036 -2.3866 0.9702
7.0739 1.1473 -2.3866 0.9702
7.0432 1.3219 -2.3865 0.9702
7.0349 1.3654 -2.3865 0.9702
7.0264 1.4089 -2.3865 0.9702
7.0084 1.4957 -2.3865 0.9702
6.9990 1.5390 -2.3865 0.9702
6.9261 1.8405 -2.3866 0.9702
6.9028 1.9261 -2.3866 0.9702
6.8907 1.9687 -2.3866 0.9702
6.4556 1.9311 -2.2440 0.9720
6.3727 1.9493 -2.2193 0.9723
6.3605 1.9887 -2.2193 0.9723
6.3481 2.0279 -2.2193 0.9723
5.6032 1.9829 -1.9794 0.9753
5.4949 1.9829 -1.9454 0.9757
5.3903 1.9829 -1.9127 0.9761
5.2891 1.9829 -1.8811 0.9765
5.1912 1.9829 -1.8506 0.9768
5.0964 1.9829 -1.8212 0.9772
5.0046 1.9829 -1.7927 0.9776
4.7522 2.0203 -1.7197 0.9785
4.7522 2.0550 -1.7242 0.9784
4.7522 2.0900 -1.7289 0.9784
4.7522 2.2319 -1.7484 0.9781
4.7522 2.3041 -1.7588 0.9780
4.7522 2.3405 -1.7641 0.9779
4.7521 2.3771 -1.7695 0.9778
4.7521 2.4510 -1.7807 0.9777
4.7522 2.5259 -1.7923 0.9776
4.7522 2.5638 -1.7982 0.9775
4.7521 2.6018 -1.8043 0.9774
4.7522 2.6787 -1.8167 0.9773
4.7521 2.7176 -1.8231 0.9772
4.7521 2.9162 -1.8568 0.9768
4.7522 2.9977 -1.8711 0.9766
4.7522 3.0390 -1.8785 0.9765
4.7522 3.0805 -1.8860 0.9764
4.7521 3.1224 -1.8936 0.9763
4.7521 3.2073 -1.9093 0.9761
4.7521 3.3813 -1.9423 0.9757
4.7521 3.4706 -1.9597 0.9755
4.7521 3.5159 -1.9686 0.9754
4.7521 3.7487 -2.0157 0.9748
4.7521 3.7966 -2.0256 0.9747
4.7003 3.8514 -2.0237 0.9747
4.8572 4.0814 -2.1128 0.9736
4.8572 4.1329 -2.1239 0.9735
4.8572 4.2376 -2.1467 0.9732
4.8572 4.2908 -2.1583 0.9730
4.8572 4.3446 -2.1702 0.9729
4.8273 4.5942 -2.2193 0.9723
4.7988 4.6240 -2.2193 0.9723
4.7122 4.7122 -2.2193 0.9723
4.7003 4.7588 -2.2275 0.9722
4.7003 4.8180 -2.2416 0.9720
4.7003 4.9388 -2.2705 0.9717
4.7003 5.0004 -2.2854 0.9715
4.7003 5.0627 -2.3006 0.9713
4.7521 5.2472 -2.3576 0.9706
4.7521 5.3128 -2.3738 0.9704
4.7445 5.3708 -2.3866 0.9702
4.7112 5.4000 -2.3865 0.9702
4.6777 5.4291 -2.3865 0.9702
4.6440 5.4579 -2.3865 0.9702
4.5761 5.5148 -2.3865 0.9702
4.4730 5.5988 -2.3865 0.9702
4.4033 5.6536 -2.3865 0.9702
4.3683 5.6807 -2.3865 0.9702
4.3331 5.7076 -2.3865 0.9702
4.2977 5.7343 -2.3865 0.9702
4.1905 5.8130 -2.3864 0.9702
4.1545 5.8388 -2.3864 0.9702
4.1184 5.8645 -2.3865 0.9702
3.9352 5.9890 -2.3865 0.9702
3.8234 6.0611 -2.3865 0.9702
3.7859 6.0846 -2.3865 0.9702
3.6723 6.1538 -2.3865 0.9702
3.6342 6.1764 -2.3865 0.9702
3.5576 6.2209 -2.3866 0.9702
3.5190 6.2428 -2.3866 0.9702
3.4803 6.2645 -2.3866 0.9702
3.4416 6.2859 -2.3866 0.9702
3.4026 6.3070 -2.3866 0.9702
3.3635 6.3280 -2.3866 0.9702
3.2456 6.3893 -2.3866 0.9702
3.1265 6.4485 -2.3866 0.9702
3.0866 6.4677 -2.3866 0.9702
3.0064 6.5054 -2.3866 0.9702
2.9661 6.5239 -2.3866 0.9702
2.9257 6.5421 -2.3866 0.9702
2.8039 6.5953 -2.3866 0.9702
2.7630 6.6125 -2.3866 0.9702
2.7221 6.6295 -2.3867 0.9702
2.6811 6.6462 -2.3867 0.9702
2.5986 6.6789 -2.3867 0.9702
2.4743 6.7260 -2.3867 0.9702
2.3491 6.7708 -2.3867 0.9702
2.3072 6.7852 -2.3867 0.9702
2.2652 6.7994 -2.3867 0.9702
2.1809 6.8269 -2.3867 0.9702
2.1387 6.8403 -2.3867 0.9702
2.0539 6.8663 -2.3867 0.9702
1.9689 6.8912 -2.3868 0.9702
1.8835 6.9150 -2.3868 0.9702
1.8407 6.9265 -2.3868 0.9702
1.7978 6.9378 -2.3868 0.9702
1.7549 6.9488 -2.3868 0.9702
1.7119 6.9596 -2.3868 0.9702
1.6688 6.9701 -2.3868 0.9702
1.5825 6.9902 -2.3868 0.9702
1.4959 7.0093 -2.3868 0.9702
1.4526 7.0184 -2.3868 0.9702
1.2785 7.0523 -2.3869 0.9702
1.2349 7.0601 -2.3869 0.9702
1.1475 7.0748 -2.3869 0.9702
1.1037 7.0818 -2.3869 0.9702
1.0599 7.0885 -2.3869 0.9702
1.0160 7.0950 -2.3869 0.9702
0.9722 7.1012 -2.3869 0.9702
0.8843 7.1127 -2.3869 0.9702
0.8403 7.1180 -2.3869 0.9702
0.7962 7.1231 -2.3869 0.9702
0.7081 7.1324 -2.3870 0.9702
0.5756 7.1444 -2.3870 0.9702
0.4430 7.1539 -2.3870 0.9702
0.3987 7.1565 -2.3870 0.9702
0.3545 7.1589 -2.3870 0.9702
0.2216 7.1643 -2.3870 0.9702
0.1330 7.1666 -2.3871 0.9702
0.0444 7.1677 -2.3871 0.9702
-0.0443 7.1678 -2.3871 0.9702
-0.0886 7.1674 -2.3871 0.9702
-0.1773 7.1658 -2.3871 0.9702
-0.2216 7.1646 -2.3871 0.9702
-0.3102 7.1613 -2.3871 0.9702
-0.3545 7.1593 -2.3871 0.9702
-0.3987 7.1570 -2.3872 0.9702
-0.4430 7.1544 -2.3872 0.9702
-0.5314 7.1484 -2.3872 0.9702
-0.6640 7.1374 -2.3872 0.9702
-0.7081 7.1332 -2.3872 0.9702
-0.8403 7.1189 -2.3872 0.9702
-1.0162 7.0961 -2.3873 0.9702
-1.0600 7.0897 -2.3873 0.9702
-1.1038 7.0830 -2.3873 0.9702
-1.1477 7.0761 -2.3873 0.9702
-1.1914 7.0689 -2.3873 0.9702
-1.3224 7.0456 -2.3873 0.9702
-1.3659 7.0373 -2.3873 0.9702
-1.4094 7.0288 -2.3874 0.9702
-1.5396 7.0015 -2.3874 0.9702
-1.5828 6.9919 -2.3874 0.9702
-1.6261 6.9820 -2.3874 0.9702
-1.6692 6.9718 -2.3874 0.9702
-1.7553 6.9507 -2.3874 0.9702
-1.7983 6.9397 -2.3874 0.9702
-1.8840 6.9170 -2.3875 0.9702
-1.9267 6.9053 -2.3875 0.9702
-2.0120 6.8810 -2.3875 0.9702
-2.0545 6.8684 -2.3875 0.9702
-2.1393 6.8425 -2.3875 0.9702
-2.1816 6.8292 -2.3875 0.9702
-2.2659 6.8017 -2.3875 0.9702
-2.3080 6.7876 -2.3876 0.9702
-2.3499 6.7733 -2.3876 0.9702
-2.4335 6.7437 -2.3876 0.9702
-2.6409 6.6654 -2.3876 0.9702
-2.7232 6.6323 -2.3876 0.9702
-2.7641 6.6153 -2.3877 0.9702
-2.8458 6.5807 -2.3877 0.9702
-2.9674 6.5269 -2.3877 0.9702
-3.0479 6.4897 -2.3877 0.9702
-3.1280 6.4515 -2.3877 0.9702
-3.2866 6.3723 -2.3878 0.9702
-3.3652 6.3312 -2.3878 0.9702
-3.5208 6.2462 -2.3878 0.9702
-3.5594 6.2243 -2.3879 0.9702
-3.6362 6.1798 -2.3879 0.9702
-3.7124 6.1345 -2.3879 0.9702
-3.7880 6.0881 -2.3879 0.9702
-3.8630 6.0409 -2.3879 0.9702
-4.0846 5.8935 -2.3880 0.9702
-4.1209 5.8682 -2.3880 0.9702
-4.1932 5.8168 -2.3880 0.9702
-4.3712 5.6845 -2.3881 0.9702
-4.4062 5.6574 -2.3881 0.9702
-4.4759 5.6025 -2.3881 0.9702
-4.5105 5.5747 -2.3881 0.9702
-4.7477 5.3745 -2.3882 0.9702
-4.8138 5.3154 -2.3882 0.9702
-4.8466 5.2855 -2.3882 0.9702
-4.9116 5.2252 -2.3882 0.9702
-5.0077 5.1332 -2.3882 0.9702
-5.1021 5.0394 -2.3882 0.9702
-5.2251 4.9116 -2.3882 0.9702
-5.2854 4.8466 -2.3882 0.9702
-5.3153 4.8138 -2.3882 0.9702
-5.3744 4.7477 -2.3882 0.9702
-5.4616 4.6471 -2.3881 0.9702
-5.4902 4.6132 -2.3881 0.9702
-5.5186 4.5792 -2.3881 0.9702
-5.5468 4.5450 -2.3881 0.9702
-5.6301 4.4413 -2.3881 0.9702
-5.6846 4.3713 -2.3881 0.9702
-5.7115 4.3360 -2.3881 0.9702
-5.7382 4.3006 -2.3881 0.9702
-5.7647 4.2650 -2.3881 0.9702
-5.8428 4.1573 -2.3881 0.9702
-6.0411 3.8632 -2.3880 0.9702
-6.0649 3.8258 -2.3880 0.9702
-6.0884 3.7882 -2.3880 0.9702
-6.1347 3.7126 -2.3880 0.9702
-6.1576 3.6746 -2.3880 0.9702
-6.2025 3.5981 -2.3880 0.9702
-6.2247 3.5597 -2.3880 0.9702
-6.2896 3.4436 -2.3880 0.9702
-6.3108 3.4046 -2.3880 0.9702
-6.3317 3.3655 -2.3880 0.9702
-6.3524 3.3263 -2.3880 0.9702
-6.3728 3.2869 -2.3880 0.9702
-6.3929 3.2474 -2.3880 0.9702
-6.4129 3.2078 -2.3880 0.9702
-6.4521 3.1283 -2.3879 0.9702
-6.4713 3.0883 -2.3879 0.9702
-6.4903 3.0482 -2.3879 0.9702
-6.5090 3.0080 -2.3879 0.9702
-6.5274 2.9677 -2.3879 0.9702
-6.5456 2.9272 -2.3879 0.9702
-6.5636 2.8867 -2.3879 0.9702
-6.5813 2.8461 -2.3879 0.9702
-6.6160 2.7644 -2.3879 0.9702
-6.6823 2.5999 -2.3879 0.9702
-6.6982 2.5586 -2.3879 0.9702
-6.7293 2.4755 -2.3879 0.9702
-6.7445 2.4338 -2.3879 0.9702
-6.8565 2.0973 -2.3878 0.9702
-6.8693 2.0548 -2.3878 0.9702
-6.8819 2.0123 -2.3878 0.9702
-6.9062 1.9270 -2.3878 0.9702
-6.9295 1.8415 -2.3878 0.9702
-6.9407 1.7986 -2.3878 0.9702
-6.9517 1.7556 -2.3878 0.9702
-6.9624 1.7126 -2.3878 0.9702
-6.9830 1.6263 -2.3878 0.9702
-7.0211 1.4531 -2.3877 0.9702
-7.0299 1.4096 -2.3877 0.9702
-7.0468 1.3226 -2.3877 0.9702
-7.0548 1.2790 -2.3877 0.9702
-7.0625 1.2353 -2.3877 0.9702
-7.0700 1.1916 -2.3877 0.9702
-7.0909 1.0602 -2.3877 0.9702
-7.0973 1.0164 -2.3877 0.9702
-7.1034 0.9725 -2.3877 0.9702
-7.1093 0.9285 -2.3877 0.9702
-7.1202 0.8405 -2.3877 0.9702
-7.1252 0.7965 -2.3877 0.9702
-7.1427 0.6200 -2.3876 0.9702
-7.1463 0.5758 -2.3876 0.9702
-7.1498 0.5316 -2.3876 0.9702
-7.1558 0.4431 -2.3876 0.9702
-7.1627 0.3103 -2.3876 0.9702
-7.1645 0.2660 -2.3876 0.9702
-7.1660 0.2217 -2.3876 0.9702
-7.1681 0.1330 -2.3876 0.9702
-7.1692 0.0443 -2.3876 0.9702
-6.9956 0.0000 -2.3876 0.9709
-6.9955 -0.0433 -2.3876 0.9709
-6.9944 -0.1298 -2.3876 0.9709
-6.9908 -0.2595 -2.3875 0.9709
-6.9847 -0.3892 -2.3875 0.9709
-6.9822 -0.4323 -2.3875 0.9709
-6.9654 -0.6480 -2.3875 0.9709
-6.9612 -0.6911 -2.3875 0.9709
-6.9472 -0.8201 -2.3875 0.9709
-6.9419 -0.8630 -2.3875 0.9709
-6.9307 -0.9488 -2.3875 0.9709
-6.9247 -0.9917 -2.3875 0.9709
-6.9184 -1.0345 -2.3875 0.9709
-6.9119 -1.0772 -2.3875 0.9709
-6.8980 -1.1626 -2.3875 0.9709
-6.8752 -1.2904 -2.3874 0.9709
-6.8587 -1.3753 -2.3874 0.9709
-6.8500 -1.4177 -2.3874 0.9709
-6.8320 -1.5023 -2.3874 0.9709
-6.8128 -1.5867 -2.3874 0.9709
-6.8029 -1.6288 -2.3874 0.9709
