ply
format ascii 1.0
element vertex 1557
property float32 x
property float32 y
property float32 z
property float32 I
end_header
4.8524 -8.2468 -0.2344 0.9624
4.8524 -8.1313 -0.2319 0.9628
4.8524 -8.0182 -0.2296 0.9632
4.8524 -7.9074 -0.2273 0.9636
4.8524 -7.6923 -0.2228 0.9643
4.8524 -7.3851 -0.2165 0.9653
4.8524 -7.2865 -0.2144 0.9656
4.8524 -7.1897 -0.2125 0.9659
4.8524 -7.0947 -0.2105 0.9662
4.8524 -7.0013 -0.2087 0.9665
4.8524 -6.9097 -0.2068 0.9668
4.8524 -6.5586 -0.1998 0.9679
4.8524 -6.3917 -0.1966 0.9684
4.8524 -6.1513 -0.1919 0.9691
4.8524 -6.0737 -0.1904 0.9694
4.8265 -5.8166 -0.1851 0.9702
4.9575 -5.6825 -0.1847 0.9703
4.9575 -5.5426 -0.1821 0.9707
4.9575 -5.4740 -0.1809 0.9709
4.9085 -5.3529 -0.1779 0.9714
4.9380 -5.3188 -0.1778 0.9714
4.9575 -4.9575 -0.1717 0.9723
4.9575 -4.6601 -0.1667 0.9731
4.9575 -4.6026 -0.1657 0.9733
4.9575 -4.5459 -0.1648 0.9734
4.9575 -4.4898 -0.1638 0.9736
4.9575 -4.3794 -0.1620 0.9739
4.8524 -4.1288 -0.1561 0.9748
4.8524 -4.0773 -0.1552 0.9750
4.8524 -3.9260 -0.1529 0.9753
4.8524 -3.8766 -0.1521 0.9755
4.8524 -3.7793 -0.1507 0.9757
4.8524 -3.6838 -0.1492 0.9759
4.8524 -3.5901 -0.1479 0.9761
4.8524 -3.5438 -0.1472 0.9762
4.8524 -3.4980 -0.1465 0.9763
4.8524 -3.4526 -0.1459 0.9765
4.8524 -3.0609 -0.1405 0.9773
4.8524 -3.0191 -0.1400 0.9774
4.8524 -2.9777 -0.1395 0.9775
4.8524 -2.9365 -0.1389 0.9776
4.8524 -2.8551 -0.1379 0.9777
4.8524 -2.6567 -0.1355 0.9781
4.8524 -2.5792 -0.1346 0.9783
4.8524 -2.5408 -0.1342 0.9783
4.8524 -2.4272 -0.1329 0.9785
4.8524 -2.3898 -0.1325 0.9786
4.8524 -2.3526 -0.1321 0.9787
4.8688 -2.3236 -0.1321 0.9786
4.9473 -2.3236 -0.1339 0.9784
5.1107 -2.3236 -0.1375 0.9778
5.3731 -2.3236 -0.1434 0.9768
5.5609 -2.3235 -0.1476 0.9762
5.7430 -2.3166 -0.1517 0.9755
6.3179 -2.3686 -0.1653 0.9734
7.1426 -2.4287 -0.1848 0.9703
7.2902 -2.4287 -0.1882 0.9697
7.4080 -2.4171 -0.1909 0.9693
7.4080 -2.3665 -0.1905 0.9694
7.4269 -2.2717 -0.1902 0.9694
7.9463 -2.3235 -0.2028 0.9674
8.1327 -2.3235 -0.2072 0.9667
8.7436 -2.3235 -0.2216 0.9644
8.9666 -2.3235 -0.2269 0.9636
9.4463 -2.3235 -0.2383 0.9618
9.5181 -2.2789 -0.2397 0.9616
10.7280 -2.4287 -0.2694 0.9569
11.0448 -2.4287 -0.2770 0.9558
11.5875 -2.3235 -0.2895 0.9538
11.9710 -2.3235 -0.2987 0.9524
12.7219 -2.3877 -0.3171 0.9495
48.2681 -8.7505 -1.2016 0.8218
51.7289 -8.3899 -1.2836 0.8108
53.8333 -8.3899 -1.3346 0.8041
40.9589 -5.3494 -1.0118 0.8477
40.9507 -5.0909 -1.0108 0.8478
40.9338 -4.5755 -1.0089 0.8481
40.9432 -4.0645 -1.0078 0.8482
40.9392 -3.8086 -1.0071 0.8483
40.9345 -3.5529 -1.0065 0.8484
40.9318 -3.2978 -1.0059 0.8485
40.9209 -3.0423 -1.0051 0.8486
40.9231 -2.7881 -1.0047 0.8486
40.9187 -2.5337 -1.0042 0.8487
40.9568 -1.7741 -1.0042 0.8487
48.2680 -1.1942 -1.1827 0.8243
49.7158 -0.9224 -1.2180 0.8196
48.2680 -0.2985 -1.1823 0.8244
48.2680 0.0000 -1.1823 0.8244
49.7158 0.3075 -1.2178 0.8196
49.7158 0.6150 -1.2179 0.8196
48.2680 0.8956 -1.1825 0.8243
49.7158 1.2301 -1.2182 0.8196
49.7158 1.5378 -1.2184 0.8195
49.7158 1.8456 -1.2186 0.8195
41.6034 1.8021 -1.0200 0.8465
41.6167 2.0606 -1.0206 0.8464
41.6256 2.3192 -1.0212 0.8464
40.3369 2.4977 -0.9899 0.8507
41.6401 2.8370 -1.0223 0.8462
41.6421 3.0960 -1.0228 0.8461
40.3183 3.2484 -0.9908 0.8506
50.1084 4.3493 -1.2320 0.8177
49.7158 4.9354 -1.2238 0.8188
49.7158 5.2461 -1.2245 0.8187
49.7308 5.5589 -1.2257 0.8185
49.7158 6.8061 -1.2291 0.8181
49.7158 7.4336 -1.2313 0.8178
49.7158 7.7482 -1.2325 0.8176
11.0831 2.0093 -0.2759 0.9559
10.5853 2.0546 -0.2641 0.9578
10.4139 2.0882 -0.2602 0.9584
9.4181 1.9492 -0.2356 0.9622
9.2918 1.9831 -0.2327 0.9627
8.2825 1.9830 -0.2086 0.9665
8.0620 1.9830 -0.2034 0.9673
7.8523 1.9830 -0.1984 0.9681
7.6526 1.9830 -0.1936 0.9689
7.3080 1.9905 -0.1855 0.9701
6.8102 2.0372 -0.1741 0.9720
6.5366 2.0882 -0.1681 0.9729
6.1792 2.0586 -0.1595 0.9743
5.6036 1.9830 -0.1456 0.9765
5.3906 1.9830 -0.1407 0.9773
4.9159 1.9830 -0.1298 0.9790
4.8296 1.9830 -0.1279 0.9793
4.7523 1.9857 -0.1262 0.9796
4.7524 2.0901 -0.1272 0.9794
4.7523 2.1607 -0.1279 0.9793
4.7523 2.4512 -0.1310 0.9788
4.7523 2.4885 -0.1314 0.9788
4.7523 2.5639 -0.1323 0.9786
4.7524 2.6020 -0.1327 0.9786
4.7523 2.7963 -0.1351 0.9782
4.7523 2.8760 -0.1361 0.9780
4.7523 3.0391 -0.1382 0.9777
4.7523 3.0807 -0.1387 0.9776
4.7523 3.2074 -0.1404 0.9773
4.7523 3.2504 -0.1410 0.9772
4.7523 3.4259 -0.1435 0.9768
4.7523 3.6079 -0.1462 0.9764
4.7523 3.6544 -0.1468 0.9763
4.7523 3.7014 -0.1475 0.9762
4.7005 3.8516 -0.1489 0.9760
4.8575 4.1331 -0.1562 0.9748
4.8575 4.4542 -0.1614 0.9740
4.8575 4.5098 -0.1624 0.9738
4.8575 4.6805 -0.1652 0.9734
4.8575 4.7388 -0.1662 0.9732
4.8575 4.7978 -0.1672 0.9731
4.8575 4.8575 -0.1683 0.9729
4.8575 4.9180 -0.1693 0.9727
4.8084 4.9903 -0.1697 0.9727
4.8575 5.1040 -0.1726 0.9722
4.8575 5.1676 -0.1737 0.9720
4.8575 5.4307 -0.1785 0.9713
4.7523 5.6557 -0.1810 0.9709
4.7523 5.7999 -0.1837 0.9704
4.7523 5.8736 -0.1851 0.9702
4.7523 5.9485 -0.1865 0.9700
4.7523 6.1017 -0.1894 0.9695
4.7523 6.1802 -0.1910 0.9693
4.7523 6.2599 -0.1925 0.9690
4.7523 6.3410 -0.1941 0.9688
4.7523 6.6790 -0.2008 0.9677
4.7523 6.7672 -0.2026 0.9675
4.7523 6.8570 -0.2044 0.9672
4.7523 7.0414 -0.2081 0.9666
4.7523 7.1362 -0.2100 0.9663
4.7523 7.3312 -0.2140 0.9656
4.7523 7.4315 -0.2161 0.9653
4.7523 7.6380 -0.2203 0.9646
4.7523 7.8529 -0.2248 0.9639
4.7523 7.9637 -0.2272 0.9636
4.7523 8.0767 -0.2295 0.9632
4.7523 8.1922 -0.2320 0.9628
4.7523 8.3102 -0.2345 0.9624
4.7523 8.5540 -0.2397 0.9616
4.7523 8.6800 -0.2424 0.9612
4.8574 10.0186 -0.2727 0.9564
4.8574 10.1785 -0.2763 0.9559
4.8574 10.3425 -0.2799 0.9553
4.8084 10.4048 -0.2808 0.9552
4.8574 10.6840 -0.2875 0.9541
4.8574 10.8618 -0.2914 0.9535
4.7877 10.8859 -0.2913 0.9535
4.7076 10.8859 -0.2905 0.9537
4.7523 11.1786 -0.2975 0.9526
4.7523 11.3734 -0.3019 0.9519
4.7523 11.9942 -0.3160 0.9497
4.7672 12.9592 -0.3382 0.9462
4.7523 13.9761 -0.3616 0.9426
4.7523 14.5646 -0.3753 0.9405
4.7239 14.7872 -0.3802 0.9398
4.5958 15.0248 -0.3849 0.9391
4.4943 15.0248 -0.3841 0.9392
4.3933 15.0248 -0.3834 0.9393
4.2926 15.0248 -0.3828 0.9394
4.1923 15.0248 -0.3821 0.9395
4.0923 15.0248 -0.3814 0.9396
3.9927 15.0248 -0.3808 0.9397
3.6957 15.0248 -0.3790 0.9400
3.4871 14.9730 -0.3766 0.9403
3.3896 14.9730 -0.3760 0.9404
3.0988 14.9730 -0.3745 0.9407
3.0023 14.9730 -0.3741 0.9407
2.9062 14.9730 -0.3736 0.9408
2.8102 14.9730 -0.3732 0.9409
2.7144 14.9730 -0.3727 0.9409
2.1442 14.9730 -0.3705 0.9413
1.7736 15.0248 -0.3706 0.9413
1.6794 15.0248 -0.3703 0.9413
1.3041 15.0248 -0.3694 0.9414
1.1170 15.0247 -0.3690 0.9415
1.0237 15.0248 -0.3689 0.9415
0.8371 15.0247 -0.3686 0.9416
0.7439 15.0248 -0.3685 0.9416
0.6508 15.0248 -0.3684 0.9416
0.4647 15.0248 -0.3682 0.9416
0.1858 15.0247 -0.3681 0.9417
-0.0929 15.0248 -0.3680 0.9417
-0.3718 15.0247 -0.3681 0.9416
-0.4647 15.0247 -0.3682 0.9416
-0.8371 15.0247 -0.3686 0.9416
-0.9304 15.0247 -0.3687 0.9415
-1.0237 15.0247 -0.3689 0.9415
-1.2105 15.0247 -0.3692 0.9415
-1.3978 15.0247 -0.3696 0.9414
-1.4916 15.0247 -0.3698 0.9414
-1.5854 15.0247 -0.3701 0.9413
-1.6795 15.0247 -0.3703 0.9413
-1.7736 15.0247 -0.3706 0.9413
-1.8643 14.9958 -0.3701 0.9413
-2.0498 14.9729 -0.3702 0.9413
-2.1442 14.9729 -0.3705 0.9413
-2.5236 14.9729 -0.3719 0.9411
-2.6189 14.9729 -0.3723 0.9410
-3.3897 14.9729 -0.3760 0.9404
-3.6864 14.9868 -0.3780 0.9401
-3.7848 14.9868 -0.3786 0.9400
-3.8836 14.9868 -0.3792 0.9399
-3.9826 14.9868 -0.3798 0.9398
-4.1818 14.9868 -0.3811 0.9396
-4.2776 14.9722 -0.3814 0.9396
-4.3671 14.9350 -0.3811 0.9396
-4.4675 14.9350 -0.3818 0.9395
-4.6696 14.9350 -0.3833 0.9393
-4.8731 14.9350 -0.3848 0.9391
-4.9755 14.9350 -0.3856 0.9390
-5.0783 14.9350 -0.3864 0.9388
-5.1816 14.9350 -0.3872 0.9387
-5.3895 14.9350 -0.3889 0.9384
-5.4941 14.9350 -0.3898 0.9383
-5.5992 14.9350 -0.3907 0.9382
-5.7048 14.9350 -0.3916 0.9380
-6.0246 14.9350 -0.3945 0.9376
-6.1535 14.9868 -0.3968 0.9372
-6.7022 14.9868 -0.4021 0.9364
-6.8137 14.9868 -0.4033 0.9363
-7.0387 14.9868 -0.4056 0.9359
-7.1521 14.9868 -0.4068 0.9357
-7.2662 14.9868 -0.4080 0.9355
-7.3811 14.9868 -0.4092 0.9353
-7.6128 14.9868 -0.4117 0.9350
-8.1505 14.8866 -0.4157 0.9343
-8.3914 14.8866 -0.4186 0.9339
-8.7593 14.8866 -0.4231 0.9332
-8.8836 14.8866 -0.4246 0.9330
-9.1352 14.8866 -0.4278 0.9325
-9.2624 14.8866 -0.4295 0.9323
-9.3906 14.8866 -0.4311 0.9320
-9.5198 14.8866 -0.4328 0.9317
-9.6500 14.8866 -0.4346 0.9315
-9.7813 14.8866 -0.4363 0.9312
-10.1817 14.8866 -0.4418 0.9304
-10.3174 14.8866 -0.4437 0.9301
-10.5923 14.8866 -0.4475 0.9295
-10.7316 14.8866 -0.4495 0.9292
-10.8721 14.8866 -0.4515 0.9289
-11.1570 14.8866 -0.4557 0.9283
-11.4473 14.8866 -0.4600 0.9276
-11.5945 14.8866 -0.4622 0.9273
-11.7431 14.8866 -0.4644 0.9269
-12.1979 14.8866 -0.4714 0.9259
-12.3525 14.8866 -0.4738 0.9255
-12.5929 14.9867 -0.4795 0.9247
-12.6137 14.8244 -0.4768 0.9251
-12.6137 14.2790 -0.4667 0.9266
-12.6137 14.1022 -0.4635 0.9271
-12.6137 13.9279 -0.4603 0.9276
-12.6137 13.5863 -0.4541 0.9285
-12.6137 13.2538 -0.4482 0.9294
-12.6137 13.0907 -0.4453 0.9298
-12.6137 12.7707 -0.4397 0.9307
-12.6137 12.4587 -0.4343 0.9315
-12.6137 12.0046 -0.4265 0.9327
-12.7139 11.5143 -0.4202 0.9337
-12.7139 11.0920 -0.4133 0.9347
-12.7139 10.9542 -0.4111 0.9351
-12.7139 10.8179 -0.4089 0.9354
-12.7139 10.6831 -0.4068 0.9357
-12.6621 10.2449 -0.3990 0.9369
-12.6621 10.1160 -0.3970 0.9372
-12.6621 9.9883 -0.3950 0.9375
-12.6621 9.8619 -0.3931 0.9378
-12.6621 9.7367 -0.3913 0.9381
-12.6621 9.4898 -0.3876 0.9386
-12.6621 9.2475 -0.3841 0.9392
-12.6621 9.1279 -0.3823 0.9395
-12.6621 8.8921 -0.3790 0.9400
-12.6621 8.7756 -0.3774 0.9402
-12.7139 8.4667 -0.3742 0.9407
-12.7139 8.1304 -0.3697 0.9414
-12.7139 8.0200 -0.3682 0.9416
-12.7139 7.6941 -0.3640 0.9423
-12.7139 7.3754 -0.3600 0.9429
-12.7139 6.8590 -0.3539 0.9438
-12.7138 6.7579 -0.3527 0.9440
-12.7138 6.5575 -0.3504 0.9444
-12.7138 6.4583 -0.3493 0.9445
-12.7138 6.3596 -0.3482 0.9447
-12.7138 5.9712 -0.3441 0.9453
-12.7138 5.8755 -0.3431 0.9455
-12.7138 5.7803 -0.3421 0.9457
-12.7138 5.4050 -0.3384 0.9462
-12.7138 5.2203 -0.3367 0.9465
-12.7138 5.1286 -0.3358 0.9466
-12.7138 5.0374 -0.3350 0.9468
-12.8190 4.7157 -0.3346 0.9468
-12.8190 4.6259 -0.3338 0.9469
-12.8190 4.4475 -0.3324 0.9472
-12.7699 4.3422 -0.3304 0.9475
-12.8190 4.1827 -0.3303 0.9475
-12.8190 4.0080 -0.3290 0.9477
-12.7699 3.7340 -0.3259 0.9482
-12.8190 3.5769 -0.3260 0.9481
-12.8190 3.4916 -0.3254 0.9482
-12.8190 3.4066 -0.3249 0.9483
-12.7138 3.1273 -0.3207 0.9490
-12.7138 3.0440 -0.3202 0.9490
-12.7138 2.8783 -0.3193 0.9492
-12.7138 2.7134 -0.3184 0.9493
-12.7138 2.6313 -0.3180 0.9494
-12.7138 2.5494 -0.3176 0.9494
-12.7138 2.4677 -0.3172 0.9495
-12.7138 2.3049 -0.3165 0.9496
-12.7138 2.0621 -0.3155 0.9498
-12.7138 1.8207 -0.3146 0.9499
-12.7138 1.7405 -0.3143 0.9500
-12.7138 1.6605 -0.3141 0.9500
-12.7138 1.5806 -0.3138 0.9500
-12.7138 1.4211 -0.3134 0.9501
-13.5051 1.3407 -0.3324 0.9471
-13.8544 1.2889 -0.3408 0.9458
-14.8493 1.2889 -0.3651 0.9421
-16.6400 1.3407 -0.4089 0.9354
-18.2072 1.2405 -0.4470 0.9296
-62.0154 3.8400 -1.5220 0.7799
-60.5160 2.2465 -1.4834 0.7848
-60.2695 1.4912 -1.4767 0.7857
-60.7118 1.1265 -1.4874 0.7843
-60.7194 0.7510 -1.4874 0.7843
-60.7271 0.3755 -1.4875 0.7843
-12.7138 -0.3146 -0.4060 0.9504
-12.7138 -0.5507 -0.4063 0.9503
-12.7138 -0.6295 -0.4064 0.9503
-12.7138 -0.7083 -0.4065 0.9503
-12.7138 -0.8662 -0.4068 0.9503
-12.7138 -0.9452 -0.4070 0.9503
-12.7138 -1.0243 -0.4072 0.9502
-12.7138 -1.1035 -0.4074 0.9502
-12.7138 -1.3415 -0.4081 0.9501
-12.7138 -1.4211 -0.4084 0.9501
-12.7138 -1.5008 -0.4087 0.9501
-12.7138 -1.5805 -0.4090 0.9500
-12.7138 -1.6604 -0.4093 0.9500
-12.6620 -1.9733 -0.4091 0.9500
-12.6620 -2.0536 -0.4095 0.9500
-12.6620 -2.1341 -0.4099 0.9499
-12.6620 -2.2147 -0.4104 0.9499
-12.6620 -2.2955 -0.4108 0.9498
-12.6620 -2.5390 -0.4123 0.9496
-12.6620 -2.7023 -0.4133 0.9495
-12.6620 -2.9489 -0.4151 0.9493
-12.6620 -3.1977 -0.4169 0.9491
-12.6620 -3.2811 -0.4176 0.9490
-12.6620 -3.3648 -0.4183 0.9489
-12.6620 -3.4488 -0.4190 0.9488
-12.6620 -3.5330 -0.4197 0.9488
-12.7138 -3.7176 -0.4229 0.9484
-12.7119 -3.8025 -0.4236 0.9483
-12.6637 -3.9594 -0.4236 0.9483
-12.6136 -4.2021 -0.4245 0.9482
-12.6136 -4.4638 -0.4272 0.9479
-12.6136 -4.8180 -0.4311 0.9474
-12.6136 -4.9076 -0.4321 0.9473
-12.6136 -4.9977 -0.4332 0.9471
-12.6136 -5.0881 -0.4342 0.9470
-12.6136 -5.1791 -0.4353 0.9469
-12.6136 -5.3623 -0.4376 0.9466
-12.6136 -5.7347 -0.4424 0.9461
-12.6136 -5.9241 -0.4449 0.9458
-12.6136 -6.3095 -0.4503 0.9451
-12.6136 -6.7045 -0.4560 0.9444
-12.6136 -6.8049 -0.4576 0.9443
-12.6136 -6.9059 -0.4591 0.9441
-12.6136 -7.0077 -0.4607 0.9439
-12.6136 -7.4218 -0.4672 0.9431
-12.6136 -7.5272 -0.4689 0.9429
-12.6136 -7.6334 -0.4707 0.9427
-12.6136 -7.7403 -0.4725 0.9425
-12.6136 -7.8481 -0.4743 0.9423
-12.6136 -7.9568 -0.4761 0.9421
-12.6136 -8.1766 -0.4799 0.9416
-12.6136 -8.2878 -0.4818 0.9414
-12.7138 -8.8115 -0.4938 0.9400
-12.7138 -9.0463 -0.4982 0.9395
-12.7138 -9.2852 -0.5026 0.9389
-12.7138 -9.6519 -0.5096 0.9381
-12.7138 -9.7765 -0.5120 0.9378
-12.7138 -10.0291 -0.5170 0.9372
-12.7138 -10.2867 -0.5221 0.9366
-12.7138 -10.4175 -0.5247 0.9363
-12.7138 -10.5496 -0.5274 0.9360
-12.7138 -10.6830 -0.5302 0.9357
-14.2776 -12.3015 -0.6017 0.9274
-14.1003 -12.3014 -0.5974 0.9278
-13.9255 -12.3015 -0.5932 0.9283
-13.5831 -12.3014 -0.5851 0.9293
-13.4154 -12.3014 -0.5811 0.9297
-13.2500 -12.3014 -0.5772 0.9302
-13.0867 -12.3014 -0.5734 0.9306
-12.9256 -12.3015 -0.5697 0.9311
-12.7138 -12.5575 -0.5705 0.9310
-12.7138 -12.8720 -0.5776 0.9302
-12.7138 -13.3589 -0.5888 0.9289
-12.7138 -13.6941 -0.5966 0.9279
-12.7138 -14.0384 -0.6047 0.9270
-12.7138 -14.5729 -0.6174 0.9255
-12.7138 -14.7561 -0.6218 0.9250
-12.7138 -14.9420 -0.6263 0.9245
-12.7138 -15.3220 -0.6356 0.9234
-12.7138 -15.9137 -0.6503 0.9217
-12.7138 -16.7469 -0.6713 0.9193
-12.7138 -16.9637 -0.6768 0.9187
-12.7138 -17.6362 -0.6941 0.9167
-12.7138 -17.8681 -0.7001 0.9160
-12.7138 -18.1041 -0.7063 0.9153
-12.7138 -19.3496 -0.7392 0.9115
-12.7138 -19.6128 -0.7462 0.9107
-11.1394 -17.4191 -0.6601 0.9206
-10.9882 -17.4191 -0.6575 0.9209
-10.8382 -17.4191 -0.6550 0.9212
-10.6893 -17.4191 -0.6525 0.9215
-10.5416 -17.4191 -0.6500 0.9217
-10.1049 -17.4191 -0.6429 0.9226
-9.9614 -17.4191 -0.6406 0.9228
-9.8190 -17.4191 -0.6384 0.9231
-9.5370 -17.4191 -0.6340 0.9236
-9.3975 -17.4191 -0.6319 0.9238
-9.2588 -17.4191 -0.6298 0.9241
-8.4456 -17.4191 -0.6180 0.9255
-8.3129 -17.4191 -0.6162 0.9257
-7.9196 -17.4191 -0.6109 0.9263
-7.4053 -17.4191 -0.6043 0.9270
-7.1522 -17.4191 -0.6012 0.9274
-6.7774 -17.4191 -0.5967 0.9279
-6.1644 -17.4191 -0.5899 0.9287
-5.9230 -17.4191 -0.5874 0.9290
-5.8031 -17.4191 -0.5862 0.9292
-5.4462 -17.4191 -0.5827 0.9296
-5.3282 -17.4191 -0.5815 0.9297
-5.2106 -17.4191 -0.5805 0.9298
-5.0935 -17.4191 -0.5794 0.9299
-4.8604 -17.4191 -0.5774 0.9302
-4.7445 -17.4191 -0.5764 0.9303
-4.5138 -17.4191 -0.5745 0.9305
-4.3991 -17.4191 -0.5736 0.9306
-4.2846 -17.4191 -0.5727 0.9307
-4.0569 -17.4191 -0.5710 0.9309
-3.9434 -17.4191 -0.5702 0.9310
-3.8304 -17.4191 -0.5694 0.9311
-3.7176 -17.4191 -0.5686 0.9312
-3.2693 -17.4191 -0.5658 0.9315
-2.9359 -17.4191 -0.5640 0.9317
-2.8252 -17.4191 -0.5634 0.9318
-2.7148 -17.4191 -0.5628 0.9319
-2.6045 -17.4191 -0.5623 0.9319
-2.4945 -17.4191 -0.5618 0.9320
-2.2750 -17.4191 -0.5608 0.9321
-2.1655 -17.4191 -0.5604 0.9322
-2.0562 -17.4191 -0.5600 0.9322
-1.9471 -17.4191 -0.5596 0.9323
-1.8381 -17.4191 -0.5592 0.9323
-1.7292 -17.4191 -0.5588 0.9323
-1.5119 -17.4191 -0.5582 0.9324
-1.2951 -17.4191 -0.5576 0.9325
-1.0786 -17.4191 -0.5572 0.9325
-0.9705 -17.4191 -0.5570 0.9326
-0.8625 -17.4191 -0.5568 0.9326
-0.7546 -17.4191 -0.5566 0.9326
-0.6466 -17.4191 -0.5565 0.9326
-0.4310 -17.4191 -0.5563 0.9326
-0.2154 -17.4191 -0.5562 0.9327
0.2154 -17.4191 -0.5562 0.9327
0.3232 -17.4191 -0.5562 0.9327
0.4310 -17.4191 -0.5563 0.9326
0.5388 -17.4191 -0.5564 0.9326
1.1868 -17.4191 -0.5574 0.9325
1.4034 -17.4191 -0.5579 0.9325
1.7292 -17.4191 -0.5588 0.9323
1.8381 -17.4191 -0.5592 0.9323
2.0562 -17.4191 -0.5600 0.9322
2.2750 -17.4190 -0.5608 0.9321
2.3846 -17.4191 -0.5613 0.9321
2.4945 -17.4190 -0.5618 0.9320
2.6045 -17.4191 -0.5623 0.9319
2.8252 -17.4190 -0.5634 0.9318
2.9359 -17.4190 -0.5640 0.9317
3.1579 -17.4190 -0.5652 0.9316
3.2693 -17.4190 -0.5658 0.9315
3.3810 -17.4190 -0.5665 0.9315
3.4929 -17.4190 -0.5672 0.9314
3.8304 -17.4190 -0.5694 0.9311
3.9434 -17.4190 -0.5702 0.9310
4.2846 -17.4190 -0.5727 0.9307
4.3991 -17.4190 -0.5736 0.9306
4.5138 -17.4190 -0.5745 0.9305
4.8524 -17.3905 -0.5764 0.9303
4.8524 -16.5948 -0.5520 0.9331
4.8524 -15.8638 -0.5296 0.9358
4.8524 -15.5200 -0.5191 0.9370
4.8524 -15.1895 -0.5091 0.9382
4.7522 -14.2648 -0.4800 0.9416
4.7522 -13.4287 -0.4548 0.9446
4.7522 -13.1691 -0.4470 0.9455
4.7522 -12.9184 -0.4394 0.9464
4.7560 -12.4512 -0.4255 0.9481
4.8331 -12.4219 -0.4255 0.9481
4.8524 -12.2469 -0.4206 0.9486
4.8524 -12.0292 -0.4141 0.9494
4.8524 -11.8180 -0.4079 0.9502
4.8006 -11.1011 -0.3861 0.9527
4.8006 -10.5589 -0.3703 0.9546
4.8006 -10.3879 -0.3653 0.9552
4.8006 -10.0593 -0.3558 0.9564
4.8006 -9.5971 -0.3426 0.9580
4.8524 -8.9944 -0.3263 0.9599
4.8524 -8.8628 -0.3226 0.9604
4.8524 -8.7341 -0.3190 0.9608
4.8524 -8.6083 -0.3155 0.9612
4.8524 -8.4852 -0.3121 0.9616
4.8524 -8.3647 -0.3087 0.9620
4.8524 -8.2468 -0.3055 0.9624
4.8524 -8.1313 -0.3023 0.9628
4.8524 -7.7988 -0.2932 0.9639
4.8524 -7.4855 -0.2848 0.9649
4.8524 -7.3851 -0.2821 0.9653
4.8524 -7.2865 -0.2795 0.9656
4.8524 -6.9097 -0.2696 0.9668
4.8524 -6.5586 -0.2605 0.9679
4.8524 -6.4744 -0.2583 0.9681
4.8524 -6.3917 -0.2562 0.9684
4.8524 -6.3103 -0.2541 0.9686
4.8524 -6.1513 -0.2501 0.9691
4.8524 -6.0737 -0.2482 0.9694
4.8524 -5.9972 -0.2463 0.9696
4.8006 -5.8588 -0.2418 0.9701
4.9492 -5.8166 -0.2438 0.9699
4.9575 -5.7539 -0.2425 0.9701
4.9575 -5.2740 -0.2311 0.9714
4.9575 -5.0817 -0.2266 0.9720
4.9575 -5.0192 -0.2252 0.9722
4.9575 -4.9575 -0.2238 0.9723
4.9575 -4.8364 -0.2211 0.9727
4.9575 -4.6600 -0.2172 0.9731
4.9575 -4.5459 -0.2147 0.9734
4.9575 -4.4897 -0.2135 0.9736
4.9575 -4.4343 -0.2123 0.9737
4.9575 -4.3794 -0.2112 0.9739
4.8006 -4.1881 -0.2034 0.9748
4.8185 -4.1516 -0.2031 0.9749
4.8524 -4.1287 -0.2034 0.9748
4.8524 -4.0263 -0.2013 0.9751
4.8524 -3.9260 -0.1993 0.9753
4.8524 -3.8766 -0.1983 0.9755
4.8524 -3.8277 -0.1973 0.9756
4.8524 -3.7793 -0.1964 0.9757
4.8524 -3.7313 -0.1954 0.9758
4.8524 -3.6838 -0.1945 0.9759
4.8524 -3.6367 -0.1936 0.9760
4.8524 -3.5900 -0.1927 0.9761
4.8524 -3.4980 -0.1910 0.9763
4.8524 -3.3630 -0.1885 0.9766
4.8524 -3.3188 -0.1877 0.9767
4.8524 -3.2314 -0.1861 0.9769
4.8524 -3.1883 -0.1854 0.9770
4.8524 -3.1455 -0.1846 0.9771
4.8524 -3.1030 -0.1839 0.9772
4.8524 -3.0609 -0.1832 0.9773
4.8524 -2.9777 -0.1818 0.9775
4.8524 -2.8957 -0.1804 0.9776
4.8524 -2.8551 -0.1797 0.9777
4.8524 -2.8149 -0.1791 0.9778
4.8524 -2.6178 -0.1760 0.9782
4.8524 -2.5792 -0.1754 0.9782
4.8524 -2.3898 -0.1727 0.9786
4.8689 -2.3236 -0.1722 0.9786
4.9473 -2.3235 -0.1745 0.9784
5.0279 -2.3235 -0.1768 0.9781
5.1107 -2.3235 -0.1792 0.9778
5.1957 -2.3236 -0.1817 0.9775
5.3731 -2.3235 -0.1869 0.9768
5.5609 -2.3236 -0.1924 0.9762
5.6590 -2.3236 -0.1953 0.9758
5.7430 -2.3166 -0.1977 0.9755
6.2422 -2.4287 -0.2138 0.9736
6.2793 -2.3985 -0.2146 0.9735
6.3179 -2.3686 -0.2154 0.9734
6.6021 -2.4287 -0.2246 0.9722
6.7303 -2.4287 -0.2284 0.9718
6.8629 -2.4287 -0.2324 0.9713
6.9102 -2.3975 -0.2335 0.9712
7.4080 -2.4171 -0.2488 0.9693
7.4080 -2.3666 -0.2483 0.9694
7.4269 -2.2717 -0.2480 0.9694
7.7677 -2.3235 -0.2588 0.9681
7.9463 -2.3235 -0.2643 0.9674
8.3273 -2.3235 -0.2760 0.9660
8.7436 -2.3235 -0.2888 0.9644
9.4463 -2.3235 -0.3106 0.9618
10.3558 -2.4118 -0.3395 0.9583
10.3707 -2.3478 -0.3395 0.9583
10.3853 -2.2836 -0.3395 0.9583
11.5875 -2.3235 -0.3773 0.9538
11.9710 -2.3235 -0.3893 0.9524
48.2436 -8.4383 -1.5636 0.8220
49.7792 -8.3900 -1.6116 0.8171
40.8713 -4.8246 -1.3139 0.8481
40.8708 -4.5684 -1.3129 0.8482
40.8690 -4.3125 -1.3120 0.8483
40.8620 -4.0564 -1.3110 0.8485
40.8563 -3.8009 -1.3100 0.8486
40.8521 -3.5458 -1.3091 0.8487
40.8417 -2.0222 -1.3055 0.8490
41.9142 -1.5559 -1.3390 0.8455
49.7158 -1.5377 -1.5880 0.8195
48.2680 -1.1942 -1.5414 0.8243
48.2680 -0.2985 -1.5410 0.8243
48.2680 0.0000 -1.5410 0.8243
49.7158 1.2301 -1.5877 0.8195
40.3700 1.4987 -1.2897 0.8507
40.4963 1.7542 -1.2941 0.8503
41.6909 2.3229 -1.3331 0.8461
40.9035 3.0411 -1.3095 0.8486
41.6707 3.3574 -1.3347 0.8459
47.6092 4.4291 -1.5265 0.8258
49.7157 4.9354 -1.5950 0.8188
49.7157 5.2461 -1.5960 0.8187
49.7196 5.5576 -1.5972 0.8186
49.7195 5.8691 -1.5983 0.8184
49.6833 6.1766 -1.5984 0.8184
49.7157 6.4931 -1.6007 0.8182
49.7157 7.1196 -1.6034 0.8179
12.6220 2.0472 -0.4082 0.9501
11.7657 1.9831 -0.3809 0.9534
11.0413 1.9313 -0.3579 0.9561
10.4609 1.9634 -0.3398 0.9583
9.4181 1.9492 -0.3070 0.9622
9.2917 1.9831 -0.3033 0.9627
8.5146 1.9830 -0.2791 0.9656
8.0620 1.9830 -0.2651 0.9673
7.3080 1.9421 -0.2414 0.9702
7.3080 2.0391 -0.2422 0.9701
7.3080 2.0879 -0.2426 0.9700
7.1413 2.0882 -0.2375 0.9707
6.8102 2.0372 -0.2269 0.9720
5.4953 1.9830 -0.1865 0.9769
5.2894 1.9830 -0.1803 0.9776
5.1915 1.9830 -0.1774 0.9780
5.0049 1.9830 -0.1719 0.9787
4.9159 1.9830 -0.1692 0.9790
4.8296 1.9830 -0.1667 0.9793
4.7524 1.9857 -0.1644 0.9796
4.7523 2.0204 -0.1649 0.9795
4.7524 2.0552 -0.1653 0.9795
4.7524 2.1607 -0.1667 0.9793
4.7523 2.2320 -0.1676 0.9792
4.7523 2.3042 -0.1686 0.9791
4.7524 2.4141 -0.1702 0.9789
4.7523 2.4512 -0.1707 0.9788
4.7523 2.6019 -0.1730 0.9786
4.7523 2.6403 -0.1736 0.9785
4.7523 2.6789 -0.1742 0.9784
4.7523 2.7569 -0.1754 0.9783
4.7523 2.8360 -0.1767 0.9781
4.7523 2.9163 -0.1780 0.9779
4.7524 2.9569 -0.1787 0.9778
4.7523 2.9979 -0.1794 0.9778
4.7523 3.0391 -0.1801 0.9777
4.7523 3.2074 -0.1830 0.9773
4.7523 3.2504 -0.1838 0.9772
4.7523 3.2937 -0.1846 0.9771
4.7523 3.3374 -0.1854 0.9770
4.7523 3.3815 -0.1862 0.9769
4.7523 3.4259 -0.1870 0.9768
4.7523 3.4708 -0.1879 0.9767
4.7523 3.5618 -0.1896 0.9765
4.7523 3.6079 -0.1905 0.9764
4.7523 3.6544 -0.1914 0.9763
4.7523 3.7014 -0.1923 0.9762
4.7523 3.7488 -0.1932 0.9761
4.7102 3.8110 -0.1934 0.9760
4.7005 3.8516 -0.1940 0.9760
4.8575 4.0306 -0.2015 0.9751
4.8575 4.2378 -0.2058 0.9745
4.8575 4.2910 -0.2069 0.9744
4.8575 4.3448 -0.2081 0.9743
4.8084 4.3547 -0.2071 0.9744
4.8575 4.5660 -0.2128 0.9737
4.8575 4.6229 -0.2141 0.9735
4.8575 4.7388 -0.2166 0.9732
4.8575 4.7978 -0.2180 0.9730
4.8575 4.9180 -0.2207 0.9727
4.8566 4.9783 -0.2220 0.9726
4.8084 4.9903 -0.2212 0.9726
4.8575 5.1676 -0.2264 0.9720
4.8575 5.2321 -0.2279 0.9718
4.8575 5.2974 -0.2295 0.9716
4.8374 5.4761 -0.2333 0.9712
4.7775 5.4761 -0.2320 0.9713
4.7181 5.4761 -0.2308 0.9715
4.7005 5.5243 -0.2316 0.9714
4.7523 5.6557 -0.2358 0.9709
4.7523 5.9485 -0.2431 0.9700
4.7523 6.0245 -0.2450 0.9698
4.7523 6.1017 -0.2469 0.9695
4.7523 6.1802 -0.2489 0.9693
4.7523 6.2599 -0.2509 0.9690
4.7523 6.4233 -0.2551 0.9685
4.7523 6.5071 -0.2572 0.9683
4.7523 6.5923 -0.2594 0.9680
4.7523 6.7672 -0.2640 0.9674
4.7523 6.8570 -0.2663 0.9672
4.7523 6.9484 -0.2688 0.9669
4.7523 7.0414 -0.2712 0.9666
4.7523 7.1362 -0.2737 0.9663
4.7523 7.3312 -0.2789 0.9656
4.7523 7.4315 -0.2816 0.9653
4.7523 7.6380 -0.2872 0.9646
4.7523 8.0767 -0.2992 0.9632
4.7523 8.1922 -0.3024 0.9628
4.7523 8.5540 -0.3124 0.9616
4.7523 8.6800 -0.3159 0.9612
4.7523 8.8089 -0.3195 0.9607
4.7523 8.9408 -0.3233 0.9603
4.7523 9.0758 -0.3271 0.9598
4.7005 9.2535 -0.3313 0.9593
4.7005 9.5441 -0.3396 0.9583
4.7005 10.1713 -0.3577 0.9561
4.7005 10.3387 -0.3626 0.9556
4.7005 10.5108 -0.3676 0.9550
4.7004 10.8696 -0.3781 0.9537
4.7522 11.1786 -0.3878 0.9526
4.7522 11.3734 -0.3935 0.9519
4.7522 11.9942 -0.4119 0.9497
4.7522 12.4413 -0.4252 0.9481
4.6521 12.6462 -0.4302 0.9475
4.6521 13.4088 -0.4531 0.9448
4.6521 13.9642 -0.4699 0.9428
4.6521 14.2576 -0.4788 0.9417
4.5958 15.0248 -0.5016 0.9391
4.1923 15.0248 -0.4980 0.9395
4.0923 15.0248 -0.4971 0.9396
3.9927 15.0248 -0.4963 0.9397
3.8934 15.0248 -0.4955 0.9398
3.7944 15.0248 -0.4947 0.9399
3.6957 15.0248 -0.4940 0.9400
3.5973 15.0248 -0.4932 0.9400
3.4992 15.0248 -0.4925 0.9401
3.4014 15.0248 -0.4918 0.9402
3.1852 14.9246 -0.4872 0.9408
3.0888 14.9246 -0.4866 0.9408
2.9927 14.9246 -0.4860 0.9409
2.8968 14.9246 -0.4854 0.9410
2.8011 14.9246 -0.4848 0.9410
2.7057 14.9246 -0.4842 0.9411
1.9492 14.9246 -0.4805 0.9415
1.7618 14.9246 -0.4798 0.9416
1.6683 14.9246 -0.4794 0.9417
1.5749 14.9246 -0.4791 0.9417
1.4816 14.9246 -0.4788 0.9417
1.3884 14.9246 -0.4785 0.9418
1.2025 14.9246 -0.4780 0.9418
1.0168 14.9246 -0.4776 0.9419
0.9242 14.9246 -0.4774 0.9419
0.6465 14.9246 -0.4769 0.9420
0.5540 14.9246 -0.4768 0.9420
0.3693 14.9246 -0.4766 0.9420
-0.0000 14.9246 -0.4765 0.9420
-0.1846 14.9246 -0.4765 0.9420
-0.3693 14.9246 -0.4766 0.9420
-0.6465 14.9246 -0.4769 0.9420
-0.7390 14.9246 -0.4771 0.9420
-0.8315 14.9246 -0.4772 0.9419
-0.9241 14.9246 -0.4774 0.9419
-1.1096 14.9246 -0.4778 0.9419
-1.2954 14.9246 -0.4783 0.9418
-1.4816 14.9246 -0.4788 0.9417
-1.5748 14.9246 -0.4791 0.9417
-1.8554 14.9246 -0.4801 0.9416
-1.9492 14.9246 -0.4805 0.9415
-2.0432 14.9246 -0.4809 0.9415
-2.1373 14.9246 -0.4813 0.9414
-2.2316 14.9246 -0.4818 0.9414
-2.3260 14.9246 -0.4822 0.9413
-2.4206 14.9246 -0.4827 0.9413
-2.5154 14.9246 -0.4832 0.9412
-2.6105 14.9246 -0.4837 0.9412
-2.8012 14.9246 -0.4848 0.9410
-2.9927 14.9246 -0.4860 0.9409
-3.3928 14.9868 -0.4906 0.9404
-3.4904 14.9868 -0.4913 0.9403
-3.5882 14.9868 -0.4920 0.9402
-3.9826 14.9868 -0.4951 0.9398
-4.1818 14.9868 -0.4967 0.9396
-4.2818 14.9868 -0.4976 0.9395
-4.4830 14.9868 -0.4994 0.9393
-4.8900 14.9868 -0.5033 0.9389
-4.9928 14.9868 -0.5043 0.9387
-5.3037 14.9868 -0.5075 0.9384
-5.4082 14.9868 -0.5087 0.9382
-5.5131 14.9868 -0.5098 0.9381
-5.6186 14.9868 -0.5110 0.9380
-5.7246 14.9868 -0.5122 0.9378
-5.8310 14.9868 -0.5134 0.9377
-5.9380 14.9868 -0.5146 0.9375
-6.3712 14.9868 -0.5199 0.9369
-6.4810 14.9868 -0.5213 0.9367
-6.5913 14.9868 -0.5227 0.9366
-6.8137 14.9868 -0.5256 0.9362
-6.9259 14.9868 -0.5271 0.9361
-7.1521 14.9868 -0.5301 0.9357
-7.3811 14.9868 -0.5333 0.9353
-7.6128 14.9868 -0.5366 0.9349
-7.7298 14.9868 -0.5383 0.9347
-7.9660 14.9868 -0.5418 0.9343
-8.0852 14.9868 -0.5436 0.9341
-8.2053 14.9868 -0.5455 0.9339
-8.8182 14.9868 -0.5551 0.9328
-9.3247 14.9868 -0.5635 0.9318
-10.1147 14.9868 -0.5772 0.9302
-10.2502 14.9868 -0.5797 0.9299
-10.6636 14.9868 -0.5872 0.9290
-10.8038 14.9868 -0.5898 0.9287
-10.9453 14.9868 -0.5925 0.9284
-11.2321 14.9868 -0.5979 0.9278
-11.6725 14.9868 -0.6065 0.9268
-11.9732 14.9868 -0.6124 0.9261
-12.2799 14.9868 -0.6186 0.9254
-12.4356 14.9868 -0.6217 0.9250
-12.7140 14.9422 -0.6263 0.9245
-12.7140 14.5731 -0.6174 0.9255
-12.7140 14.2143 -0.6088 0.9265
-12.7140 14.0386 -0.6047 0.9270
-12.7139 13.8653 -0.6006 0.9275
-12.7139 13.5256 -0.5926 0.9284
-12.7139 13.3591 -0.5888 0.9289
-12.7139 13.1947 -0.5850 0.9293
-12.7139 13.0324 -0.5813 0.9297
-12.7139 12.8722 -0.5776 0.9302
-12.7139 12.7140 -0.5740 0.9306
-12.7139 12.5576 -0.5705 0.9310
-12.7139 12.4033 -0.5671 0.9314
-12.7139 12.1000 -0.5603 0.9322
-12.7139 11.9510 -0.5571 0.9326
-12.7139 11.8038 -0.5539 0.9329
-12.7139 11.6582 -0.5507 0.9333
-12.7139 11.5143 -0.5476 0.9337
-12.7139 11.0920 -0.5387 0.9347
-12.7139 10.9542 -0.5358 0.9350
-12.7139 10.6831 -0.5302 0.9357
-12.7139 10.2868 -0.5221 0.9366
-12.7139 10.0292 -0.5170 0.9372
-12.7139 9.9023 -0.5145 0.9375
-12.7139 9.7766 -0.5120 0.9378
-12.7139 9.5287 -0.5072 0.9384
-12.7139 9.4064 -0.5049 0.9387
-12.7139 9.0464 -0.4982 0.9395
-12.7139 8.9284 -0.4960 0.9397
-12.7139 8.6956 -0.4918 0.9402
-12.7139 8.5807 -0.4897 0.9405
-12.6137 8.2879 -0.4818 0.9414
-12.6137 7.9569 -0.4761 0.9421
-12.6137 7.8482 -0.4743 0.9423
-12.6137 7.7404 -0.4725 0.9425
-12.6137 7.5273 -0.4689 0.9429
-12.6137 7.4219 -0.4672 0.9431
-12.6137 7.1102 -0.4623 0.9437
-12.6137 6.9060 -0.4591 0.9441
-12.6137 6.8050 -0.4576 0.9443
-12.6137 6.7046 -0.4560 0.9444
-12.6137 6.6049 -0.4546 0.9446
-12.6137 6.5058 -0.4531 0.9448
-12.6137 6.3095 -0.4503 0.9451
-12.6137 6.2123 -0.4489 0.9453
-12.6137 6.1157 -0.4475 0.9454
-12.6137 6.0196 -0.4462 0.9456
-12.6137 5.9241 -0.4449 0.9458
-12.6137 5.8292 -0.4436 0.9459
-12.6137 5.6409 -0.4411 0.9462
-12.6137 5.5476 -0.4399 0.9463
-12.6137 5.3624 -0.4376 0.9466
-12.6137 5.1791 -0.4353 0.9469
-12.6137 5.0882 -0.4342 0.9470
-12.6137 4.9977 -0.4332 0.9471
-12.6137 4.9077 -0.4321 0.9473
-12.6137 4.8181 -0.4311 0.9474
-12.6137 4.6401 -0.4291 0.9476
-12.6137 4.5518 -0.4281 0.9477
-12.6137 4.4638 -0.4272 0.9479
-12.6567 4.0434 -0.4242 0.9482
-12.6620 3.9589 -0.4235 0.9483
-12.6620 3.8731 -0.4227 0.9484
-12.6620 3.7876 -0.4219 0.9485
-12.6620 3.7025 -0.4212 0.9486
-12.6620 3.4488 -0.4190 0.9488
-12.6620 3.2812 -0.4176 0.9490
-12.6620 3.1977 -0.4169 0.9491
-12.7138 3.1273 -0.4180 0.9490
-12.7138 2.6313 -0.4145 0.9494
-12.7138 2.4677 -0.4135 0.9495
-12.7138 2.3862 -0.4130 0.9495
-12.7138 2.3049 -0.4125 0.9496
-12.7138 2.2238 -0.4121 0.9497
-12.7138 2.1429 -0.4116 0.9497
-12.7138 2.0621 -0.4112 0.9498
-12.7138 1.9815 -0.4108 0.9498
-12.7138 1.9010 -0.4104 0.9499
-12.7138 1.7405 -0.4097 0.9499
-12.7138 1.6605 -0.4093 0.9500
-12.7138 1.5806 -0.4090 0.9500
-12.7138 1.5008 -0.4087 0.9501
-13.2130 1.3117 -0.4239 0.9482
-13.3345 1.2405 -0.4275 0.9478
-60.5161 2.2465 -1.9333 0.7848
-60.2695 1.4912 -1.9247 0.7856
-60.7119 1.1265 -1.9386 0.7843
-60.7271 0.3755 -1.9388 0.7842
-38.8647 0.0000 -1.5297 0.8559
-14.4302 -0.0892 -0.5680 0.9439
-12.7139 -0.2359 -0.5005 0.9504
-12.7138 -0.3146 -0.5006 0.9504
-12.7139 -0.3932 -0.5006 0.9504
-12.7139 -0.7083 -0.5012 0.9503
-12.7139 -0.7873 -0.5014 0.9503
-12.7138 -0.8662 -0.5016 0.9503
-12.7138 -0.9452 -0.5018 0.9502
-12.7138 -1.0243 -0.5020 0.9502
-12.7138 -1.3416 -0.5032 0.9501
-12.7138 -1.4211 -0.5035 0.9501
-12.7138 -1.5008 -0.5039 0.9500
-12.7138 -1.9814 -0.5064 0.9498
-12.7138 -2.1428 -0.5075 0.9497
-12.7138 -2.2238 -0.5080 0.9496
-12.7138 -2.3862 -0.5091 0.9495
-12.7138 -2.6313 -0.5110 0.9494
-12.7138 -2.7134 -0.5117 0.9493
-12.7138 -2.8782 -0.5131 0.9492
-12.7138 -3.0440 -0.5146 0.9490
-12.7138 -3.1273 -0.5153 0.9489
-12.7138 -3.2945 -0.5169 0.9488
-12.7138 -3.3786 -0.5178 0.9487
-12.7138 -3.4629 -0.5186 0.9486
-12.7138 -3.5475 -0.5195 0.9485
-12.7138 -3.6324 -0.5204 0.9484
-12.7138 -3.8889 -0.5233 0.9482
-12.7138 -4.2355 -0.5274 0.9478
-12.7138 -4.4110 -0.5297 0.9476
-12.7138 -4.4992 -0.5308 0.9474
-12.7138 -4.9466 -0.5370 0.9469
-12.7138 -5.0374 -0.5383 0.9467
-12.7138 -5.2202 -0.5409 0.9465
-12.7138 -5.4049 -0.5438 0.9462
-12.7138 -5.4980 -0.5452 0.9461
-12.7138 -5.6857 -0.5482 0.9458
-12.7138 -5.8754 -0.5513 0.9455
-12.7138 -5.9711 -0.5528 0.9453
-12.7138 -6.1642 -0.5561 0.9450
-12.7138 -6.3596 -0.5595 0.9447
-12.7138 -6.7578 -0.5667 0.9440
-12.7138 -6.8590 -0.5686 0.9438
-12.7138 -6.9608 -0.5705 0.9436
-12.7138 -7.3753 -0.5785 0.9429
-12.7138 -7.6940 -0.5849 0.9422
-12.7138 -7.9105 -0.5894 0.9418
-12.7138 -8.0200 -0.5917 0.9416
-12.7138 -8.2416 -0.5964 0.9412
-12.7138 -8.4667 -0.6012 0.9407
-12.7138 -8.5806 -0.6037 0.9404
-12.7138 -8.6956 -0.6063 0.9402
-12.7138 -8.8115 -0.6088 0.9400
-12.7138 -9.1652 -0.6169 0.9392
-12.7138 -9.2853 -0.6197 0.9389
-12.7138 -9.5286 -0.6254 0.9384
-12.7138 -9.6520 -0.6283 0.9381
-12.7138 -9.7765 -0.6313 0.9378
-12.7138 -10.0291 -0.6374 0.9372
-12.7138 -10.1573 -0.6405 0.9369
-12.7138 -10.4175 -0.6469 0.9363
-12.7138 -10.5496 -0.6502 0.9360
-12.7138 -10.8179 -0.6570 0.9354
-14.2776 -12.3015 -0.7418 0.9273
-14.1003 -12.3015 -0.7365 0.9278
-13.4154 -12.3015 -0.7164 0.9297
-13.0868 -12.3015 -0.7069 0.9306
-12.7666 -12.3014 -0.6978 0.9315
-12.7138 -12.4031 -0.6991 0.9314
-12.7138 -12.7138 -0.7077 0.9306
-12.7138 -13.1945 -0.7212 0.9293
-12.7138 -13.5254 -0.7306 0.9284
-12.7138 -13.6941 -0.7355 0.9279
-12.7138 -14.3922 -0.7558 0.9260
-12.7138 -14.9420 -0.7722 0.9245
-12.7138 -15.1306 -0.7779 0.9239
-12.7138 -15.3220 -0.7836 0.9234
-12.7138 -15.7134 -0.7956 0.9223
-12.7138 -16.5336 -0.8209 0.9199
-12.7138 -16.7469 -0.8276 0.9193
-12.7138 -16.9637 -0.8344 0.9186
-12.7138 -17.4083 -0.8485 0.9173
-12.7138 -17.6363 -0.8557 0.9166
-12.7138 -18.3443 -0.8785 0.9145
-12.7138 -18.8378 -0.8945 0.9130
-12.7138 -19.3497 -0.9113 0.9115
-10.9882 -17.4191 -0.8106 0.9209
-10.6893 -17.4191 -0.8044 0.9214
-10.5416 -17.4191 -0.8014 0.9217
-10.3950 -17.4191 -0.7984 0.9220
-9.9614 -17.4191 -0.7898 0.9228
-9.6775 -17.4191 -0.7843 0.9233
-9.3975 -17.4191 -0.7790 0.9238
-9.2589 -17.4191 -0.7764 0.9241
-8.9843 -17.4191 -0.7714 0.9245
-8.8484 -17.4191 -0.7690 0.9248
-8.5790 -17.4191 -0.7643 0.9252
-8.4456 -17.4191 -0.7619 0.9254
-7.7900 -17.4191 -0.7510 0.9265
-7.6611 -17.4191 -0.7490 0.9267
-7.0267 -17.4191 -0.7393 0.9276
-6.9017 -17.4191 -0.7375 0.9277
-6.6537 -17.4191 -0.7339 0.9281
-6.5305 -17.4191 -0.7322 0.9282
-6.4079 -17.4191 -0.7305 0.9284
-6.1644 -17.4191 -0.7273 0.9287
-5.6837 -17.4191 -0.7212 0.9293
-5.5647 -17.4191 -0.7197 0.9294
-5.2106 -17.4191 -0.7156 0.9298
-5.0935 -17.4191 -0.7143 0.9299
-4.9767 -17.4191 -0.7130 0.9300
-4.6290 -17.4191 -0.7094 0.9304
-4.5138 -17.4191 -0.7083 0.9305
-4.0569 -17.4191 -0.7040 0.9309
-3.4929 -17.4191 -0.6993 0.9314
-3.3810 -17.4191 -0.6984 0.9314
-3.2693 -17.4191 -0.6976 0.9315
-3.0468 -17.4191 -0.6960 0.9317
-2.7148 -17.4191 -0.6939 0.9319
-2.4945 -17.4191 -0.6926 0.9320
-2.3847 -17.4191 -0.6920 0.9320
-2.2750 -17.4191 -0.6914 0.9321
-2.1655 -17.4191 -0.6909 0.9321
-2.0562 -17.4191 -0.6904 0.9322
-1.8381 -17.4191 -0.6894 0.9323
-1.4034 -17.4191 -0.6878 0.9324
-1.1868 -17.4191 -0.6872 0.9325
-0.9705 -17.4191 -0.6867 0.9325
-0.5388 -17.4191 -0.6859 0.9326
-0.4310 -17.4191 -0.6858 0.9326
-0.2155 -17.4191 -0.6857 0.9326
-0.1077 -17.4191 -0.6856 0.9326
0.0000 -17.4191 -0.6856 0.9326
0.1077 -17.4191 -0.6856 0.9326
0.3232 -17.4191 -0.6857 0.9326
0.5388 -17.4191 -0.6859 0.9326
0.8625 -17.4191 -0.6864 0.9326
0.9705 -17.4191 -0.6867 0.9325
1.5119 -17.4191 -0.6882 0.9324
1.7293 -17.4191 -0.6890 0.9323
2.0562 -17.4190 -0.6904 0.9322
2.1655 -17.4191 -0.6909 0.9321
2.3846 -17.4191 -0.6920 0.9320
2.8252 -17.4191 -0.6946 0.9318
2.9359 -17.4191 -0.6953 0.9317
3.2693 -17.4191 -0.6976 0.9315
3.4929 -17.4191 -0.6993 0.9314
3.8303 -17.4191 -0.7020 0.9311
4.2846 -17.4191 -0.7060 0.9307
4.3990 -17.4191 -0.7071 0.9306
4.7445 -17.4191 -0.7106 0.9303
4.8524 -16.9840 -0.6952 0.9317
4.8524 -15.8637 -0.6529 0.9357
4.8524 -14.2706 -0.5933 0.9414
4.8524 -13.9862 -0.5827 0.9425
4.8524 -13.7118 -0.5725 0.9434
4.8524 -12.9431 -0.5441 0.9462
4.8524 -12.7036 -0.5352 0.9470
4.8524 -12.4716 -0.5267 0.9478
4.8524 -12.0292 -0.5105 0.9494
4.7522 -11.1784 -0.4781 0.9525
4.7522 -10.9892 -0.4712 0.9532
4.7522 -10.4525 -0.4519 0.9551
4.7522 -10.2833 -0.4459 0.9557
4.7522 -10.1185 -0.4400 0.9562
4.7522 -9.9579 -0.4343 0.9568
4.7522 -9.8015 -0.4287 0.9573
4.7790 -9.7034 -0.4257 0.9576
4.8524 -9.4080 -0.4166 0.9585
4.8524 -8.9944 -0.4022 0.9599
4.8524 -8.8628 -0.3977 0.9604
4.8524 -8.7341 -0.3933 0.9608
4.8524 -8.6083 -0.3889 0.9612
4.8524 -8.4852 -0.3847 0.9616
4.8524 -8.3647 -0.3806 0.9620
4.8524 -8.2468 -0.3766 0.9624
4.8524 -8.1313 -0.3727 0.9628
4.8524 -7.7988 -0.3615 0.9639
4.8524 -7.6923 -0.3580 0.9642
4.8524 -7.3850 -0.3478 0.9652
4.8524 -7.1896 -0.3414 0.9659
4.8524 -7.0013 -0.3353 0.9665
4.8524 -6.9097 -0.3323 0.9668
4.8524 -6.8196 -0.3294 0.9671
4.8524 -6.6441 -0.3238 0.9676
4.8524 -6.4744 -0.3185 0.9681
4.8524 -6.3917 -0.3159 0.9684
4.8524 -6.2301 -0.3108 0.9689
4.8524 -6.1513 -0.3084 0.9691
4.8524 -6.0737 -0.3060 0.9694
4.8524 -5.9972 -0.3036 0.9696
4.8006 -5.8587 -0.2981 0.9701
4.9575 -5.7539 -0.2989 0.9701
4.9575 -5.6824 -0.2968 0.9703
4.9575 -5.6120 -0.2947 0.9705
4.9575 -5.4740 -0.2907 0.9709
4.9084 -5.3529 -0.2859 0.9713
4.9380 -5.3188 -0.2857 0.9714
4.9575 -5.2740 -0.2849 0.9714
4.9575 -5.0817 -0.2794 0.9720
4.9575 -5.0192 -0.2777 0.9722
4.9575 -4.9575 -0.2759 0.9723
4.9575 -4.8364 -0.2726 0.9727
4.9084 -4.7296 -0.2683 0.9731
4.9575 -4.6600 -0.2678 0.9731
4.9575 -4.4897 -0.2633 0.9736
4.9575 -4.3794 -0.2604 0.9739
4.8006 -4.1881 -0.2507 0.9748
4.8185 -4.1515 -0.2503 0.9749
4.8524 -4.1287 -0.2508 0.9748
4.8524 -4.0773 -0.2495 0.9749
4.8523 -4.0264 -0.2482 0.9751
4.8523 -3.9760 -0.2469 0.9752
4.8524 -3.9260 -0.2457 0.9753
4.8523 -3.8767 -0.2445 0.9754
4.8523 -3.8277 -0.2433 0.9756
4.8523 -3.7793 -0.2421 0.9757
4.8523 -3.6367 -0.2387 0.9760
4.8523 -3.5901 -0.2376 0.9761
4.8523 -3.4980 -0.2354 0.9763
4.8523 -3.2749 -0.2304 0.9768
4.8523 -3.2314 -0.2295 0.9769
4.8524 -2.9365 -0.2232 0.9776
4.8524 -2.8551 -0.2216 0.9777
4.8524 -2.7749 -0.2200 0.9779
4.8524 -2.7352 -0.2192 0.9779
4.8523 -2.6178 -0.2170 0.9782
4.8524 -2.5027 -0.2149 0.9784
4.8524 -2.4648 -0.2142 0.9784
4.8524 -2.4272 -0.2135 0.9785
4.9474 -2.3236 -0.2151 0.9784
5.2832 -2.3235 -0.2272 0.9772
5.3731 -2.3236 -0.2304 0.9768
5.5609 -2.3235 -0.2372 0.9762
5.7430 -2.3166 -0.2437 0.9755
6.2422 -2.4287 -0.2636 0.9735
6.3179 -2.3686 -0.2656 0.9734
6.6021 -2.4287 -0.2769 0.9722
6.7303 -2.4287 -0.2816 0.9718
6.9102 -2.3974 -0.2879 0.9711
7.1427 -2.4287 -0.2969 0.9703
7.2903 -2.4287 -0.3024 0.9697
7.4080 -2.4171 -0.3067 0.9693
7.4080 -2.3162 -0.3055 0.9694
8.3273 -2.3235 -0.3403 0.9660
8.7437 -2.3235 -0.3561 0.9644
9.2006 -2.3235 -0.3735 0.9627
9.4463 -2.3235 -0.3829 0.9618
9.5181 -2.2789 -0.3852 0.9616
9.7543 -2.2717 -0.3942 0.9607
10.3311 -2.2717 -0.4163 0.9585
10.7429 -2.2233 -0.4318 0.9570
48.2286 -8.7434 -1.9292 0.8218
49.7793 -8.3900 -1.9869 0.8170
51.7293 -8.3900 -2.0626 0.8108
60.3263 -8.6390 -2.3986 0.7835
40.8855 -5.3398 -1.6229 0.8478
40.8803 -5.0822 -1.6214 0.8480
40.8751 -4.8251 -1.6200 0.8481
40.8601 -4.3116 -1.6172 0.8483
40.8547 -4.0557 -1.6159 0.8484
40.8458 -3.5453 -1.6137 0.8486
40.8368 -3.0361 -1.6117 0.8488
40.8322 -2.7820 -1.6109 0.8489
40.8281 -2.5281 -1.6101 0.8490
40.8239 -2.2745 -1.6093 0.8490
40.8388 -1.7690 -1.6089 0.8491
48.2287 -1.1933 -1.8988 0.8244
48.2287 -0.5965 -1.8984 0.8244
40.7999 0.0000 -1.6059 0.8493
40.2673 0.4981 -1.5850 0.8511
40.2698 0.7472 -1.5853 0.8511
40.2734 0.9965 -1.5856 0.8511
40.2787 1.2459 -1.5861 0.8510
40.2775 1.4952 -1.5864 0.8510
40.2601 2.4930 -1.5876 0.8509
40.2465 3.2426 -1.5892 0.8508
40.6589 3.5291 -1.6063 0.8493
48.0621 5.3723 -1.9035 0.8240
48.0620 5.6735 -1.9048 0.8239
48.0620 5.9751 -1.9062 0.8238
48.0620 6.2771 -1.9078 0.8236
48.0620 6.5796 -1.9093 0.8235
48.0619 6.8827 -1.9110 0.8234
48.0619 7.1863 -1.9127 0.8232
10.6527 1.9313 -0.4261 0.9576
10.2897 1.9313 -0.4121 0.9590
9.6311 1.9312 -0.3866 0.9614
9.2917 1.9830 -0.3740 0.9627
9.0181 1.9830 -0.3634 0.9637
8.7595 1.9831 -0.3535 0.9647
8.0620 1.9831 -0.3268 0.9673
7.8523 1.9831 -0.3188 0.9681
7.6526 1.9830 -0.3112 0.9688
7.3080 2.0879 -0.2991 0.9700
7.1413 2.0882 -0.2928 0.9707
6.8102 2.0372 -0.2798 0.9719
6.5366 2.0882 -0.2701 0.9729
6.1792 2.0586 -0.2564 0.9743
5.6429 1.9578 -0.2351 0.9764
5.1915 1.9830 -0.2187 0.9780
5.0967 1.9830 -0.2153 0.9783
5.0049 1.9830 -0.2119 0.9787
4.9159 1.9830 -0.2086 0.9790
4.8296 1.9830 -0.2055 0.9793
4.7524 2.1962 -0.2061 0.9793
4.7524 2.3042 -0.2079 0.9791
4.7524 2.3406 -0.2085 0.9790
4.7524 2.4141 -0.2098 0.9789
4.7523 2.6019 -0.2133 0.9785
4.7523 2.6403 -0.2140 0.9785
4.7523 2.8360 -0.2178 0.9781
4.7523 2.9569 -0.2203 0.9778
4.7523 2.9979 -0.2212 0.9778
4.7523 3.1226 -0.2238 0.9775
4.7523 3.1648 -0.2247 0.9774
4.7523 3.2074 -0.2257 0.9773
4.7523 3.2937 -0.2276 0.9771
4.7523 3.3815 -0.2296 0.9769
4.7523 3.5618 -0.2338 0.9765
4.7523 3.6079 -0.2348 0.9764
4.7523 3.7014 -0.2371 0.9762
4.7523 3.7968 -0.2394 0.9759
4.7102 3.8110 -0.2385 0.9760
4.8575 4.0306 -0.2484 0.9750
4.8575 4.1852 -0.2524 0.9747
4.8575 4.2378 -0.2537 0.9745
4.8575 4.2910 -0.2551 0.9744
4.8084 4.3547 -0.2553 0.9744
4.8575 4.4542 -0.2594 0.9740
4.8575 4.5660 -0.2624 0.9737
4.8575 4.6229 -0.2639 0.9735
4.8575 4.7388 -0.2671 0.9732
4.8575 4.9180 -0.2721 0.9727
4.8566 4.9783 -0.2737 0.9725
4.8084 4.9902 -0.2728 0.9726
4.8575 5.1676 -0.2791 0.9720
4.8575 5.3636 -0.2848 0.9714
4.8575 5.4307 -0.2868 0.9713
4.8374 5.4761 -0.2876 0.9712
4.7775 5.4761 -0.2860 0.9713
4.7005 5.5243 -0.2855 0.9714
4.7523 5.6557 -0.2908 0.9709
4.7523 5.7999 -0.2951 0.9704
4.7523 5.8736 -0.2974 0.9702
4.7523 5.9485 -0.2997 0.9700
4.7523 6.0245 -0.3020 0.9698
4.7523 6.2599 -0.3093 0.9690
4.7523 6.3409 -0.3119 0.9688
4.7523 6.5071 -0.3171 0.9683
4.7523 6.5923 -0.3199 0.9680
4.7523 7.1362 -0.3375 0.9663
4.7523 7.2328 -0.3406 0.9659
4.7523 7.6380 -0.3541 0.9646
4.7523 7.8528 -0.3613 0.9639
4.7523 8.0767 -0.3688 0.9632
4.7523 8.3102 -0.3768 0.9624
4.7523 8.8089 -0.3939 0.9607
4.7523 9.2139 -0.4080 0.9593
4.7005 9.2535 -0.4085 0.9593
4.7005 9.3970 -0.4136 0.9588
4.7005 9.5441 -0.4187 0.9583
4.7005 9.6949 -0.4241 0.9578
4.6742 9.7946 -0.4272 0.9575
4.6521 10.0667 -0.4365 0.9566
4.6521 10.7577 -0.4613 0.9542
4.7523 12.2143 -0.5159 0.9489
4.7523 12.6760 -0.5328 0.9473
4.7523 13.1693 -0.5511 0.9455
4.7522 13.9761 -0.5810 0.9426
4.5958 15.0248 -0.6184 0.9390
4.4944 15.0248 -0.6173 0.9392
4.1923 15.0248 -0.6140 0.9395
3.8934 15.0248 -0.6109 0.9398
3.7944 15.0248 -0.6099 0.9399
3.6957 15.0248 -0.6090 0.9399
3.5973 15.0248 -0.6081 0.9400
3.4992 15.0248 -0.6072 0.9401
3.0128 15.0248 -0.6031 0.9405
2.9162 15.0248 -0.6024 0.9406
2.7238 15.0248 -0.6010 0.9407
2.6280 15.0248 -0.6003 0.9408
2.5323 15.0248 -0.5997 0.9408
2.3416 15.0248 -0.5985 0.9409
2.2465 15.0248 -0.5979 0.9410
2.1516 15.0248 -0.5974 0.9410
2.0569 15.0248 -0.5969 0.9411
1.9623 15.0248 -0.5964 0.9411
1.8679 15.0248 -0.5959 0.9412
1.7736 15.0248 -0.5955 0.9412
1.6795 15.0248 -0.5950 0.9413
1.5854 15.0248 -0.5946 0.9413
1.4915 15.0248 -0.5943 0.9413
1.3978 15.0248 -0.5939 0.9414
1.3041 15.0248 -0.5936 0.9414
1.1171 15.0248 -0.5930 0.9415
1.0237 15.0248 -0.5927 0.9415
0.9304 15.0248 -0.5925 0.9415
0.8371 15.0248 -0.5923 0.9415
0.7439 15.0248 -0.5921 0.9416
0.0929 15.0248 -0.5914 0.9416
-0.0929 15.0248 -0.5914 0.9416
-0.2788 15.0248 -0.5915 0.9416
-0.3717 15.0248 -0.5915 0.9416
-0.4647 15.0248 -0.5916 0.9416
-0.7439 15.0248 -0.5921 0.9416
-1.0237 15.0248 -0.5927 0.9415
-1.3041 15.0248 -0.5936 0.9414
-1.4915 15.0248 -0.5943 0.9413
-1.6794 15.0248 -0.5950 0.9413
-1.7736 15.0248 -0.5955 0.9412
-2.1516 15.0248 -0.5974 0.9410
-2.2465 15.0248 -0.5979 0.9410
-2.3416 15.0248 -0.5985 0.9409
-2.5259 14.9869 -0.5982 0.9410
-2.6213 14.9869 -0.5988 0.9409
-2.8128 14.9869 -0.6002 0.9408
-3.0052 14.9869 -0.6016 0.9406
-3.1017 14.9869 -0.6024 0.9406
-3.3928 14.9868 -0.6048 0.9403
-3.5882 14.9868 -0.6065 0.9402
-3.7848 14.9868 -0.6084 0.9400
-3.9826 14.9868 -0.6103 0.9398
-4.1818 14.9868 -0.6124 0.9396
-4.2818 14.9868 -0.6135 0.9395
-4.4830 14.9868 -0.6157 0.9393
-4.6857 14.9868 -0.6180 0.9391
-4.9928 14.9868 -0.6217 0.9387
-5.0960 14.9868 -0.6230 0.9386
-5.1996 14.9868 -0.6244 0.9385
-5.3036 14.9868 -0.6257 0.9383
-5.6186 14.9868 -0.6300 0.9379
-5.8310 14.9868 -0.6329 0.9377
-5.9380 14.9868 -0.6345 0.9375
-6.0455 14.9868 -0.6361 0.9374
-6.1535 14.9868 -0.6377 0.9372
-6.2621 14.9868 -0.6393 0.9370
-6.3712 14.9868 -0.6410 0.9369
-6.4810 14.9868 -0.6427 0.9367
-6.5913 14.9868 -0.6444 0.9366
-6.7022 14.9868 -0.6462 0.9364
-6.8137 14.9868 -0.6480 0.9362
-6.9259 14.9868 -0.6498 0.9360
-7.0387 14.9868 -0.6517 0.9359
-7.3811 14.9868 -0.6575 0.9353
-7.6128 14.9868 -0.6616 0.9349
-7.7298 14.9868 -0.6637 0.9347
-7.8475 14.9868 -0.6658 0.9345
-8.0852 14.9868 -0.6702 0.9341
-8.3262 14.9868 -0.6748 0.9337
-8.5704 14.9868 -0.6795 0.9332
-8.6939 14.9868 -0.6819 0.9330
-8.8182 14.9868 -0.6844 0.9328
-8.9434 14.9868 -0.6869 0.9325
-9.0696 14.9868 -0.6895 0.9323
-9.3247 14.9868 -0.6947 0.9318
-9.4538 14.9868 -0.6974 0.9315
-9.5838 14.9868 -0.7002 0.9313
-9.7150 14.9868 -0.7030 0.9310
-9.8471 14.9868 -0.7058 0.9307
-9.9804 14.9868 -0.7087 0.9305
-10.1147 14.9868 -0.7116 0.9302
-10.8038 14.9868 -0.7272 0.9287
-11.2321 14.9868 -0.7371 0.9278
-11.3775 14.9868 -0.7406 0.9274
-11.5243 14.9867 -0.7441 0.9271
-12.2799 14.9867 -0.7626 0.9254
-12.5929 14.9867 -0.7705 0.9246
-12.7140 14.5731 -0.7612 0.9255
-12.7140 14.3924 -0.7559 0.9260
-12.7140 14.2143 -0.7506 0.9265
-12.7140 13.6943 -0.7355 0.9279
-12.7140 13.0324 -0.7166 0.9297
-12.7140 12.8722 -0.7121 0.9301
-12.7140 12.7140 -0.7077 0.9306
-12.7140 12.5577 -0.7034 0.9310
-12.8264 12.3591 -0.7011 0.9312
-12.7140 11.9510 -0.6868 0.9325
-12.7140 11.8038 -0.6828 0.9329
-12.7140 11.3720 -0.6714 0.9340
-12.7139 11.2312 -0.6677 0.9343
-12.7139 11.0920 -0.6641 0.9347
-12.7139 10.8180 -0.6570 0.9354
-12.7139 10.5497 -0.6503 0.9360
-12.7139 10.4176 -0.6469 0.9363
-12.7139 10.2869 -0.6437 0.9366
-12.7139 10.1574 -0.6405 0.9369
-12.7139 10.0292 -0.6374 0.9372
-12.7139 9.5287 -0.6254 0.9384
-12.7139 9.4064 -0.6225 0.9387
-12.7139 9.2854 -0.6197 0.9389
-12.7139 9.1653 -0.6169 0.9392
-12.7139 9.0464 -0.6142 0.9394
-12.7139 8.9285 -0.6115 0.9397
-12.7139 8.4668 -0.6012 0.9407
-12.7139 8.3537 -0.5988 0.9409
-12.7139 7.6941 -0.5849 0.9422
-12.7139 7.5871 -0.5827 0.9425
-12.7139 7.3754 -0.5785 0.9429
-12.7139 7.2707 -0.5765 0.9431
-12.7139 7.1667 -0.5744 0.9433
-12.7139 6.9609 -0.5705 0.9436
-12.7139 6.8590 -0.5686 0.9438
-12.7139 6.7579 -0.5667 0.9440
-12.7139 6.6574 -0.5649 0.9442
-12.7139 6.4583 -0.5613 0.9445
-12.7139 6.0674 -0.5545 0.9452
-12.7139 5.9712 -0.5529 0.9453
-12.7139 5.8755 -0.5513 0.9455
-12.7139 5.7803 -0.5497 0.9456
-12.7139 5.4981 -0.5452 0.9461
-12.7139 5.4050 -0.5438 0.9462
-12.7139 5.3124 -0.5423 0.9463
-12.7139 5.2203 -0.5410 0.9465
-12.7139 5.1286 -0.5396 0.9466
-12.7139 4.9467 -0.5370 0.9469
-12.7139 4.8564 -0.5357 0.9470
-12.7139 4.7665 -0.5344 0.9471
-12.7139 4.5879 -0.5320 0.9473
-12.7139 4.4993 -0.5308 0.9474
-12.7139 4.4110 -0.5297 0.9476
-12.7139 3.8889 -0.5233 0.9482
-12.7139 3.8031 -0.5223 0.9483
-12.7139 3.7176 -0.5214 0.9484
-12.7139 3.6324 -0.5204 0.9484
-12.7139 3.4629 -0.5186 0.9486
-12.7139 3.3786 -0.5178 0.9487
-12.7139 3.2946 -0.5169 0.9488
-12.7139 3.0440 -0.5146 0.9490
-12.7139 2.9610 -0.5138 0.9491
-12.7139 2.7134 -0.5117 0.9493
-12.7139 2.6313 -0.5110 0.9494
-12.7139 2.5494 -0.5104 0.9494
-12.7139 2.3862 -0.5091 0.9495
-12.7139 2.3049 -0.5086 0.9496
-12.7139 2.2238 -0.5080 0.9496
-12.7139 1.9010 -0.5060 0.9498
-12.7139 1.7405 -0.5051 0.9499
-12.7139 1.4211 -0.5035 0.9501
-12.7139 1.3416 -0.5032 0.9501
-13.5051 1.3407 -0.5342 0.9471
-14.4112 1.3407 -0.5697 0.9437
-15.4461 1.3407 -0.6102 0.9398
-19.6776 1.3407 -0.7763 0.9241
-62.0156 3.8400 -2.4456 0.7798
-60.5162 2.2465 -2.3835 0.7847
-60.2696 1.8642 -2.3733 0.7855
-60.2696 1.4912 -2.3729 0.7856
-38.9615 0.4819 -1.5336 0.8556
-14.4319 -0.0892 -0.6754 0.9438
-12.7139 -0.3146 -0.5952 0.9503
-12.7139 -0.4719 -0.5954 0.9503
-12.7138 -0.6295 -0.5957 0.9503
-12.7139 -0.7083 -0.5959 0.9503
-12.7138 -0.8662 -0.5964 0.9503
-12.7139 -0.9452 -0.5966 0.9502
-12.7139 -1.0243 -0.5969 0.9502
-12.7138 -1.1035 -0.5972 0.9502
-12.7138 -1.1828 -0.5976 0.9502
-12.7138 -1.3416 -0.5983 0.9501
-12.7138 -1.4211 -0.5987 0.9501
-12.7138 -1.5806 -0.5996 0.9500
-12.7138 -1.8207 -0.6011 0.9499
-12.7139 -1.9814 -0.6022 0.9498
-12.7139 -2.2238 -0.6040 0.9496
-12.7139 -2.3049 -0.6047 0.9496
-12.7139 -2.3862 -0.6054 0.9495
-12.7139 -2.4677 -0.6061 0.9495
-12.7139 -2.6313 -0.6076 0.9493
-12.7139 -2.7134 -0.6084 0.9493
-12.7139 -2.8782 -0.6100 0.9491
-12.7139 -2.9610 -0.6109 0.9491
-12.7139 -3.0440 -0.6118 0.9490
-12.7139 -3.1272 -0.6127 0.9489
-12.7139 -3.2108 -0.6137 0.9488
-12.7139 -3.2945 -0.6146 0.9488
-12.7139 -3.5475 -0.6177 0.9485
-12.7139 -3.7176 -0.6199 0.9483
-12.7139 -3.9751 -0.6234 0.9481
-12.7138 -4.0615 -0.6246 0.9480
-12.7139 -4.2355 -0.6271 0.9478
-12.7139 -4.4110 -0.6298 0.9475
-12.7139 -4.4992 -0.6311 0.9474
-12.7138 -4.6770 -0.6340 0.9472
-12.7139 -4.7664 -0.6354 0.9471
-12.7139 -4.9466 -0.6384 0.9468
-12.7139 -5.1286 -0.6416 0.9466
-12.7138 -5.2202 -0.6432 0.9465
-12.7138 -5.5916 -0.6500 0.9459
-12.7138 -5.6857 -0.6518 0.9458
-12.7138 -5.7803 -0.6536 0.9456
-12.7138 -5.9711 -0.6573 0.9453
-12.7138 -6.1642 -0.6612 0.9450
-12.7138 -6.4582 -0.6673 0.9445
-12.7138 -6.7578 -0.6738 0.9440
-12.7138 -6.9608 -0.6783 0.9436
-12.7138 -7.0634 -0.6806 0.9434
-12.7138 -7.1666 -0.6830 0.9432
-12.7138 -7.2706 -0.6854 0.9430
-12.7138 -7.4808 -0.6903 0.9426
-12.7138 -7.6940 -0.6954 0.9422
-12.7138 -7.8018 -0.6981 0.9420
-12.7138 -7.9105 -0.7007 0.9418
-12.7138 -8.1303 -0.7062 0.9414
-12.7138 -8.2415 -0.7091 0.9411
-12.7138 -8.4667 -0.7148 0.9407
-12.7138 -8.6956 -0.7208 0.9402
-12.7138 -8.8115 -0.7239 0.9399
