ply
format ascii 1.0
element vertex 1555
property float32 x
property float32 y
property float32 z
property float32 I
end_header
-12.7140 -1.9815 -1.1782 0.9496
-12.7140 -2.3862 -1.1845 0.9494
-12.7140 -2.4677 -1.1859 0.9493
-12.7114 -2.5489 -1.1871 0.9493
-12.6621 -2.7843 -1.1871 0.9493
-12.6621 -3.1145 -1.1940 0.9490
-12.6621 -3.1977 -1.1958 0.9489
-12.6621 -3.3648 -1.1997 0.9487
-12.7139 -3.7176 -1.2129 0.9482
-12.7139 -3.8031 -1.2151 0.9481
-12.7139 -3.8889 -1.2174 0.9480
-12.7139 -4.1484 -1.2246 0.9477
-12.7139 -4.2355 -1.2271 0.9476
-12.7139 -4.3231 -1.2296 0.9475
-12.7139 -4.4110 -1.2322 0.9474
-12.7139 -4.4993 -1.2349 0.9473
-12.7139 -4.5879 -1.2376 0.9472
-12.7139 -4.6770 -1.2404 0.9470
-12.7139 -4.7665 -1.2433 0.9469
-12.7139 -4.8564 -1.2462 0.9468
-12.7139 -5.1286 -1.2553 0.9464
-12.7139 -5.3124 -1.2617 0.9462
-12.7139 -5.5916 -1.2718 0.9457
-12.7139 -5.6857 -1.2753 0.9456
-12.7139 -5.7803 -1.2788 0.9454
-12.7139 -5.8755 -1.2825 0.9453
-12.7139 -6.0674 -1.2899 0.9450
-12.7139 -6.6573 -1.3141 0.9440
-12.7139 -6.9609 -1.3272 0.9434
-12.7139 -7.1667 -1.3364 0.9431
-12.7139 -7.2706 -1.3411 0.9429
-12.6621 -7.3453 -1.3404 0.9429
-12.8191 -7.5427 -1.3619 0.9420
-12.8141 -7.8634 -1.3766 0.9414
-12.7700 -8.5041 -1.4049 0.9402
-12.8191 -8.6517 -1.4161 0.9398
-12.8191 -8.7676 -1.4221 0.9395
-12.7139 -9.6520 -1.4616 0.9379
-12.7139 -9.7765 -1.4686 0.9376
-12.7140 -10.0292 -1.4828 0.9370
-12.7140 -10.4176 -1.5051 0.9361
-12.7140 -10.5497 -1.5128 0.9358
-12.7140 -10.8180 -1.5286 0.9351
-14.3997 -12.4067 -1.7404 0.9265
-14.1520 -12.3466 -1.7197 0.9273
-13.8708 -12.4067 -1.7040 0.9280
-13.5832 -12.3015 -1.6780 0.9290
-13.2501 -12.3015 -1.6555 0.9300
-12.9257 -12.3015 -1.6339 0.9308
-12.7667 -12.3015 -1.6234 0.9313
-12.7140 -12.7139 -1.6464 0.9303
-12.7140 -13.5255 -1.6997 0.9281
-12.7140 -13.6943 -1.7110 0.9277
-12.7140 -14.0386 -1.7343 0.9267
-12.7949 -14.6658 -1.7821 0.9248
-12.8191 -14.8783 -1.7983 0.9241
-12.8191 -15.0657 -1.8113 0.9236
-12.8191 -15.2559 -1.8246 0.9231
-12.7794 -15.7946 -1.8604 0.9216
-12.7140 -16.1173 -1.8797 0.9209
-12.7140 -16.5338 -1.9098 0.9196
-12.7140 -16.9640 -1.9412 0.9184
-12.7140 -17.8684 -2.0080 0.9157
-12.6662 -19.5394 -2.1322 0.9107
-11.1394 -17.4192 -1.8933 0.9203
-10.9882 -17.4192 -1.8858 0.9206
-10.8382 -17.4192 -1.8785 0.9209
-10.5416 -17.4192 -1.8643 0.9215
-10.3950 -17.4192 -1.8574 0.9218
-10.2495 -17.4192 -1.8506 0.9220
-10.1049 -17.4192 -1.8440 0.9223
-9.8190 -17.4192 -1.8310 0.9228
-8.9844 -17.4192 -1.7947 0.9243
-8.7133 -17.4192 -1.7834 0.9247
-8.5791 -17.4192 -1.7780 0.9250
-8.3129 -17.4192 -1.7673 0.9254
-8.1811 -17.4192 -1.7622 0.9256
-8.0500 -17.4192 -1.7571 0.9258
-7.7900 -17.4192 -1.7472 0.9262
-7.6611 -17.4192 -1.7424 0.9264
-7.5329 -17.4192 -1.7378 0.9266
-7.4053 -17.4192 -1.7332 0.9268
-7.0267 -17.4192 -1.7199 0.9273
-6.9017 -17.4192 -1.7156 0.9275
-6.7774 -17.4192 -1.7115 0.9277
-6.6537 -17.4192 -1.7074 0.9278
-6.4079 -17.4192 -1.6995 0.9282
-6.1645 -17.4192 -1.6919 0.9285
-6.0435 -17.4192 -1.6883 0.9286
-5.8031 -17.4192 -1.6812 0.9289
-5.6837 -17.4192 -1.6778 0.9290
-5.5647 -17.4192 -1.6744 0.9292
-5.4462 -17.4192 -1.6711 0.9293
-5.3282 -17.4192 -1.6679 0.9294
-4.9768 -17.4192 -1.6588 0.9298
-4.8605 -17.4192 -1.6559 0.9299
-4.7445 -17.4192 -1.6531 0.9300
-4.6290 -17.4192 -1.6504 0.9302
-4.3991 -17.4192 -1.6451 0.9304
-4.2847 -17.4192 -1.6425 0.9305
-4.1706 -17.4192 -1.6401 0.9306
-4.0569 -17.4192 -1.6377 0.9307
-3.8304 -17.4192 -1.6331 0.9309
-3.7176 -17.4192 -1.6309 0.9310
-3.6051 -17.4192 -1.6288 0.9310
-3.4929 -17.4192 -1.6268 0.9311
-3.3810 -17.4192 -1.6248 0.9312
-3.2693 -17.4192 -1.6229 0.9313
-3.1580 -17.4192 -1.6210 0.9314
-2.9359 -17.4192 -1.6175 0.9315
-2.8252 -17.4192 -1.6158 0.9316
-2.7148 -17.4192 -1.6143 0.9316
-2.1655 -17.4192 -1.6073 0.9319
-2.0562 -17.4192 -1.6061 0.9320
-1.9471 -17.4192 -1.6049 0.9320
-1.8381 -17.4191 -1.6039 0.9321
-1.4034 -17.4191 -1.6002 0.9322
-1.2951 -17.4191 -1.5994 0.9322
-1.1868 -17.4192 -1.5987 0.9323
-1.0786 -17.4192 -1.5981 0.9323
-0.8625 -17.4191 -1.5970 0.9323
-0.6466 -17.4191 -1.5961 0.9324
-0.2155 -17.4191 -1.5951 0.9324
0.0000 -17.4191 -1.5950 0.9324
0.1077 -17.4191 -1.5950 0.9324
0.3232 -17.4191 -1.5953 0.9324
0.7546 -17.4191 -1.5965 0.9324
0.8625 -17.4191 -1.5970 0.9323
0.9705 -17.4191 -1.5975 0.9323
1.0787 -17.4191 -1.5981 0.9323
1.2951 -17.4191 -1.5994 0.9322
1.5119 -17.4191 -1.6010 0.9322
1.7293 -17.4191 -1.6028 0.9321
1.9471 -17.4191 -1.6049 0.9320
2.2750 -17.4191 -1.6085 0.9319
2.4945 -17.4191 -1.6113 0.9318
2.6045 -17.4191 -1.6127 0.9317
2.7148 -17.4191 -1.6143 0.9316
2.8252 -17.4191 -1.6158 0.9316
2.9359 -17.4191 -1.6175 0.9315
3.3810 -17.4191 -1.6248 0.9312
3.4929 -17.4191 -1.6267 0.9311
3.6051 -17.4191 -1.6288 0.9310
3.8304 -17.4191 -1.6331 0.9309
4.0569 -17.4191 -1.6377 0.9307
4.1706 -17.4191 -1.6401 0.9306
4.2846 -17.4191 -1.6425 0.9305
4.3991 -17.4191 -1.6451 0.9304
4.9306 -16.4830 -1.5754 0.9332
4.9574 -15.8559 -1.5212 0.9354
4.9083 -15.3645 -1.4769 0.9373
4.8523 -14.5652 -1.4057 0.9402
4.8523 -14.2703 -1.3801 0.9413
4.8523 -13.9859 -1.3555 0.9423
4.8523 -13.7115 -1.3318 0.9433
4.8523 -13.1904 -1.2869 0.9451
4.8523 -12.7033 -1.2452 0.9468
4.8523 -12.0290 -1.1877 0.9492
4.8523 -11.8178 -1.1698 0.9500
4.8523 -11.0329 -1.1036 0.9527
4.8523 -10.8503 -1.0883 0.9534
4.8523 -10.6727 -1.0735 0.9540
4.8523 -10.3316 -1.0452 0.9552
4.8523 -10.1677 -1.0316 0.9558
4.8523 -9.4079 -0.9693 0.9584
4.8523 -8.9943 -0.9358 0.9598
4.8523 -8.8627 -0.9252 0.9602
4.8523 -8.6082 -0.9048 0.9611
4.8523 -8.4851 -0.8950 0.9615
4.8523 -8.1312 -0.8670 0.9627
4.8523 -7.7987 -0.8410 0.9638
4.8523 -6.9096 -0.7731 0.9667
4.8523 -6.8196 -0.7664 0.9669
4.8523 -6.7311 -0.7598 0.9672
4.8523 -6.6440 -0.7533 0.9675
4.8523 -6.5585 -0.7470 0.9678
4.8523 -6.4744 -0.7409 0.9680
4.8523 -6.3916 -0.7348 0.9683
4.8523 -6.0736 -0.7118 0.9693
4.8523 -5.9972 -0.7064 0.9695
4.8523 -5.9219 -0.7010 0.9697
4.8523 -5.7747 -0.6907 0.9702
4.8523 -5.4929 -0.6711 0.9710
4.8523 -5.4250 -0.6665 0.9712
4.8523 -4.9127 -0.6323 0.9726
4.8523 -4.8523 -0.6283 0.9728
4.8523 -4.7338 -0.6207 0.9731
4.8523 -4.5050 -0.6063 0.9738
4.8523 -4.4494 -0.6028 0.9739
4.8524 -4.2333 -0.5896 0.9745
4.8524 -4.0263 -0.5774 0.9750
4.8524 -3.9759 -0.5744 0.9751
4.8524 -3.9260 -0.5715 0.9752
4.8524 -3.8766 -0.5687 0.9754
4.8523 -3.7793 -0.5632 0.9756
4.8524 -3.6837 -0.5578 0.9758
4.8523 -3.5900 -0.5527 0.9760
4.8523 -3.3630 -0.5406 0.9766
4.8524 -3.3187 -0.5383 0.9767
4.8523 -3.2314 -0.5338 0.9769
4.8523 -3.1455 -0.5295 0.9770
4.8523 -3.1030 -0.5274 0.9771
4.8523 -3.0609 -0.5253 0.9772
4.8523 -3.0191 -0.5233 0.9773
4.8523 -2.9777 -0.5213 0.9774
4.8523 -2.8956 -0.5174 0.9776
4.8523 -2.8551 -0.5155 0.9776
4.8523 -2.8148 -0.5137 0.9777
4.8523 -2.6958 -0.5083 0.9780
4.8524 -2.5792 -0.5032 0.9782
4.8523 -2.5027 -0.4999 0.9783
4.7521 -2.3771 -0.4865 0.9789
4.7521 -2.3040 -0.4836 0.9790
4.7521 -2.2679 -0.4821 0.9791
4.8112 -2.2234 -0.4853 0.9789
5.1108 -2.3236 -0.5141 0.9777
5.1958 -2.3236 -0.5212 0.9774
5.2832 -2.3236 -0.5285 0.9771
5.4657 -2.3236 -0.5438 0.9764
5.5610 -2.3236 -0.5519 0.9761
5.6591 -2.3236 -0.5602 0.9757
5.7602 -2.3236 -0.5687 0.9754
5.8645 -2.3236 -0.5776 0.9750
6.0832 -2.3236 -0.5963 0.9742
6.1979 -2.3236 -0.6061 0.9738
6.3164 -2.3236 -0.6163 0.9733
6.4390 -2.3236 -0.6268 0.9729
6.6973 -2.3236 -0.6491 0.9719
6.9748 -2.3236 -0.6732 0.9709
7.1213 -2.3236 -0.6859 0.9704
7.2736 -2.3236 -0.6992 0.9698
7.4318 -2.3236 -0.7130 0.9692
7.5964 -2.3236 -0.7274 0.9686
7.7679 -2.3236 -0.7424 0.9680
7.9465 -2.3236 -0.7581 0.9673
8.1329 -2.3236 -0.7745 0.9666
8.3275 -2.3236 -0.7916 0.9659
8.5310 -2.3236 -0.8096 0.9651
8.9670 -2.3236 -0.8482 0.9635
9.2009 -2.3236 -0.8689 0.9626
9.7050 -2.3236 -0.9138 0.9607
10.8876 -2.3236 -1.0194 0.9563
11.5879 -2.3236 -1.0822 0.9536
12.7822 -2.3990 -1.1908 0.9491
27.3846 -4.9646 -2.5484 0.8942
27.4443 -4.6256 -2.5484 0.8942
27.4726 -4.4558 -2.5484 0.8942
27.4998 -4.2858 -2.5484 0.8942
27.5510 -3.9454 -2.5485 0.8942
27.5981 -3.6044 -2.5485 0.8942
27.6200 -3.4337 -2.5485 0.8942
27.6409 -3.2629 -2.5485 0.8942
27.6607 -3.0919 -2.5485 0.8942
27.7294 -2.4068 -2.5486 0.8942
27.7811 -1.7202 -2.5487 0.8942
27.7913 -1.5484 -2.5487 0.8942
27.8005 -1.3765 -2.5487 0.8942
27.8086 -1.2046 -2.5487 0.8942
27.8157 -1.0326 -2.5487 0.8942
27.8217 -0.8605 -2.5487 0.8942
27.8305 -0.5164 -2.5488 0.8942
27.8333 -0.3443 -2.5488 0.8942
27.8350 -0.1721 -2.5488 0.8942
27.8354 0.1721 -2.5488 0.8942
27.8338 0.3443 -2.5488 0.8942
27.8278 0.6885 -2.5488 0.8942
27.8106 1.2047 -2.5489 0.8942
27.8028 1.3766 -2.5489 0.8942
27.7938 1.5486 -2.5489 0.8942
27.7838 1.7204 -2.5489 0.8942
27.7728 1.8922 -2.5489 0.8942
27.7606 2.0639 -2.5489 0.8942
27.7475 2.2356 -2.5490 0.8942
27.7333 2.4071 -2.5490 0.8942
27.6842 2.9213 -2.5490 0.8942
27.6657 3.0924 -2.5490 0.8942
27.6255 3.4344 -2.5490 0.8942
27.6039 3.6052 -2.5490 0.8942
27.5811 3.7758 -2.5490 0.8942
27.5574 3.9463 -2.5491 0.8942
27.5325 4.1167 -2.5491 0.8942
27.4797 4.4570 -2.5491 0.8942
11.7657 1.9831 -1.0925 0.9532
11.3374 1.9830 -1.0539 0.9548
10.9384 1.9830 -1.0179 0.9563
10.5657 1.9830 -0.9844 0.9577
9.8894 1.9831 -0.9236 0.9603
9.0181 1.9830 -0.8455 0.9636
8.0619 1.9830 -0.7602 0.9672
7.4622 1.9830 -0.7070 0.9695
7.2805 1.9830 -0.6909 0.9701
7.1069 1.9830 -0.6756 0.9708
6.2074 1.9830 -0.5967 0.9742
5.9524 1.9830 -0.5745 0.9751
5.6035 1.9830 -0.5443 0.9764
5.3906 1.9830 -0.5259 0.9772
5.2894 1.9830 -0.5172 0.9776
4.8392 1.8829 -0.4755 0.9794
4.7520 1.8829 -0.4680 0.9797
4.6522 1.9439 -0.4617 0.9800
4.6522 2.0118 -0.4641 0.9798
4.6522 2.0461 -0.4654 0.9798
4.6522 2.0805 -0.4666 0.9797
4.6522 2.1151 -0.4679 0.9797
4.6522 2.1499 -0.4693 0.9796
4.6522 2.1849 -0.4706 0.9796
4.6522 2.2202 -0.4720 0.9795
4.6522 2.2912 -0.4748 0.9794
4.6521 2.3271 -0.4763 0.9793
4.6522 2.3632 -0.4778 0.9793
4.6522 2.3995 -0.4793 0.9792
4.6521 2.5098 -0.4840 0.9790
4.6521 2.5846 -0.4873 0.9789
4.7523 2.7177 -0.5013 0.9783
4.7523 2.7569 -0.5031 0.9782
4.7523 2.7963 -0.5049 0.9781
4.7523 2.8360 -0.5067 0.9780
4.7523 2.8760 -0.5086 0.9779
4.7523 2.9163 -0.5106 0.9779
4.7523 2.9978 -0.5145 0.9777
4.7523 3.0391 -0.5165 0.9776
4.7523 3.0806 -0.5186 0.9775
4.7523 3.2504 -0.5272 0.9771
4.7523 3.2937 -0.5294 0.9770
4.7523 3.3374 -0.5317 0.9769
4.7523 3.5161 -0.5413 0.9765
4.7523 3.5617 -0.5438 0.9764
4.7523 3.6078 -0.5463 0.9763
4.7523 3.6544 -0.5489 0.9762
4.7523 3.8451 -0.5597 0.9757
4.7523 3.8940 -0.5626 0.9756
4.7523 3.9434 -0.5654 0.9755
4.7523 3.9933 -0.5684 0.9754
4.7523 4.0946 -0.5744 0.9751
4.7523 4.3577 -0.5904 0.9744
4.7523 4.4672 -0.5972 0.9741
4.7523 4.5229 -0.6007 0.9740
4.7523 4.6362 -0.6079 0.9737
4.7523 4.8713 -0.6231 0.9730
4.7523 4.9320 -0.6271 0.9729
4.7523 4.9934 -0.6312 0.9727
4.7523 5.1827 -0.6439 0.9722
4.7523 5.3131 -0.6527 0.9718
4.7523 5.7272 -0.6814 0.9705
4.7523 5.9484 -0.6972 0.9699
4.7523 6.0244 -0.7026 0.9696
4.7523 6.3409 -0.7256 0.9687
4.7523 6.4233 -0.7316 0.9684
4.7522 6.5071 -0.7378 0.9682
4.7522 6.7671 -0.7572 0.9673
4.7522 6.8569 -0.7639 0.9670
4.7522 7.0414 -0.7778 0.9665
4.7522 7.1362 -0.7851 0.9661
4.7522 7.3311 -0.8000 0.9655
4.7522 7.4314 -0.8077 0.9652
4.7522 7.5336 -0.8156 0.9649
4.7522 7.6379 -0.8237 0.9645
4.7522 7.7442 -0.8320 0.9642
4.7522 7.8528 -0.8405 0.9638
4.7522 7.9635 -0.8492 0.9634
4.7522 8.0766 -0.8581 0.9631
4.7522 8.1921 -0.8672 0.9627
4.7522 8.3101 -0.8766 0.9623
4.7522 8.4306 -0.8862 0.9619
4.7522 8.5539 -0.8960 0.9615
4.7522 8.6799 -0.9061 0.9610
4.7522 8.8088 -0.9165 0.9606
4.7522 8.9406 -0.9271 0.9601
4.7522 9.0756 -0.9380 0.9597
4.7522 9.2138 -0.9493 0.9592
4.7522 9.5004 -0.9727 0.9582
4.7522 10.2833 -1.0373 0.9555
4.7522 10.6265 -1.0659 0.9543
4.7522 10.9892 -1.0963 0.9530
4.7522 11.1784 -1.1122 0.9524
4.7522 11.3732 -1.1287 0.9517
4.7522 11.5739 -1.1456 0.9510
4.7522 11.9940 -1.1813 0.9495
4.7522 12.2140 -1.2001 0.9487
4.7672 12.9591 -1.2644 0.9460
4.7522 13.1690 -1.2819 0.9453
4.7522 13.4286 -1.3043 0.9444
4.7521 14.2646 -1.3767 0.9414
4.5958 15.0248 -1.4387 0.9388
4.3933 15.0248 -1.4334 0.9391
4.2926 15.0248 -1.4308 0.9392
4.1923 15.0248 -1.4283 0.9393
3.9927 15.0247 -1.4235 0.9395
3.8934 15.0247 -1.4212 0.9396
3.7944 15.0247 -1.4189 0.9397
3.5973 15.0247 -1.4146 0.9398
3.4871 14.9729 -1.4077 0.9401
3.3270 15.1299 -1.4185 0.9397
3.2290 15.1299 -1.4166 0.9398
3.0338 15.1299 -1.4130 0.9399
2.8396 15.1299 -1.4096 0.9400
2.7429 15.1299 -1.4080 0.9401
2.2622 15.1299 -1.4008 0.9404
2.1666 15.1299 -1.3995 0.9405
2.0712 15.1299 -1.3983 0.9405
1.8614 14.9729 -1.3816 0.9412
1.7736 15.0247 -1.3853 0.9410
1.6794 15.0247 -1.3843 0.9411
1.4915 15.0247 -1.3825 0.9412
1.3041 15.0247 -1.3809 0.9412
0.8371 15.0247 -1.3779 0.9413
0.7439 15.0247 -1.3774 0.9414
0.5577 15.0247 -1.3767 0.9414
0.4647 15.0247 -1.3764 0.9414
0.3717 15.0247 -1.3762 0.9414
0.2788 15.0247 -1.3760 0.9414
0.1858 15.0247 -1.3759 0.9414
0.0000 15.0247 -1.3757 0.9414
-0.0929 15.0247 -1.3758 0.9414
-0.1858 15.0247 -1.3759 0.9414
-0.2788 15.0247 -1.3760 0.9414
-0.3717 15.0247 -1.3762 0.9414
-0.4647 15.0247 -1.3764 0.9414
-0.5578 15.0247 -1.3767 0.9414
-0.9304 15.0247 -1.3784 0.9413
-1.0237 15.0247 -1.3789 0.9413
-1.3041 15.0247 -1.3809 0.9412
-1.7736 15.0247 -1.3853 0.9410
-1.8644 14.9971 -1.3837 0.9411
-2.0713 15.1298 -1.3983 0.9405
-2.5260 14.9868 -1.3916 0.9408
-2.6214 14.9868 -1.3931 0.9407
-2.8128 14.9868 -1.3962 0.9406
-3.3928 14.9868 -1.4070 0.9401
-3.6864 14.9868 -1.4132 0.9399
-3.7848 14.9868 -1.4154 0.9398
-3.8836 14.9868 -1.4176 0.9397
-4.1817 14.9868 -1.4247 0.9394
-4.2778 14.9728 -1.4258 0.9394
-4.7998 15.0247 -1.4442 0.9386
-5.6580 15.0919 -1.4758 0.9373
-5.8719 15.0919 -1.4828 0.9370
-5.9429 14.9991 -1.4773 0.9373
-6.2621 14.9867 -1.4872 0.9368
-6.5912 14.9867 -1.4991 0.9364
-6.8137 14.9867 -1.5074 0.9360
-6.9259 14.9867 -1.5117 0.9358
-7.1521 14.9867 -1.5205 0.9355
-8.2053 14.9867 -1.5645 0.9337
-8.3261 14.9867 -1.5698 0.9335
-8.4478 14.9867 -1.5753 0.9332
-8.5704 14.9867 -1.5808 0.9330
-8.9434 14.9867 -1.5980 0.9323
-9.0695 14.9867 -1.6040 0.9321
-9.3247 14.9867 -1.6162 0.9316
-9.4538 14.9867 -1.6225 0.9313
-9.6877 14.9446 -1.6308 0.9310
-10.0503 15.0919 -1.6603 0.9298
-10.1856 15.0919 -1.6672 0.9295
-10.3220 15.0919 -1.6742 0.9292
-10.4596 15.0919 -1.6813 0.9289
-10.5984 15.0919 -1.6886 0.9286
-10.7383 15.0919 -1.6960 0.9283
-10.8549 15.0577 -1.6997 0.9282
-11.0220 15.0919 -1.7112 0.9277
-11.3108 15.0918 -1.7269 0.9270
-11.3527 14.9541 -1.7192 0.9274
-11.5243 14.9867 -1.7311 0.9269
-11.8221 14.9867 -1.7478 0.9262
-11.9732 14.9867 -1.7564 0.9258
-12.1257 14.9867 -1.7652 0.9255
-12.2799 14.9867 -1.7741 0.9251
-12.5929 14.9867 -1.7924 0.9244
-12.7518 14.9867 -1.8018 0.9240
-12.8193 14.6938 -1.7855 0.9247
-12.7141 14.0387 -1.7343 0.9267
-12.7141 13.8655 -1.7226 0.9272
-12.7141 13.6945 -1.7110 0.9277
-12.7141 13.5258 -1.6998 0.9281
-12.7141 13.1949 -1.6778 0.9290
-12.7141 13.0326 -1.6671 0.9295
-12.7141 12.4034 -1.6264 0.9311
-12.8264 12.3591 -1.6310 0.9310
-12.7141 11.9512 -1.5978 0.9323
-12.7141 11.6584 -1.5795 0.9331
-12.7141 11.3721 -1.5619 0.9338
-12.7141 11.0921 -1.5449 0.9345
-12.7141 10.9544 -1.5367 0.9348
-12.7141 10.6833 -1.5206 0.9355
-12.7141 10.4177 -1.5051 0.9361
-12.8192 10.2415 -1.5024 0.9362
-12.8192 10.1123 -1.4950 0.9365
-12.8192 9.9843 -1.4878 0.9368
-12.8192 9.8575 -1.4807 0.9371
-12.8192 9.2412 -1.4470 0.9385
-12.8192 8.8845 -1.4281 0.9393
-12.6622 8.6603 -1.4047 0.9402
-12.7140 8.4669 -1.3987 0.9405
-12.7140 8.2417 -1.3874 0.9410
-12.7140 8.1305 -1.3819 0.9412
-12.7140 7.8020 -1.3659 0.9418
-12.7140 7.5871 -1.3557 0.9423
-12.7140 7.4809 -1.3507 0.9425
-12.7140 7.3755 -1.3459 0.9427
-12.7140 6.9609 -1.3272 0.9434
-12.7140 6.4583 -1.3058 0.9443
-12.7140 6.2617 -1.2977 0.9447
-12.7140 6.1643 -1.2938 0.9448
-12.7140 6.0675 -1.2899 0.9450
-12.7140 5.9712 -1.2862 0.9451
-12.7140 5.5917 -1.2718 0.9457
-12.7140 5.4981 -1.2684 0.9459
-12.7140 5.3124 -1.2617 0.9462
-12.7140 5.2203 -1.2585 0.9463
-12.7140 5.0375 -1.2522 0.9466
-12.7140 4.9467 -1.2492 0.9467
-12.6622 4.7471 -1.2382 0.9471
-12.6622 4.5693 -1.2326 0.9474
-12.6622 4.4810 -1.2299 0.9475
-12.6622 4.3931 -1.2272 0.9476
-12.6622 4.2184 -1.2221 0.9478
-12.6622 4.1315 -1.2196 0.9479
-12.6622 3.9589 -1.2148 0.9481
-12.6622 3.8731 -1.2124 0.9482
-12.6622 3.6177 -1.2058 0.9485
-12.6622 3.4488 -1.2017 0.9487
-12.6622 3.2812 -1.1977 0.9488
-12.7140 2.9610 -1.1953 0.9489
-12.7140 2.8783 -1.1936 0.9490
-12.7140 2.7134 -1.1904 0.9491
-12.7140 2.6313 -1.1888 0.9492
-12.7140 2.5494 -1.1873 0.9492
-12.7140 2.2238 -1.1818 0.9495
-12.7140 1.9010 -1.1771 0.9497
-13.8539 1.2889 -1.2740 0.9456
-19.0448 1.2976 -1.7479 0.9262
-26.1637 1.4577 -2.3994 0.9001
-26.1366 1.2941 -2.3962 0.9002
-27.7216 1.2008 -2.5407 0.8945
-27.7284 1.0294 -2.5407 0.8945
-27.7387 0.6863 -2.5407 0.8945
-27.7423 0.5148 -2.5407 0.8945
-27.7448 0.3432 -2.5407 0.8945
-24.1532 0.0000 -2.3926 0.9075
-12.7140 -0.1572 -1.2595 0.9502
-12.7140 -0.2359 -1.2596 0.9502
-12.7140 -0.3146 -1.2598 0.9502
-12.7140 -0.5507 -1.2606 0.9501
-12.7140 -0.7872 -1.2618 0.9501
-12.7140 -0.8662 -1.2623 0.9501
-12.7140 -1.1035 -1.2642 0.9500
-12.7140 -1.5806 -1.2691 0.9498
-12.7140 -1.6605 -1.2701 0.9498
-12.7140 -1.7405 -1.2712 0.9497
-12.7140 -1.8207 -1.2723 0.9497
-12.6622 -2.0537 -1.2707 0.9497
-12.6622 -2.1341 -1.2720 0.9497
-12.7700 -2.4786 -1.2886 0.9491
-12.8191 -2.5705 -1.2951 0.9488
-12.8191 -2.6530 -1.2967 0.9487
-12.8191 -2.7358 -1.2984 0.9487
-12.8191 -2.9020 -1.3020 0.9485
-12.8191 -3.0692 -1.3057 0.9484
-12.8191 -3.1531 -1.3077 0.9483
-12.8191 -3.4066 -1.3139 0.9481
-12.8191 -3.4916 -1.3161 0.9480
-12.8191 -3.5769 -1.3183 0.9479
-12.6621 -3.6176 -1.3045 0.9484
-12.7140 -3.7176 -1.3122 0.9481
-12.7140 -3.8031 -1.3146 0.9481
-12.7140 -3.9751 -1.3195 0.9479
-12.7139 -4.3231 -1.3302 0.9475
-12.7139 -4.8564 -1.3482 0.9468
-12.7140 -5.1286 -1.3580 0.9464
-12.7140 -5.2203 -1.3614 0.9463
-12.7140 -5.5916 -1.3758 0.9457
-12.7139 -5.6857 -1.3796 0.9456
-12.7140 -6.1643 -1.3996 0.9448
-12.7139 -6.5575 -1.4171 0.9441
-12.7139 -6.6573 -1.4216 0.9439
-12.7139 -6.7579 -1.4263 0.9438
-12.7139 -6.8590 -1.4310 0.9436
-12.7139 -6.9609 -1.4358 0.9434
-12.6621 -7.3453 -1.4501 0.9429
-12.8191 -7.6498 -1.4787 0.9418
-12.8142 -7.8634 -1.4893 0.9414
-12.8191 -7.9760 -1.4956 0.9411
-12.8191 -8.0864 -1.5014 0.9409
-12.8191 -8.4228 -1.5194 0.9402
-12.8047 -8.9922 -1.5499 0.9390
-12.7140 -9.5287 -1.5739 0.9381
-12.7140 -9.7766 -1.5887 0.9376
-12.7140 -9.9023 -1.5963 0.9373
-12.7140 -10.2869 -1.6200 0.9364
-12.7140 -10.5497 -1.6365 0.9357
-12.7140 -10.6832 -1.6450 0.9354
-12.7140 -10.8180 -1.6536 0.9351
-14.3997 -12.4067 -1.8828 0.9264
-14.0446 -12.4067 -1.8563 0.9274
-13.8708 -12.4067 -1.8434 0.9279
-13.5832 -12.3015 -1.8153 0.9290
-13.4155 -12.3016 -1.8030 0.9294
-13.2501 -12.3016 -1.7910 0.9299
-12.9257 -12.3015 -1.7676 0.9308
-12.7667 -12.3015 -1.7562 0.9312
-12.7140 -12.4033 -1.7595 0.9311
-12.7140 -12.8722 -1.7922 0.9299
-12.7140 -13.0324 -1.8035 0.9294
-12.7140 -13.1947 -1.8151 0.9290
-12.7140 -13.5256 -1.8388 0.9281
-12.7140 -14.0386 -1.8762 0.9267
-12.6622 -14.1564 -1.8814 0.9265
-12.8191 -14.5114 -1.9180 0.9251
-12.7688 -15.0066 -1.9518 0.9239
-12.8191 -15.4489 -1.9886 0.9225
-12.7140 -16.3240 -2.0496 0.9202
-12.7140 -16.5339 -2.0660 0.9196
-12.7140 -16.7472 -2.0828 0.9190
-12.7140 -17.1844 -2.1175 0.9177
-12.7140 -17.6365 -2.1537 0.9163
-12.7140 -17.8684 -2.1723 0.9156
-12.7140 -18.3446 -2.2109 0.9142
-12.7140 -18.5891 -2.2309 0.9135
-12.7140 -19.0916 -2.2722 0.9119
-12.7140 -19.3500 -2.2935 0.9111
-12.6662 -19.5394 -2.3066 0.9106
-10.8382 -17.4192 -2.0322 0.9208
-10.6894 -17.4192 -2.0245 0.9211
-9.9615 -17.4192 -1.9877 0.9225
-9.8190 -17.4192 -1.9808 0.9228
-9.5371 -17.4192 -1.9672 0.9233
-9.3975 -17.4192 -1.9606 0.9235
-9.2589 -17.4192 -1.9541 0.9238
-8.9844 -17.4192 -1.9415 0.9242
-8.8484 -17.4192 -1.9354 0.9245
-8.7133 -17.4192 -1.9293 0.9247
-8.4456 -17.4192 -1.9176 0.9251
-8.1811 -17.4192 -1.9063 0.9256
-7.7900 -17.4192 -1.8902 0.9262
-7.5329 -17.4192 -1.8799 0.9266
-7.2785 -17.4192 -1.8701 0.9269
-6.9018 -17.4192 -1.8560 0.9275
-6.6537 -17.4192 -1.8471 0.9278
-6.5305 -17.4192 -1.8428 0.9280
-6.4079 -17.4192 -1.8386 0.9281
-6.0435 -17.4192 -1.8264 0.9286
-5.8031 -17.4192 -1.8187 0.9289
-5.6837 -17.4192 -1.8150 0.9290
-5.5647 -17.4192 -1.8114 0.9291
-4.9768 -17.4192 -1.7946 0.9298
-4.8604 -17.4192 -1.7914 0.9299
-4.7446 -17.4192 -1.7884 0.9300
-4.6290 -17.4192 -1.7854 0.9301
-4.5139 -17.4192 -1.7825 0.9302
-4.3991 -17.4192 -1.7797 0.9303
-4.1706 -17.4192 -1.7743 0.9305
-3.9435 -17.4192 -1.7692 0.9307
-2.9359 -17.4192 -1.7498 0.9315
-2.6046 -17.4192 -1.7447 0.9317
-2.4945 -17.4192 -1.7431 0.9317
-2.3847 -17.4192 -1.7416 0.9318
-2.1655 -17.4192 -1.7388 0.9319
-1.8381 -17.4192 -1.7351 0.9320
-1.6205 -17.4192 -1.7330 0.9321
-0.8625 -17.4192 -1.7276 0.9323
-0.6466 -17.4192 -1.7267 0.9323
-0.5388 -17.4192 -1.7263 0.9323
-0.4310 -17.4192 -1.7260 0.9324
-0.3232 -17.4191 -1.7258 0.9324
-0.1077 -17.4191 -1.7255 0.9324
0.2155 -17.4191 -1.7256 0.9324
0.3232 -17.4192 -1.7258 0.9324
0.4310 -17.4192 -1.7260 0.9324
0.7545 -17.4192 -1.7271 0.9323
0.8625 -17.4192 -1.7276 0.9323
0.9705 -17.4192 -1.7282 0.9323
1.1868 -17.4191 -1.7295 0.9322
1.2951 -17.4191 -1.7303 0.9322
1.7292 -17.4192 -1.7340 0.9321
1.9471 -17.4192 -1.7363 0.9320
2.0562 -17.4192 -1.7375 0.9319
2.2750 -17.4192 -1.7402 0.9318
2.3846 -17.4192 -1.7416 0.9318
2.4945 -17.4192 -1.7431 0.9317
2.6045 -17.4192 -1.7447 0.9317
2.7148 -17.4192 -1.7463 0.9316
2.8252 -17.4191 -1.7481 0.9315
2.9359 -17.4191 -1.7498 0.9315
3.2693 -17.4192 -1.7556 0.9312
3.3810 -17.4191 -1.7577 0.9312
3.8303 -17.4191 -1.7667 0.9308
3.9434 -17.4191 -1.7692 0.9307
4.2846 -17.4191 -1.7769 0.9304
4.5138 -17.4191 -1.7825 0.9302
4.8522 -16.9835 -1.7497 0.9315
4.9574 -16.2070 -1.6789 0.9341
4.9071 -15.6948 -1.6289 0.9360
4.9083 -15.3644 -1.5977 0.9372
4.8523 -14.2702 -1.4931 0.9412
4.8523 -13.1904 -1.3922 0.9451
4.8523 -12.9429 -1.3692 0.9460
4.8523 -12.7033 -1.3470 0.9468
4.8523 -12.4714 -1.3256 0.9476
4.8523 -12.2467 -1.3049 0.9484
4.8523 -12.0289 -1.2849 0.9492
4.8005 -11.2920 -1.2155 0.9519
4.8325 -10.9878 -1.1890 0.9529
4.8523 -10.8503 -1.1774 0.9533
4.8523 -10.1677 -1.1160 0.9557
4.8523 -10.0080 -1.1018 0.9563
4.8523 -9.8523 -1.0879 0.9568
4.8523 -9.7005 -1.0744 0.9573
4.8523 -9.5524 -1.0613 0.9578
4.8523 -9.4079 -1.0486 0.9583
4.8523 -9.2668 -1.0362 0.9588
4.8523 -9.1289 -1.0241 0.9593
4.8523 -8.9943 -1.0123 0.9598
4.8523 -8.6081 -0.9788 0.9611
4.8523 -8.2467 -0.9478 0.9623
4.8523 -8.1312 -0.9380 0.9627
4.8523 -7.7987 -0.9098 0.9638
4.8523 -7.6922 -0.9009 0.9641
4.8523 -7.3850 -0.8753 0.9651
4.8523 -7.2864 -0.8672 0.9654
4.8523 -7.1896 -0.8592 0.9657
4.8523 -7.0946 -0.8514 0.9660
4.8523 -7.0013 -0.8438 0.9663
4.8523 -6.9096 -0.8364 0.9666
4.8523 -6.6440 -0.8150 0.9675
4.8523 -6.3102 -0.7885 0.9685
4.8523 -6.0736 -0.7701 0.9692
4.8523 -5.9219 -0.7584 0.9697
4.8523 -5.7747 -0.7472 0.9701
4.8523 -5.7027 -0.7417 0.9704
4.8523 -5.4249 -0.7210 0.9712
4.8523 -5.2265 -0.7065 0.9717
4.8523 -4.9739 -0.6883 0.9725
4.8523 -4.9127 -0.6840 0.9726
4.8523 -4.7338 -0.6715 0.9731
4.8523 -4.5612 -0.6597 0.9736
4.8523 -4.5050 -0.6559 0.9737
4.8523 -4.3945 -0.6485 0.9740
4.8523 -4.1808 -0.6345 0.9746
4.8523 -4.1287 -0.6311 0.9747
4.8523 -3.9759 -0.6214 0.9751
4.8523 -3.9260 -0.6183 0.9752
4.8523 -3.6367 -0.6007 0.9759
4.8524 -3.5900 -0.5979 0.9760
4.8523 -3.4980 -0.5925 0.9762
4.8523 -3.4526 -0.5899 0.9763
4.8523 -3.4076 -0.5873 0.9764
4.8523 -3.3630 -0.5848 0.9765
4.8523 -3.3187 -0.5823 0.9766
4.8523 -3.1454 -0.5728 0.9770
4.8523 -3.1030 -0.5705 0.9771
4.8523 -2.9776 -0.5639 0.9774
4.8523 -2.9365 -0.5618 0.9775
4.8524 -2.8956 -0.5597 0.9775
4.8524 -2.8148 -0.5557 0.9777
4.8523 -2.7749 -0.5537 0.9778
4.8523 -2.6567 -0.5480 0.9780
4.8523 -2.6178 -0.5462 0.9781
4.8523 -2.5792 -0.5443 0.9782
4.8523 -2.5408 -0.5426 0.9782
4.8523 -2.4272 -0.5374 0.9784
4.8523 -2.3898 -0.5358 0.9785
4.8523 -2.3526 -0.5342 0.9786
5.0280 -2.3236 -0.5487 0.9780
5.1108 -2.3236 -0.5561 0.9777
5.1958 -2.3236 -0.5638 0.9774
5.2832 -2.3236 -0.5717 0.9771
5.5610 -2.3236 -0.5970 0.9761
6.0832 -2.3236 -0.6450 0.9742
6.3164 -2.3236 -0.6667 0.9733
6.4391 -2.3236 -0.6781 0.9729
6.5660 -2.3236 -0.6899 0.9724
6.8336 -2.3236 -0.7150 0.9714
6.9748 -2.3236 -0.7282 0.9709
7.1213 -2.3236 -0.7420 0.9703
7.2736 -2.3236 -0.7564 0.9698
7.4318 -2.3236 -0.7713 0.9692
7.5965 -2.3236 -0.7869 0.9686
7.7679 -2.3236 -0.8032 0.9679
8.1329 -2.3236 -0.8379 0.9666
8.7439 -2.3236 -0.8962 0.9643
9.7050 -2.3236 -0.9885 0.9607
10.2640 -2.3236 -1.0425 0.9586
10.5671 -2.3236 -1.0718 0.9574
12.7220 -2.3877 -1.2822 0.9493
25.3107 -4.5886 -2.5481 0.9018
25.3387 -4.4320 -2.5481 0.9018
25.3920 -4.1183 -2.5481 0.9018
25.4412 -3.8040 -2.5482 0.9018
25.4644 -3.6466 -2.5482 0.9018
25.5281 -3.1736 -2.5482 0.9018
25.5830 -2.6995 -2.5483 0.9018
25.5994 -2.5413 -2.5483 0.9018
25.6147 -2.3829 -2.5483 0.9018
25.6291 -2.2245 -2.5483 0.9018
25.6550 -1.9074 -2.5483 0.9018
25.6769 -1.5899 -2.5484 0.9018
25.6863 -1.4309 -2.5484 0.9018
25.6948 -1.2721 -2.5484 0.9018
25.7023 -1.1132 -2.5484 0.9018
25.7088 -0.9542 -2.5484 0.9018
25.7144 -0.7952 -2.5484 0.9018
25.7190 -0.6363 -2.5484 0.9018
25.7225 -0.4772 -2.5485 0.9018
25.7251 -0.3182 -2.5485 0.9018
25.7267 -0.1591 -2.5485 0.9018
25.7270 0.1591 -2.5485 0.9018
25.7256 0.3182 -2.5485 0.9018
25.7233 0.4773 -2.5485 0.9018
25.7199 0.6364 -2.5485 0.9018
25.7040 1.1135 -2.5486 0.9018
25.6967 1.2723 -2.5486 0.9018
25.6885 1.4313 -2.5486 0.9018
25.6691 1.7489 -2.5486 0.9017
25.6578 1.9076 -2.5486 0.9017
25.6456 2.0662 -2.5486 0.9017
25.6031 2.5414 -2.5487 0.9017
25.5870 2.6998 -2.5487 0.9017
25.5700 2.8581 -2.5487 0.9017
25.5328 3.1742 -2.5487 0.9017
25.5129 3.3321 -2.5487 0.9017
25.4699 3.6474 -2.5487 0.9017
25.4469 3.8049 -2.5487 0.9017
25.4229 3.9622 -2.5487 0.9017
12.6220 2.0472 -1.2666 0.9499
9.2917 1.9830 -0.9411 0.9625
8.5146 1.9830 -0.8660 0.9655
8.0619 1.9830 -0.8224 0.9672
7.4622 1.9830 -0.7648 0.9694
7.1069 1.9830 -0.7309 0.9708
6.9407 1.9830 -0.7150 0.9714
6.6292 1.9830 -0.6854 0.9726
6.3424 1.9830 -0.6583 0.9736
6.0775 1.9830 -0.6333 0.9746
5.7156 1.9830 -0.5993 0.9760
5.6035 1.9830 -0.5888 0.9764
5.4952 1.9830 -0.5787 0.9768
5.2894 1.9830 -0.5596 0.9775
4.8296 1.9830 -0.5172 0.9792
4.7523 1.9857 -0.5102 0.9795
4.7523 2.0204 -0.5115 0.9795
4.7523 2.0551 -0.5129 0.9794
4.7523 2.1253 -0.5157 0.9793
4.7523 2.1607 -0.5171 0.9792
4.7523 2.1962 -0.5186 0.9792
4.7523 2.2320 -0.5201 0.9791
4.7523 2.3042 -0.5232 0.9790
4.7523 2.3406 -0.5248 0.9789
4.7523 2.3772 -0.5264 0.9789
4.7523 2.4140 -0.5280 0.9788
4.7523 2.4511 -0.5297 0.9787
4.7523 2.5638 -0.5349 0.9785
4.7523 2.6019 -0.5367 0.9785
4.7523 2.6403 -0.5385 0.9784
4.7523 2.7963 -0.5462 0.9781
4.7523 2.9163 -0.5523 0.9778
4.7523 2.9569 -0.5544 0.9778
4.7523 3.1648 -0.5656 0.9773
4.7523 3.2074 -0.5679 0.9772
4.7523 3.2504 -0.5703 0.9771
4.7523 3.2937 -0.5728 0.9770
4.7523 3.3814 -0.5778 0.9768
4.7523 3.4259 -0.5803 0.9767
4.7523 3.5161 -0.5856 0.9765
4.7523 3.7488 -0.5996 0.9760
4.7523 3.7967 -0.6025 0.9758
4.7523 3.8451 -0.6055 0.9757
4.7523 3.8940 -0.6086 0.9756
4.7523 4.0436 -0.6181 0.9752
4.7523 4.4671 -0.6461 0.9741
4.7523 4.5228 -0.6499 0.9740
4.7523 4.5792 -0.6537 0.9738
4.7523 4.6362 -0.6577 0.9737
4.7523 4.6939 -0.6617 0.9735
4.7523 4.8115 -0.6699 0.9732
4.7523 4.9934 -0.6828 0.9727
4.7523 5.0557 -0.6873 0.9725
4.7523 5.1188 -0.6919 0.9723
4.7523 5.1827 -0.6965 0.9721
4.7523 5.2474 -0.7013 0.9719
4.7523 5.3131 -0.7061 0.9718
4.7523 5.4472 -0.7161 0.9714
4.7523 5.5852 -0.7264 0.9710
4.7523 5.7272 -0.7372 0.9705
4.7523 5.8736 -0.7484 0.9701
4.7523 5.9484 -0.7542 0.9699
4.7522 6.1801 -0.7723 0.9691
4.7522 6.3409 -0.7849 0.9687
4.7522 6.4233 -0.7915 0.9684
4.7522 6.5923 -0.8050 0.9679
4.7522 6.6789 -0.8120 0.9676
4.7522 6.9483 -0.8339 0.9667
4.7522 7.0414 -0.8415 0.9664
4.7522 7.3311 -0.8654 0.9655
4.7522 7.5336 -0.8823 0.9648
4.7522 7.6379 -0.8911 0.9645
4.7522 7.8528 -0.9092 0.9638
4.7522 7.9635 -0.9186 0.9634
4.7522 8.0766 -0.9283 0.9630
4.7522 8.3101 -0.9483 0.9623
4.7522 8.4306 -0.9587 0.9618
4.7522 9.2138 -1.0269 0.9592
4.7522 9.3554 -1.0394 0.9587
4.7522 9.6491 -1.0655 0.9577
4.7522 9.8015 -1.0790 0.9572
4.7522 9.9579 -1.0930 0.9566
4.7522 10.4525 -1.1374 0.9549
4.7522 10.6264 -1.1531 0.9543
4.7522 10.8052 -1.1693 0.9537
4.7522 11.3732 -1.2210 0.9517
4.7522 11.5739 -1.2394 0.9510
4.7522 12.2140 -1.2982 0.9487
4.7522 12.4411 -1.3192 0.9479
4.7522 12.6757 -1.3410 0.9470
4.7672 12.9591 -1.3678 0.9460
4.7521 13.4285 -1.4110 0.9444
4.7521 13.6972 -1.4362 0.9434
4.7521 13.9757 -1.4622 0.9424
4.7521 14.2645 -1.4894 0.9414
4.7238 14.7871 -1.5377 0.9395
4.6976 15.0247 -1.5594 0.9387
4.5958 15.0248 -1.5564 0.9388
4.2926 15.0247 -1.5479 0.9391
4.0923 15.0248 -1.5425 0.9393
3.9927 15.0248 -1.5400 0.9394
3.8934 15.0247 -1.5375 0.9395
3.4252 15.1299 -1.5367 0.9395
3.1313 15.1299 -1.5305 0.9398
3.0338 15.1299 -1.5286 0.9399
2.5500 15.1299 -1.5199 0.9402
2.2622 15.1299 -1.5154 0.9404
1.9760 15.1299 -1.5115 0.9405
1.8614 14.9729 -1.4946 0.9412
1.7736 15.0247 -1.4986 0.9410
1.6794 15.0247 -1.4976 0.9410
1.5854 15.0247 -1.4966 0.9411
1.3041 15.0247 -1.4939 0.9412
1.2105 15.0247 -1.4931 0.9412
0.9304 15.0247 -1.4912 0.9413
0.8371 15.0247 -1.4906 0.9413
0.6508 15.0247 -1.4897 0.9413
0.5578 15.0247 -1.4893 0.9414
0.1858 15.0247 -1.4884 0.9414
0.0000 15.0247 -1.4883 0.9414
-0.2788 15.0247 -1.4886 0.9414
-0.3718 15.0247 -1.4888 0.9414
-0.4648 15.0247 -1.4890 0.9414
-0.6508 15.0247 -1.4897 0.9413
-0.8371 15.0247 -1.4906 0.9413
-1.3978 15.0247 -1.4947 0.9411
-1.4916 15.0247 -1.4956 0.9411
-1.5854 15.0247 -1.4966 0.9411
-1.8645 14.9972 -1.4970 0.9411
-2.0713 15.1298 -1.5127 0.9405
-2.1667 15.1298 -1.5140 0.9404
-2.2622 15.1298 -1.5154 0.9404
-2.3580 15.1298 -1.5168 0.9403
-2.5259 14.9868 -1.5055 0.9407
-2.6214 14.9868 -1.5071 0.9407
-2.7170 14.9868 -1.5088 0.9406
-2.8128 14.9868 -1.5105 0.9405
-3.0052 14.9868 -1.5141 0.9404
-3.1985 14.9868 -1.5180 0.9403
-3.2955 14.9868 -1.5200 0.9402
-3.8836 14.9868 -1.5336 0.9397
-3.9826 14.9868 -1.5361 0.9396
-4.1817 14.9868 -1.5413 0.9394
-4.2778 14.9728 -1.5425 0.9393
-4.3933 15.0247 -1.5506 0.9390
-4.4944 15.0247 -1.5535 0.9389
-4.5958 15.0247 -1.5564 0.9388
-4.7998 15.0247 -1.5624 0.9386
-4.9024 15.0247 -1.5655 0.9384
-5.0054 15.0247 -1.5687 0.9383
-5.1088 15.0247 -1.5720 0.9382
-5.3170 15.0247 -1.5788 0.9379
-5.4218 15.0247 -1.5822 0.9378
-5.7427 15.0342 -1.5942 0.9374
-6.1535 14.9867 -1.6048 0.9370
-6.2621 14.9867 -1.6089 0.9368
-6.3712 14.9867 -1.6131 0.9366
-6.5913 14.9867 -1.6218 0.9363
-7.0386 14.9867 -1.6401 0.9356
-7.1521 14.9867 -1.6449 0.9354
-7.2662 14.9867 -1.6498 0.9352
-7.4965 14.9867 -1.6599 0.9349
-7.7297 14.9867 -1.6704 0.9345
-7.8475 14.9867 -1.6758 0.9343
-8.0852 14.9867 -1.6868 0.9338
-8.4478 14.9867 -1.7042 0.9332
-8.5704 14.9867 -1.7102 0.9330
-8.6938 14.9867 -1.7163 0.9327
-9.1966 14.9867 -1.7418 0.9318
-9.3247 14.9867 -1.7484 0.9315
-9.4537 14.9867 -1.7552 0.9313
-9.5838 14.9867 -1.7621 0.9310
-9.6877 14.9447 -1.7642 0.9309
-10.3221 15.0918 -1.8112 0.9291
-10.4596 15.0918 -1.8189 0.9289
-11.5242 14.9867 -1.8727 0.9268
-11.8221 14.9867 -1.8908 0.9261
-11.9731 14.9867 -1.9001 0.9258
-12.1257 14.9867 -1.9096 0.9254
-12.4356 14.9867 -1.9291 0.9247
-12.7518 14.9867 -1.9492 0.9240
-12.7720 14.8236 -1.9383 0.9244
-12.8193 14.5117 -1.9180 0.9251
-12.7142 14.0388 -1.8762 0.9267
-12.7141 13.6945 -1.8511 0.9276
-12.7141 13.5258 -1.8388 0.9281
-12.7141 13.1949 -1.8151 0.9290
-12.7141 13.0326 -1.8036 0.9294
-12.7141 12.7141 -1.7811 0.9303
-12.7141 12.5578 -1.7702 0.9307
-12.8264 12.3591 -1.7644 0.9309
-12.7141 12.1002 -1.7386 0.9319
-12.7141 11.9512 -1.7285 0.9323
-12.7141 11.6584 -1.7088 0.9330
-12.7141 11.3721 -1.6897 0.9337
-12.7141 11.2314 -1.6805 0.9341
-12.7141 10.9544 -1.6624 0.9348
-12.7141 10.8181 -1.6536 0.9351
-12.7141 10.6833 -1.6450 0.9354
-12.7141 10.5498 -1.6365 0.9357
-12.7141 10.4177 -1.6282 0.9361
-12.6623 10.2451 -1.6134 0.9366
-12.7783 10.2088 -1.6201 0.9364
-12.7750 9.9499 -1.6040 0.9370
-12.7735 9.8224 -1.5962 0.9373
-12.8192 9.4844 -1.5796 0.9379
-12.8192 9.2412 -1.5654 0.9385
-12.7141 8.3538 -1.5070 0.9407
-12.7141 8.2417 -1.5009 0.9409
-12.7140 8.0201 -1.4891 0.9414
-12.7140 7.5871 -1.4666 0.9422
-12.7140 7.4809 -1.4613 0.9424
-12.7140 7.3755 -1.4560 0.9426
-12.7140 6.8591 -1.4310 0.9436
-12.7140 6.7579 -1.4263 0.9438
-12.7140 6.6574 -1.4216 0.9439
-12.7140 6.5576 -1.4171 0.9441
-12.7140 6.4583 -1.4126 0.9443
-12.7140 5.7804 -1.3835 0.9454
-12.7140 5.4050 -1.3685 0.9460
-12.7140 5.1287 -1.3580 0.9464
-12.7140 5.0375 -1.3547 0.9465
-12.7140 4.9467 -1.3514 0.9466
-12.6622 4.8367 -1.3427 0.9470
-12.8191 4.7158 -1.3530 0.9466
-12.8191 4.6259 -1.3500 0.9467
-12.8191 4.4475 -1.3441 0.9469
-12.7700 4.3422 -1.3361 0.9472
-12.8191 4.2707 -1.3385 0.9471
-12.8191 4.1827 -1.3357 0.9472
-12.8191 4.0952 -1.3331 0.9473
-12.8191 4.0080 -1.3305 0.9474
-12.8191 3.9211 -1.3279 0.9475
-12.8191 3.5769 -1.3183 0.9479
-12.8191 3.4916 -1.3161 0.9480
-12.8191 3.4066 -1.3139 0.9481
-12.6622 3.1978 -1.2937 0.9489
-12.7140 3.1273 -1.2970 0.9487
-12.7140 3.0441 -1.2950 0.9488
-12.7140 2.9611 -1.2931 0.9489
-12.7140 2.8783 -1.2913 0.9490
-12.7140 2.7957 -1.2895 0.9490
-12.7140 2.6313 -1.2861 0.9492
-12.7140 2.5494 -1.2845 0.9492
-12.7140 2.4678 -1.2829 0.9493
-12.7140 2.3050 -1.2799 0.9494
-12.7140 2.1429 -1.2772 0.9495
-12.7140 2.0621 -1.2759 0.9495
-12.7140 1.9010 -1.2734 0.9496
-12.7140 1.8207 -1.2723 0.9497
-12.7140 1.7405 -1.2712 0.9497
-12.7140 1.6605 -1.2701 0.9498
-12.7140 1.5806 -1.2691 0.9498
-12.7140 1.5008 -1.2682 0.9498
-12.7140 1.4212 -1.2673 0.9499
-12.7140 1.3416 -1.2664 0.9499
-13.5046 1.3406 -1.3443 0.9469
-15.2696 1.4205 -1.5191 0.9402
-16.6393 1.3406 -1.6536 0.9351
-17.3797 1.2922 -1.7264 0.9323
-24.1185 1.3438 -2.3928 0.9075
-24.1325 1.0454 -2.3928 0.9075
-24.1517 0.2988 -2.3926 0.9075
-24.1529 0.1494 -2.3926 0.9075
-22.4675 0.0000 -2.3942 0.9136
-13.6046 -0.0841 -1.4497 0.9467
-12.7140 -0.1572 -1.3549 0.9501
-12.7140 -0.2359 -1.3550 0.9501
-12.7140 -0.4720 -1.3557 0.9501
-12.7140 -0.6295 -1.3565 0.9501
-12.7140 -0.7084 -1.3569 0.9501
-12.7140 -1.0243 -1.3592 0.9500
-12.7140 -1.2621 -1.3615 0.9499
-12.7140 -1.3416 -1.3623 0.9499
-12.7140 -1.7405 -1.3675 0.9497
-12.8191 -2.0791 -1.3839 0.9491
-12.8191 -2.1606 -1.3853 0.9490
-12.7700 -2.4786 -1.3862 0.9490
-12.8191 -2.9021 -1.4006 0.9485
-12.8191 -2.9855 -1.4026 0.9484
-12.8191 -3.3218 -1.4111 0.9481
-12.8191 -3.4066 -1.4134 0.9480
-12.6622 -3.6176 -1.4033 0.9484
-12.7140 -3.8031 -1.4141 0.9480
-12.7140 -3.8889 -1.4168 0.9479
-12.7140 -3.9751 -1.4195 0.9478
-12.7140 -4.0616 -1.4223 0.9477
-12.7140 -4.2356 -1.4280 0.9475
-12.7140 -4.3231 -1.4310 0.9474
-12.7140 -4.4993 -1.4371 0.9472
-12.7140 -4.6770 -1.4436 0.9470
-12.7140 -4.8564 -1.4503 0.9467
-12.7140 -4.9467 -1.4537 0.9466
-12.7140 -5.2203 -1.4646 0.9462
-12.7140 -5.3124 -1.4683 0.9461
-12.7140 -5.4980 -1.4761 0.9458
-12.7140 -5.6857 -1.4841 0.9455
-12.7140 -5.8755 -1.4925 0.9452
-12.7140 -5.9712 -1.4968 0.9451
-12.7140 -6.0674 -1.5012 0.9449
-12.7140 -6.1643 -1.5057 0.9447
-12.7140 -6.3597 -1.5149 0.9444
-12.7140 -6.4583 -1.5196 0.9443
-12.7140 -6.5575 -1.5244 0.9441
-12.7140 -6.7579 -1.5343 0.9437
-12.7140 -6.8590 -1.5394 0.9435
-12.7140 -6.9609 -1.5446 0.9434
-12.8191 -7.5427 -1.5849 0.9419
-12.7628 -7.7237 -1.5897 0.9418
-12.7642 -7.8327 -1.5958 0.9415
-12.7683 -8.1652 -1.6150 0.9409
-12.7697 -8.2778 -1.6216 0.9406
-12.7700 -8.5041 -1.6349 0.9401
-12.8191 -8.8844 -1.6620 0.9392
-12.7140 -9.5287 -1.6931 0.9381
-12.7140 -9.9023 -1.7173 0.9372
-12.7140 -10.0292 -1.7256 0.9369
-12.7140 -10.1574 -1.7341 0.9366
-12.7140 -10.2869 -1.7427 0.9363
-12.7140 -10.4176 -1.7515 0.9360
-12.7140 -10.5497 -1.7605 0.9357
-12.7140 -10.6832 -1.7696 0.9354
-13.5832 -12.3016 -1.9528 0.9289
-13.4156 -12.3016 -1.9396 0.9294
-13.2501 -12.3015 -1.9266 0.9299
-12.9258 -12.3016 -1.9015 0.9307
-12.7667 -12.3016 -1.8892 0.9312
-12.7140 -14.0386 -2.0183 0.9266
-12.6622 -14.1564 -2.0239 0.9264
-12.8192 -14.5115 -2.0633 0.9251
-12.7949 -14.6658 -2.0740 0.9247
-12.8191 -14.8784 -2.0928 0.9240
-12.8192 -15.0658 -2.1079 0.9235
-12.8192 -15.2560 -2.1234 0.9230
-12.8192 -15.4489 -2.1392 0.9224
-12.8192 -15.6448 -2.1553 0.9219
-12.6622 -15.8491 -2.1617 0.9216
-12.7140 -16.3240 -2.2049 0.9201
-12.7140 -16.5339 -2.2225 0.9195
-12.7140 -16.7472 -2.2406 0.9189
-12.7140 -17.1845 -2.2779 0.9176
-12.7140 -17.4086 -2.2971 0.9169
-12.7140 -17.6366 -2.3168 0.9163
-12.7140 -17.8685 -2.3369 0.9156
-12.7140 -18.1045 -2.3574 0.9149
-12.7140 -18.3446 -2.3784 0.9141
-12.6753 -18.5325 -2.3926 0.9136
-12.5604 -18.6105 -2.3926 0.9136
-10.8382 -17.4192 -2.1862 0.9208
-10.5416 -17.4192 -2.1697 0.9214
-10.2495 -17.4192 -2.1537 0.9219
-10.1050 -17.4192 -2.1459 0.9222
-9.9615 -17.4192 -2.1383 0.9225
-9.8191 -17.4192 -2.1308 0.9227
-9.5371 -17.4192 -2.1162 0.9232
-8.7133 -17.4192 -2.0755 0.9246
-8.4456 -17.4192 -2.0629 0.9251
-8.1811 -17.4192 -2.0507 0.9255
-7.9196 -17.4192 -2.0390 0.9259
-7.7900 -17.4192 -2.0334 0.9261
-7.6611 -17.4192 -2.0278 0.9263
-7.5329 -17.4192 -2.0223 0.9265
-7.0267 -17.4192 -2.0015 0.9272
-6.9017 -17.4192 -1.9966 0.9274
-6.7774 -17.4192 -1.9918 0.9276
-6.6537 -17.4192 -1.9870 0.9277
-6.5305 -17.4192 -1.9824 0.9279
-6.4079 -17.4192 -1.9778 0.9281
-6.2859 -17.4192 -1.9734 0.9282
-6.1644 -17.4192 -1.9690 0.9284
-5.8031 -17.4192 -1.9565 0.9288
-5.6837 -17.4192 -1.9525 0.9289
-5.4462 -17.4192 -1.9448 0.9292
-4.8604 -17.4192 -1.9271 0.9298
-4.6290 -17.4192 -1.9206 0.9301
-4.5139 -17.4192 -1.9175 0.9302
-4.2847 -17.4192 -1.9115 0.9304
-3.9435 -17.4192 -1.9032 0.9307
-3.7176 -17.4192 -1.8980 0.9309
-3.6051 -17.4192 -1.8955 0.9309
-3.3810 -17.4192 -1.8908 0.9311
-3.2693 -17.4192 -1.8886 0.9312
-3.0468 -17.4192 -1.8844 0.9313
-2.8252 -17.4192 -1.8805 0.9315
-2.6046 -17.4192 -1.8768 0.9316
-2.2750 -17.4192 -1.8720 0.9318
-2.1655 -17.4192 -1.8705 0.9318
-2.0562 -17.4192 -1.8691 0.9319
-1.9471 -17.4192 -1.8678 0.9319
-1.7293 -17.4192 -1.8653 0.9320
-1.5120 -17.4192 -1.8632 0.9321
-1.2951 -17.4192 -1.8613 0.9321
-1.1868 -17.4192 -1.8605 0.9322
-1.0786 -17.4192 -1.8598 0.9322
-0.8625 -17.4192 -1.8585 0.9322
-0.6467 -17.4192 -1.8575 0.9323
-0.5388 -17.4192 -1.8571 0.9323
-0.4310 -17.4192 -1.8568 0.9323
-0.1077 -17.4192 -1.8562 0.9323
0.0000 -17.4192 -1.8562 0.9323
0.1077 -17.4192 -1.8562 0.9323
0.3232 -17.4192 -1.8565 0.9323
0.6466 -17.4192 -1.8575 0.9323
0.8625 -17.4192 -1.8585 0.9322
0.9705 -17.4192 -1.8591 0.9322
1.0786 -17.4192 -1.8598 0.9322
1.1868 -17.4192 -1.8605 0.9322
1.2950 -17.4192 -1.8613 0.9321
1.6205 -17.4192 -1.8642 0.9320
1.7292 -17.4192 -1.8653 0.9320
1.8381 -17.4191 -1.8665 0.9320
1.9471 -17.4192 -1.8678 0.9319
2.1655 -17.4191 -1.8705 0.9318
2.2750 -17.4192 -1.8720 0.9318
2.3846 -17.4192 -1.8735 0.9317
2.4945 -17.4192 -1.8751 0.9317
2.8252 -17.4192 -1.8805 0.9315
2.9359 -17.4191 -1.8824 0.9314
3.1579 -17.4192 -1.8865 0.9313
3.2693 -17.4191 -1.8886 0.9312
3.3810 -17.4191 -1.8908 0.9311
3.6051 -17.4192 -1.8955 0.9309
3.9434 -17.4192 -1.9032 0.9307
4.2846 -17.4192 -1.9115 0.9304
4.5138 -17.4191 -1.9175 0.9302
4.7445 -17.4191 -1.9238 0.9300
4.8522 -16.9834 -1.8822 0.9314
4.9574 -16.2070 -1.8060 0.9341
4.8349 -14.8180 -1.6609 0.9392
4.8523 -14.2702 -1.6061 0.9412
4.8523 -13.7114 -1.5499 0.9432
4.8523 -12.7032 -1.4491 0.9468
4.8523 -12.2467 -1.4037 0.9484
4.8523 -11.8177 -1.3613 0.9499
4.8523 -11.6128 -1.3412 0.9506
4.8005 -10.5588 -1.2360 0.9544
4.8005 -10.3878 -1.2194 0.9550
4.8005 -10.2213 -1.2033 0.9556
4.8061 -10.0709 -1.1891 0.9561
4.8523 -10.0080 -1.1852 0.9562
4.8523 -9.8523 -1.1703 0.9568
4.8523 -9.1289 -1.1017 0.9593
4.8523 -8.9942 -1.0890 0.9597
4.8523 -8.8626 -1.0767 0.9602
4.8523 -8.6081 -1.0530 0.9610
4.8523 -8.3646 -1.0305 0.9618
4.8523 -8.2467 -1.0196 0.9622
4.8523 -8.1312 -1.0090 0.9626
4.8523 -7.9073 -0.9886 0.9634
4.8523 -7.6922 -0.9691 0.9641
4.8523 -7.2863 -0.9329 0.9654
4.8523 -7.0946 -0.9159 0.9660
4.8523 -7.0013 -0.9077 0.9663
4.8523 -6.9096 -0.8997 0.9666
4.8523 -6.8195 -0.8919 0.9669
4.8523 -6.7310 -0.8842 0.9672
4.8523 -6.6440 -0.8767 0.9674
4.8523 -6.3916 -0.8551 0.9682
4.8523 -6.1512 -0.8349 0.9690
4.8523 -5.9972 -0.8221 0.9694
4.8523 -5.9219 -0.8158 0.9697
4.8523 -5.8477 -0.8097 0.9699
4.8523 -5.7747 -0.8038 0.9701
4.8523 -5.6318 -0.7922 0.9705
4.8523 -5.4929 -0.7810 0.9709
4.8523 -5.4249 -0.7756 0.9711
4.8523 -5.3579 -0.7703 0.9713
4.8523 -5.2265 -0.7600 0.9717
4.8523 -4.9739 -0.7405 0.9724
4.8523 -4.7927 -0.7268 0.9729
4.8523 -4.5050 -0.7056 0.9737
4.8523 -4.4494 -0.7015 0.9739
4.8523 -4.3402 -0.6937 0.9742
4.8523 -4.2333 -0.6862 0.9744
4.8523 -4.1807 -0.6825 0.9746
4.8523 -4.1287 -0.6789 0.9747
4.8523 -4.0773 -0.6754 0.9748
4.8523 -3.9260 -0.6651 0.9752
4.8523 -3.6837 -0.6492 0.9758
4.8523 -3.6367 -0.6462 0.9759
4.8523 -3.4526 -0.6346 0.9763
4.8523 -3.4076 -0.6318 0.9764
4.8523 -3.3630 -0.6291 0.9765
4.8523 -3.3187 -0.6264 0.9766
4.8523 -3.2749 -0.6238 0.9767
4.8523 -3.1883 -0.6187 0.9769
4.8523 -3.1455 -0.6162 0.9770
4.8523 -2.8956 -0.6021 0.9775
4.8523 -2.8551 -0.5999 0.9776
4.8523 -2.8148 -0.5978 0.9777
4.8524 -2.7352 -0.5936 0.9778
4.8523 -2.6958 -0.5915 0.9779
4.8523 -2.6178 -0.5875 0.9781
4.8523 -2.5408 -0.5837 0.9782
4.8523 -2.4648 -0.5800 0.9783
4.8523 -2.3898 -0.5764 0.9785
4.8689 -2.3236 -0.5749 0.9785
5.0280 -2.3236 -0.5902 0.9780
5.1958 -2.3236 -0.6065 0.9774
5.4657 -2.3236 -0.6329 0.9764
5.8645 -2.3236 -0.6722 0.9749
6.0832 -2.3236 -0.6939 0.9741
6.3165 -2.3236 -0.7172 0.9733
6.4391 -2.3236 -0.7295 0.9728
6.5660 -2.3236 -0.7422 0.9724
6.6974 -2.3236 -0.7554 0.9719
6.8336 -2.3236 -0.7691 0.9714
7.4319 -2.3236 -0.8297 0.9692
7.5965 -2.3236 -0.8465 0.9685
7.7679 -2.3236 -0.8640 0.9679
8.3276 -2.3236 -0.9213 0.9658
8.7439 -2.3236 -0.9641 0.9643
8.9670 -2.3236 -0.9871 0.9634
9.2009 -2.3236 -1.0112 0.9625
9.4466 -2.3236 -1.0367 0.9616
9.7050 -2.3236 -1.0634 0.9607
10.9771 -2.2718 -1.1945 0.9559
11.5880 -2.3236 -1.2594 0.9536
11.9716 -2.3236 -1.2995 0.9521
12.7220 -2.3877 -1.3793 0.9493
23.5263 -4.2651 -2.5479 0.9083
23.5524 -4.1196 -2.5479 0.9083
23.5776 -3.9738 -2.5479 0.9083
23.6018 -3.8280 -2.5479 0.9083
23.6252 -3.6820 -2.5479 0.9083
23.6898 -3.2432 -2.5480 0.9083
23.7463 -2.8031 -2.5480 0.9083
23.7794 -2.5092 -2.5480 0.9083
23.8088 -2.2149 -2.5480 0.9083
23.8222 -2.0677 -2.5481 0.9083
23.8346 -1.9203 -2.5481 0.9083
23.8462 -1.7728 -2.5481 0.9083
23.8568 -1.6254 -2.5481 0.9083
23.8753 -1.3302 -2.5481 0.9083
23.8832 -1.1825 -2.5481 0.9083
23.8902 -1.0348 -2.5481 0.9083
23.8963 -0.8870 -2.5482 0.9083
23.9014 -0.7393 -2.5482 0.9083
23.9056 -0.5914 -2.5482 0.9083
23.9128 -0.1479 -2.5482 0.9083
23.8975 0.8871 -2.5483 0.9083
23.8848 1.1827 -2.5483 0.9083
23.8771 1.3304 -2.5483 0.9083
23.8686 1.4780 -2.5483 0.9083
23.8591 1.6256 -2.5483 0.9083
23.8487 1.7731 -2.5483 0.9083
23.7978 2.3625 -2.5484 0.9083
23.7829 2.5096 -2.5484 0.9083
23.7670 2.6566 -2.5484 0.9083
23.7501 2.8036 -2.5484 0.9083
23.7138 3.0971 -2.5484 0.9083
23.6943 3.2437 -2.5484 0.9083
12.6220 2.0472 -1.3626 0.9499
11.0412 1.9312 -1.1944 0.9559
10.9383 1.9830 -1.1846 0.9563
10.5656 1.9830 -1.1455 0.9577
10.2167 1.9830 -1.1090 0.9590
9.5816 1.9830 -1.0427 0.9614
9.2916 1.9830 -1.0124 0.9625
7.8522 1.9830 -0.8630 0.9679
7.6525 1.9830 -0.8424 0.9687
7.2805 1.9830 -0.8041 0.9701
7.1068 1.9830 -0.7862 0.9708
6.9407 1.9830 -0.7692 0.9714
6.4829 1.9830 -0.7224 0.9731
6.2074 1.9830 -0.6944 0.9741
6.0775 1.9830 -0.6812 0.9746
5.6035 1.9830 -0.6334 0.9764
5.4952 1.9830 -0.6225 0.9768
5.3905 1.9830 -0.6121 0.9772
5.1915 1.9830 -0.5922 0.9779
5.0049 1.9830 -0.5737 0.9786
4.9159 1.9830 -0.5649 0.9789
4.7523 1.9857 -0.5488 0.9795
4.7523 2.0551 -0.5517 0.9794
4.7523 2.1962 -0.5579 0.9792
4.7523 2.2680 -0.5611 0.9790
4.7523 2.3042 -0.5628 0.9790
4.7523 2.3406 -0.5645 0.9789
4.7523 2.3772 -0.5662 0.9789
4.7523 2.4511 -0.5698 0.9787
4.7523 2.5260 -0.5735 0.9786
4.7523 2.5639 -0.5754 0.9785
4.7523 2.6403 -0.5793 0.9784
4.7523 2.7569 -0.5855 0.9781
4.7523 2.7963 -0.5876 0.9781
4.7523 2.8360 -0.5897 0.9780
4.7523 2.9163 -0.5942 0.9778
4.7523 2.9569 -0.5964 0.9777
4.7523 2.9978 -0.5988 0.9777
4.7523 3.0391 -0.6011 0.9776
4.7523 3.1648 -0.6084 0.9773
4.7523 3.3374 -0.6188 0.9769
4.7523 3.3814 -0.6215 0.9768
4.7523 3.4708 -0.6271 0.9766
4.7523 3.5160 -0.6299 0.9765
4.7523 3.5617 -0.6329 0.9764
4.7523 3.6078 -0.6358 0.9763
4.7523 3.7014 -0.6419 0.9761
4.7523 3.7488 -0.6450 0.9759
4.7523 3.7967 -0.6482 0.9758
4.7523 3.8451 -0.6514 0.9757
4.7523 3.9434 -0.6580 0.9755
4.7523 3.9932 -0.6615 0.9753
4.7523 4.0436 -0.6649 0.9752
4.7523 4.0946 -0.6685 0.9751
4.7523 4.2507 -0.6794 0.9747
4.7523 4.4121 -0.6910 0.9743
4.7523 4.4671 -0.6950 0.9741
4.7523 4.5228 -0.6991 0.9740
4.7523 4.5792 -0.7032 0.9738
4.7523 4.6939 -0.7118 0.9735
4.7523 4.8115 -0.7206 0.9732
4.7523 4.8713 -0.7252 0.9730
4.7523 4.9320 -0.7298 0.9728
4.7523 5.0557 -0.7394 0.9725
4.7523 5.1188 -0.7443 0.9723
4.7523 5.1827 -0.7493 0.9721
4.7523 5.4472 -0.7703 0.9713
4.7522 5.6557 -0.7872 0.9707
4.7522 5.7998 -0.7990 0.9703
4.7522 6.0244 -0.8177 0.9696
4.7522 6.3409 -0.8444 0.9686
4.7522 6.4233 -0.8514 0.9684
4.7522 6.5070 -0.8586 0.9681
4.7522 6.6789 -0.8735 0.9676
4.7522 6.7671 -0.8812 0.9673
4.7522 7.0413 -0.9052 0.9664
4.7522 7.1361 -0.9136 0.9661
4.7522 7.2327 -0.9222 0.9658
4.7522 7.4313 -0.9400 0.9651
4.7522 7.5336 -0.9492 0.9648
4.7522 7.7442 -0.9682 0.9641
4.7522 7.8527 -0.9781 0.9638
4.7522 8.0766 -0.9986 0.9630
4.7522 8.1921 -1.0092 0.9626
4.7522 8.4306 -1.0313 0.9618
4.7522 8.5538 -1.0427 0.9614
4.7522 8.8087 -1.0666 0.9605
4.7522 9.0756 -1.0917 0.9596
4.7522 9.2138 -1.1047 0.9592
4.7522 9.3553 -1.1182 0.9587
4.7522 9.5004 -1.1320 0.9582
4.7522 9.6491 -1.1462 0.9577
4.7522 9.8015 -1.1607 0.9571
4.7522 9.9579 -1.1758 0.9566
4.7497 10.1131 -1.1906 0.9561
4.7521 11.1784 -1.2943 0.9523
4.7522 11.5739 -1.3332 0.9509
4.7521 12.2139 -1.3966 0.9486
4.7672 12.9591 -1.4714 0.9460
4.7521 13.1690 -1.4919 0.9452
4.7521 13.4285 -1.5179 0.9443
4.7521 13.6972 -1.5449 0.9433
4.7238 14.7871 -1.6542 0.9395
4.6976 15.0247 -1.6775 0.9386
4.5958 15.0247 -1.6743 0.9388
4.1923 15.0247 -1.6622 0.9392
4.0923 15.0247 -1.6594 0.9393
3.9927 15.0247 -1.6566 0.9394
3.7944 15.0247 -1.6513 0.9396
3.5973 15.0247 -1.6463 0.9397
3.4871 14.9729 -1.6382 0.9400
3.4252 15.1299 -1.6531 0.9395
3.2290 15.1299 -1.6486 0.9397
2.9275 15.0827 -1.6372 0.9401
2.8306 15.0815 -1.6352 0.9401
2.6375 15.0791 -1.6312 0.9403
2.5413 15.0779 -1.6294 0.9403
2.4453 15.0767 -1.6276 0.9404
2.3495 15.0755 -1.6259 0.9405
2.0633 15.0720 -1.6211 0.9406
1.8614 14.9729 -1.6078 0.9411
1.3978 15.0247 -1.6080 0.9411
1.2105 15.0247 -1.6062 0.9412
1.0237 15.0247 -1.6048 0.9412
0.8371 15.0247 -1.6035 0.9413
0.7439 15.0247 -1.6030 0.9413
0.4647 15.0247 -1.6018 0.9413
0.3717 15.0247 -1.6015 0.9413
0.0000 15.0247 -1.6010 0.9414
-0.0929 15.0247 -1.6011 0.9414
-0.1859 15.0247 -1.6012 0.9413
-0.4647 15.0247 -1.6018 0.9413
-1.3041 15.0247 -1.6071 0.9411
-1.3978 15.0247 -1.6080 0.9411
-1.7736 15.0247 -1.6122 0.9410
-1.9682 15.0699 -1.6195 0.9407
-2.0632 15.0711 -1.6210 0.9406
-2.1584 15.0723 -1.6225 0.9406
-2.5259 14.9868 -1.6195 0.9407
-2.6213 14.9868 -1.6212 0.9406
-2.7170 14.9868 -1.6230 0.9406
-2.8128 14.9868 -1.6249 0.9405
-3.1985 14.9868 -1.6330 0.9402
-3.2955 14.9868 -1.6352 0.9401
-3.3928 14.9868 -1.6374 0.9401
-3.9826 14.9868 -1.6524 0.9395
-4.0820 14.9868 -1.6552 0.9394
-4.2778 14.9729 -1.6594 0.9393
-4.3933 15.0247 -1.6681 0.9390
-4.4943 15.0247 -1.6711 0.9389
-4.5958 15.0247 -1.6743 0.9388
-4.6976 15.0247 -1.6775 0.9386
-4.7998 15.0247 -1.6808 0.9385
-4.9024 15.0247 -1.6841 0.9384
-5.0054 15.0246 -1.6875 0.9383
-5.2127 15.0247 -1.6947 0.9380
-5.5518 15.0919 -1.7136 0.9374
-5.6580 15.0919 -1.7175 0.9372
-5.7647 15.0919 -1.7215 0.9371
-5.8719 15.0919 -1.7256 0.9369
-5.9429 14.9992 -1.7192 0.9372
-6.0246 14.9349 -1.7161 0.9373
-6.3712 14.9867 -1.7353 0.9366
-6.4809 14.9867 -1.7399 0.9364
-6.5912 14.9867 -1.7446 0.9363
-6.7021 14.9867 -1.7494 0.9361
-6.9258 14.9867 -1.7593 0.9357
-7.0386 14.9867 -1.7644 0.9356
-7.6128 14.9867 -1.7912 0.9346
-7.9659 14.9867 -1.8086 0.9340
-8.0852 14.9867 -1.8146 0.9338
-8.2053 14.9867 -1.8207 0.9336
-8.3261 14.9867 -1.8269 0.9334
-8.4478 14.9867 -1.8332 0.9331
-8.5704 14.9867 -1.8397 0.9329
-8.8181 14.9867 -1.8529 0.9324
-9.0695 14.9867 -1.8667 0.9320
-9.1966 14.9867 -1.8737 0.9317
-9.5838 14.9867 -1.8956 0.9309
-9.8775 15.0330 -1.9168 0.9302
