ply
format ascii 1.0
element vertex 1598
property float32 x
property float32 y
property float32 z
property float32 I
end_header
-4.8335 -5.2713 -2.3818 0.9703
-4.6690 -5.4191 -2.3822 0.9703
-4.6020 -5.4768 -2.3823 0.9703
-4.5342 -5.5337 -2.3825 0.9703
-4.5000 -5.5618 -2.3826 0.9703
-4.4657 -5.5897 -2.3826 0.9703
-4.4312 -5.6174 -2.3827 0.9703
-4.2915 -5.7261 -2.3831 0.9703
-4.2562 -5.7527 -2.3831 0.9703
-4.0770 -5.8826 -2.3836 0.9703
-4.0042 -5.9330 -2.3837 0.9703
-3.9676 -5.9579 -2.3838 0.9703
-3.8939 -6.0070 -2.3840 0.9703
-3.8196 -6.0551 -2.3842 0.9703
-3.7822 -6.0789 -2.3843 0.9703
-3.7070 -6.1256 -2.3845 0.9703
-3.6313 -6.1715 -2.3846 0.9703
-3.5932 -6.1940 -2.3847 0.9703
-3.5549 -6.2164 -2.3848 0.9703
-3.4781 -6.2604 -2.3850 0.9703
-3.3617 -6.3246 -2.3853 0.9703
-3.3227 -6.3455 -2.3854 0.9703
-3.2442 -6.3866 -2.3856 0.9703
-3.1652 -6.4268 -2.3858 0.9702
-3.1255 -6.4465 -2.3859 0.9702
-3.0458 -6.4852 -2.3861 0.9702
-2.8444 -6.5777 -2.3866 0.9702
-2.8038 -6.5954 -2.3867 0.9702
-2.6813 -6.6471 -2.3870 0.9702
-2.5165 -6.7126 -2.3874 0.9702
-2.4335 -6.7437 -2.3876 0.9702
-2.3919 -6.7590 -2.3877 0.9702
-2.2244 -6.8173 -2.3881 0.9702
-2.0130 -6.8843 -2.3886 0.9702
-1.8424 -6.9332 -2.3891 0.9702
-1.7996 -6.9448 -2.3892 0.9702
-1.7567 -6.9561 -2.3893 0.9702
-1.7137 -6.9672 -2.3894 0.9702
-1.6707 -6.9779 -2.3895 0.9702
-1.6276 -6.9885 -2.3896 0.9702
-1.4110 -7.0370 -2.3902 0.9702
-1.3676 -7.0460 -2.3903 0.9702
-1.1931 -7.0789 -2.3907 0.9702
-1.1493 -7.0865 -2.3908 0.9702
-1.1056 -7.0938 -2.3909 0.9702
-1.0178 -7.1076 -2.3912 0.9702
-0.9739 -7.1141 -2.3913 0.9702
-0.9299 -7.1203 -2.3914 0.9702
-0.8859 -7.1263 -2.3915 0.9702
-0.8419 -7.1319 -2.3916 0.9702
-0.7537 -7.1425 -2.3918 0.9702
-0.7095 -7.1473 -2.3920 0.9702
-0.6653 -7.1519 -2.3921 0.9702
-0.5769 -7.1603 -2.3923 0.9702
-0.3996 -7.1737 -2.3927 0.9702
-0.3553 -7.1764 -2.3929 0.9702
-0.3109 -7.1788 -2.3930 0.9702
-0.2665 -7.1810 -2.3931 0.9702
-0.1333 -7.1857 -2.3934 0.9702
-0.0889 -7.1867 -2.3935 0.9702
0.0000 -7.1880 -2.3938 0.9702
0.0445 -7.1882 -2.3939 0.9701
0.0889 -7.1881 -2.3940 0.9701
0.1779 -7.1871 -2.3942 0.9701
0.3556 -7.1819 -2.3947 0.9701
0.4001 -7.1799 -2.3948 0.9701
0.4332 -6.9956 -2.3342 0.9709
0.3965 -5.8190 -1.9424 0.9757
0.3864 -4.1538 -1.3893 0.9826
0.4124 -4.1538 -1.3901 0.9826
0.4372 -4.1430 -1.3874 0.9826
0.4375 -3.9140 -1.3116 0.9835
0.4381 -3.5236 -1.1825 0.9851
0.4385 -3.2030 -1.0766 0.9865
0.4389 -2.9351 -0.9883 0.9876
0.4397 -2.3427 -0.7938 0.9900
0.4514 -2.3257 -0.7890 0.9901
0.4813 -2.3258 -0.7910 0.9900
0.5114 -2.3258 -0.7930 0.9900
0.5417 -2.3258 -0.7953 0.9900
0.5569 -2.3258 -0.7964 0.9900
0.5721 -2.3258 -0.7976 0.9900
0.5874 -2.3258 -0.7989 0.9899
0.6181 -2.3258 -0.8014 0.9899
0.6490 -2.3258 -0.8042 0.9899
0.6958 -2.3259 -0.8085 0.9898
0.7115 -2.3259 -0.8100 0.9898
0.7589 -2.3259 -0.8148 0.9897
0.7749 -2.3259 -0.8164 0.9897
0.7909 -2.3259 -0.8181 0.9897
0.8070 -2.3259 -0.8199 0.9897
0.8720 -2.3260 -0.8273 0.9896
0.9383 -2.3260 -0.8353 0.9895
0.9551 -2.3260 -0.8374 0.9895
0.9719 -2.3260 -0.8395 0.9894
1.0925 -2.3261 -0.8558 0.9892
1.1101 -2.3261 -0.8583 0.9892
1.1998 -2.3262 -0.8716 0.9890
1.2181 -2.3262 -0.8744 0.9890
1.2365 -2.3262 -0.8773 0.9890
1.2550 -2.3262 -0.8802 0.9889
1.2924 -2.3262 -0.8862 0.9888
1.3113 -2.3262 -0.8893 0.9888
1.3495 -2.3262 -0.8956 0.9887
1.4078 -2.3262 -0.9055 0.9886
1.4474 -2.3263 -0.9124 0.9885
1.4877 -2.3263 -0.9196 0.9884
1.5286 -2.3263 -0.9270 0.9883
1.5911 -2.3264 -0.9386 0.9882
1.6124 -2.3264 -0.9426 0.9881
1.6771 -2.3264 -0.9551 0.9880
1.7436 -2.3264 -0.9682 0.9878
1.7662 -2.3265 -0.9727 0.9878
1.8120 -2.3265 -0.9821 0.9876
1.9064 -2.3265 -1.0017 0.9874
1.9797 -2.3266 -1.0173 0.9872
2.0298 -2.3266 -1.0282 0.9871
2.0553 -2.3266 -1.0339 0.9870
2.0811 -2.3266 -1.0396 0.9869
2.1071 -2.3267 -1.0454 0.9869
2.1602 -2.3267 -1.0573 0.9867
2.2699 -2.3267 -1.0825 0.9864
2.2982 -2.3268 -1.0891 0.9863
2.3268 -2.3268 -1.0958 0.9862
2.4148 -2.3268 -1.1168 0.9860
2.5063 -2.3269 -1.1389 0.9857
2.5694 -2.3269 -1.1544 0.9855
2.6673 -2.3270 -1.1788 0.9852
2.7529 -2.3131 -1.1974 0.9850
2.7815 -2.2791 -1.1975 0.9850
2.8121 -2.2753 -1.2046 0.9849
2.8480 -2.2753 -1.2140 0.9847
2.9590 -2.2753 -1.2431 0.9844
2.9972 -2.2754 -1.2532 0.9843
3.1866 -2.3273 -1.3141 0.9835
3.2284 -2.3273 -1.3254 0.9834
3.3141 -2.3273 -1.3486 0.9831
3.3581 -2.3274 -1.3607 0.9829
3.4029 -2.3274 -1.3730 0.9828
3.5423 -2.3275 -1.4115 0.9823
3.5905 -2.3275 -1.4250 0.9821
3.8463 -2.3277 -1.4972 0.9812
3.9006 -2.3277 -1.5127 0.9810
3.9560 -2.3277 -1.5286 0.9808
4.2518 -2.3279 -1.6143 0.9798
4.4459 -2.3280 -1.6713 0.9791
4.5137 -2.3280 -1.6913 0.9788
4.5831 -2.3280 -1.7119 0.9786
4.6543 -2.3281 -1.7331 0.9783
5.1764 -2.2766 -1.8832 0.9764
5.4714 -2.3660 -1.9852 0.9752
5.6384 -2.3970 -2.0403 0.9745
5.6809 -2.3737 -2.0504 0.9744
6.0341 -2.4341 -2.1668 0.9729
6.3210 -2.3253 -2.2430 0.9720
6.4353 -2.2773 -2.2733 0.9716
6.5643 -2.2774 -2.3139 0.9711
6.8716 -2.2892 -2.4120 0.9699
6.9134 -2.1615 -2.4122 0.9699
6.9399 -2.0759 -2.4123 0.9699
6.9653 -1.9900 -2.4124 0.9699
6.9776 -1.9469 -2.4125 0.9699
6.9897 -1.9038 -2.4125 0.9699
7.0015 -1.8605 -2.4126 0.9699
7.0129 -1.8172 -2.4126 0.9699
7.0351 -1.7304 -2.4127 0.9699
7.0665 -1.5997 -2.4128 0.9699
7.0860 -1.5122 -2.4129 0.9699
7.1217 -1.3366 -2.4131 0.9699
7.1379 -1.2485 -2.4132 0.9699
7.1530 -1.1601 -2.4132 0.9699
7.1602 -1.1159 -2.4133 0.9699
7.1670 -1.0716 -2.4133 0.9699
7.1736 -1.0273 -2.4134 0.9699
7.1860 -0.9385 -2.4134 0.9699
7.1917 -0.8940 -2.4135 0.9699
7.1972 -0.8496 -2.4135 0.9699
7.2024 -0.8051 -2.4135 0.9699
7.2074 -0.7605 -2.4135 0.9699
7.2164 -0.6713 -2.4136 0.9699
7.2204 -0.6267 -2.4136 0.9699
7.2243 -0.5820 -2.4137 0.9699
7.2279 -0.5373 -2.4137 0.9699
7.2311 -0.4926 -2.4137 0.9699
7.2340 -0.4479 -2.4137 0.9699
7.2432 -0.2688 -2.4138 0.9699
7.2448 -0.2241 -2.4138 0.9699
7.2461 -0.1793 -2.4139 0.9699
7.2471 -0.1344 -2.4139 0.9699
7.2479 -0.0896 -2.4139 0.9699
7.2483 -0.0448 -2.4139 0.9699
7.2480 0.0897 -2.4140 0.9699
7.2474 0.1345 -2.4140 0.9699
7.2453 0.2241 -2.4140 0.9699
7.2289 0.5375 -2.4141 0.9699
7.2255 0.5822 -2.4141 0.9699
7.2218 0.6268 -2.4141 0.9699
7.2135 0.7161 -2.4141 0.9699
7.2089 0.7607 -2.4141 0.9699
7.2041 0.8053 -2.4141 0.9699
7.1990 0.8498 -2.4141 0.9699
7.1936 0.8943 -2.4141 0.9699
7.1879 0.9388 -2.4141 0.9699
7.1820 0.9832 -2.4141 0.9699
7.1554 1.1605 -2.4141 0.9699
7.1481 1.2048 -2.4140 0.9699
7.1244 1.3372 -2.4140 0.9699
7.0983 1.4691 -2.4140 0.9699
7.0697 1.6005 -2.4140 0.9699
7.0596 1.6442 -2.4139 0.9699
7.0387 1.7313 -2.4139 0.9699
7.0278 1.7748 -2.4139 0.9699
7.0052 1.8616 -2.4139 0.9699
6.9935 1.9048 -2.4138 0.9699
6.9815 1.9480 -2.4138 0.9699
6.9205 1.9772 -2.3969 0.9701
6.5854 1.9256 -2.2850 0.9715
6.4316 2.0109 -2.2441 0.9720
6.1713 2.0559 -2.1662 0.9729
5.5927 2.0182 -1.9801 0.9752
5.0436 1.9265 -1.7980 0.9775
5.0050 1.9473 -1.7885 0.9776
4.9931 1.9784 -1.7886 0.9776
4.8185 1.9785 -1.7347 0.9783
4.3522 1.9787 -1.5921 0.9800
4.1465 1.9788 -1.5301 0.9808
4.0815 1.9789 -1.5106 0.9811
4.0180 1.9789 -1.4916 0.9813
3.9562 1.9789 -1.4731 0.9815
3.7795 1.9790 -1.4208 0.9822
3.7233 1.9791 -1.4042 0.9824
3.6148 1.9791 -1.3724 0.9828
3.4610 1.9792 -1.3277 0.9833
3.1813 1.9794 -1.2478 0.9843
3.1379 1.9794 -1.2355 0.9845
3.0953 1.9794 -1.2236 0.9846
3.0536 1.9795 -1.2119 0.9848
3.0127 1.9795 -1.2005 0.9849
2.9330 1.9796 -1.1784 0.9852
2.8943 1.9796 -1.1677 0.9853
2.7461 1.9796 -1.1274 0.9858
2.6757 1.9797 -1.1085 0.9861
2.6415 1.9797 -1.0993 0.9862
2.5745 1.9797 -1.0816 0.9864
2.5097 1.9798 -1.0645 0.9866
2.4781 1.9798 -1.0563 0.9867
2.4469 1.9798 -1.0482 0.9868
2.3860 1.9798 -1.0325 0.9870
2.3562 1.9799 -1.0249 0.9871
2.2979 1.9799 -1.0101 0.9873
2.2136 1.9799 -0.9890 0.9876
1.9801 1.9801 -0.9325 0.9883
1.9558 1.9801 -0.9268 0.9883
1.9317 1.9801 -0.9212 0.9884
1.9080 1.9801 -0.9157 0.9885
1.8613 1.9801 -0.9050 0.9886
1.7712 1.9802 -0.8847 0.9889
1.7492 1.9802 -0.8799 0.9889
1.7276 1.9802 -0.8751 0.9890
1.6849 1.9802 -0.8659 0.9891
1.6639 1.9802 -0.8614 0.9892
1.6432 1.9803 -0.8569 0.9892
1.6226 1.9803 -0.8526 0.9893
1.5821 1.9803 -0.8441 0.9894
1.5228 1.9803 -0.8319 0.9895
1.5034 1.9803 -0.8280 0.9896
1.4842 1.9804 -0.8242 0.9896
1.4652 1.9804 -0.8204 0.9897
1.4463 1.9804 -0.8167 0.9897
1.4276 1.9804 -0.8130 0.9898
1.4091 1.9804 -0.8094 0.9898
1.2665 1.9804 -0.7829 0.9901
1.2153 1.9805 -0.7738 0.9903
1.1985 1.9805 -0.7709 0.9903
1.1653 1.9805 -0.7653 0.9904
1.1164 1.9805 -0.7571 0.9905
1.1003 1.9805 -0.7545 0.9905
1.0844 1.9806 -0.7520 0.9905
1.0685 1.9806 -0.7494 0.9906
1.0371 1.9806 -0.7445 0.9906
0.9907 1.9806 -0.7375 0.9907
0.9754 1.9806 -0.7352 0.9907
0.9603 1.9806 -0.7330 0.9908
0.9452 1.9806 -0.7309 0.9908
0.9302 1.9806 -0.7287 0.9908
0.9005 1.9807 -0.7246 0.9909
0.8858 1.9807 -0.7226 0.9909
0.8711 1.9807 -0.7206 0.9909
0.8276 1.9807 -0.7149 0.9910
0.8133 1.9807 -0.7131 0.9910
0.7990 1.9807 -0.7113 0.9910
0.7566 1.9807 -0.7061 0.9911
0.7426 1.9807 -0.7045 0.9911
0.7287 1.9808 -0.7028 0.9911
0.6872 1.9808 -0.6982 0.9912
0.6599 1.9808 -0.6953 0.9912
0.6328 1.9808 -0.6925 0.9913
0.6059 1.9808 -0.6898 0.9913
0.5925 1.9808 -0.6885 0.9913
0.5792 1.9808 -0.6873 0.9913
0.5659 1.9808 -0.6861 0.9914
0.5527 1.9808 -0.6849 0.9914
0.5264 1.9809 -0.6826 0.9914
0.5133 1.9809 -0.6815 0.9914
0.5003 1.9809 -0.6804 0.9914
0.4872 1.9809 -0.6793 0.9914
0.4743 1.9809 -0.6783 0.9914
0.4613 1.9809 -0.6773 0.9915
0.4228 1.9809 -0.6745 0.9915
0.4100 1.9809 -0.6737 0.9915
0.3845 1.9809 -0.6720 0.9915
0.3718 1.9809 -0.6712 0.9915
0.3422 2.1956 -0.7400 0.9907
0.3422 2.2883 -0.7705 0.9903
0.3421 2.3890 -0.8037 0.9899
0.3421 2.4988 -0.8399 0.9894
0.3420 2.8967 -0.9713 0.9878
0.3418 3.2392 -1.0847 0.9864
0.3418 3.4424 -1.1520 0.9855
0.3306 3.8088 -1.2732 0.9840
0.3729 5.4737 -1.8271 0.9771
0.3390 5.4738 -1.8264 0.9771
0.3050 5.4738 -1.8257 0.9772
0.3405 6.8758 -2.2926 0.9714
0.3114 7.1889 -2.3963 0.9701
0.2225 7.1914 -2.3961 0.9701
0.0890 7.1932 -2.3957 0.9701
0.0445 7.1932 -2.3956 0.9701
0.0000 7.1929 -2.3954 0.9701
-0.0445 7.1924 -2.3953 0.9701
-0.0889 7.1916 -2.3952 0.9701
-0.1778 7.1892 -2.3949 0.9701
-0.2223 7.1876 -2.3948 0.9701
-0.2667 7.1857 -2.3947 0.9701
-0.3555 7.1811 -2.3944 0.9701
-0.4886 7.1721 -2.3940 0.9701
-0.5329 7.1685 -2.3939 0.9701
-0.5772 7.1647 -2.3937 0.9702
-0.6215 7.1606 -2.3936 0.9702
-0.6657 7.1562 -2.3935 0.9702
-0.7541 7.1467 -2.3932 0.9702
-0.8423 7.1360 -2.3930 0.9702
-0.9304 7.1242 -2.3927 0.9702
-0.9744 7.1180 -2.3926 0.9702
-1.0184 7.1115 -2.3925 0.9702
-1.0623 7.1048 -2.3924 0.9702
-1.1500 7.0905 -2.3922 0.9702
-1.1938 7.0829 -2.3921 0.9702
-1.2375 7.0751 -2.3920 0.9702
-1.2812 7.0670 -2.3919 0.9702
-1.3248 7.0587 -2.3918 0.9702
-1.3683 7.0500 -2.3917 0.9702
-1.4119 7.0412 -2.3916 0.9702
-1.4553 7.0320 -2.3914 0.9702
-1.5853 7.0029 -2.3911 0.9702
-1.6716 6.9821 -2.3909 0.9702
-1.7147 6.9714 -2.3908 0.9702
-1.7578 6.9603 -2.3907 0.9702
-1.8007 6.9490 -2.3906 0.9702
-1.8435 6.9375 -2.3905 0.9702
-1.9717 6.9012 -2.3902 0.9702
-2.0567 6.8757 -2.3900 0.9702
-2.1836 6.8355 -2.3897 0.9702
-2.2258 6.8216 -2.3896 0.9702
-2.2678 6.8074 -2.3895 0.9702
-2.3934 6.7633 -2.3892 0.9702
-2.4351 6.7481 -2.3891 0.9702
-2.6420 6.6682 -2.3886 0.9702
-2.6831 6.6515 -2.3885 0.9702
-2.7241 6.6345 -2.3884 0.9702
-2.8057 6.5998 -2.3882 0.9702
-2.9273 6.5458 -2.3880 0.9702
-3.0078 6.5086 -2.3878 0.9702
-3.0479 6.4896 -2.3877 0.9702
-3.1276 6.4509 -2.3875 0.9702
-3.1673 6.4312 -2.3874 0.9702
-3.2464 6.3910 -2.3872 0.9702
-3.2857 6.3705 -2.3871 0.9702
-3.3249 6.3499 -2.3870 0.9702
-3.3640 6.3289 -2.3869 0.9702
-3.5574 6.2207 -2.3865 0.9702
-3.5956 6.1983 -2.3864 0.9702
-3.7096 6.1299 -2.3861 0.9702
-3.7473 6.1066 -2.3860 0.9702
-3.7848 6.0830 -2.3859 0.9702
-3.8966 6.0111 -2.3857 0.9702
-3.9335 5.9867 -2.3856 0.9703
-3.9704 5.9621 -2.3855 0.9703
-4.0435 5.9121 -2.3853 0.9703
-4.0798 5.8867 -2.3852 0.9703
-4.1160 5.8612 -2.3851 0.9703
-4.1520 5.8354 -2.3851 0.9703
-4.1879 5.8094 -2.3850 0.9703
-4.2236 5.7832 -2.3849 0.9703
-4.2945 5.7301 -2.3847 0.9703
-4.3297 5.7032 -2.3846 0.9703
-4.3647 5.6762 -2.3845 0.9703
-4.3996 5.6488 -2.3845 0.9703
-4.4688 5.5936 -2.3843 0.9703
-4.5373 5.5375 -2.3841 0.9703
-4.6052 5.4806 -2.3840 0.9703
-4.6388 5.4519 -2.3839 0.9703
-4.7716 5.3347 -2.3836 0.9703
-4.8044 5.3049 -2.3835 0.9703
-4.8369 5.2750 -2.3834 0.9703
-4.8693 5.2448 -2.3833 0.9703
-4.9015 5.2144 -2.3833 0.9703
-4.9335 5.1838 -2.3832 0.9703
-4.9653 5.1530 -2.3831 0.9703
-5.0283 5.0909 -2.3830 0.9703
-5.0596 5.0596 -2.3829 0.9703
-5.0906 5.0280 -2.3828 0.9703
-5.1214 4.9963 -2.3827 0.9703
-5.3023 4.8020 -2.3823 0.9703
-5.3610 4.7358 -2.3822 0.9703
-5.3900 4.7024 -2.3821 0.9703
-5.4188 4.6688 -2.3820 0.9703
-5.4474 4.6351 -2.3820 0.9703
-5.4758 4.6012 -2.3819 0.9703
-5.5320 4.5329 -2.3818 0.9703
-5.5597 4.4984 -2.3817 0.9703
-5.6147 4.4291 -2.3816 0.9703
-5.6418 4.3942 -2.3815 0.9703
-5.6954 4.3238 -2.3814 0.9703
-5.7219 4.2884 -2.3813 0.9703
-5.7482 4.2528 -2.3813 0.9703
-5.8761 4.0726 -2.3810 0.9703
-5.9258 3.9994 -2.3808 0.9703
-5.9503 3.9625 -2.3808 0.9703
-5.9985 3.8885 -2.3807 0.9703
-6.0223 3.8512 -2.3806 0.9703
-6.0458 3.8138 -2.3805 0.9703
-6.0692 3.7762 -2.3805 0.9703
-6.0922 3.7385 -2.3804 0.9703
-6.1151 3.7007 -2.3804 0.9703
-6.1823 3.5864 -2.3802 0.9703
-6.2042 3.5480 -2.3802 0.9703
-6.2474 3.4709 -2.3801 0.9703
-6.2686 3.4321 -2.3800 0.9703
-6.3103 3.3541 -2.3799 0.9703
-6.3908 3.1968 -2.3797 0.9703
-6.4674 3.0375 -2.3795 0.9703
-6.5043 2.9571 -2.3794 0.9703
-6.5920 2.7544 -2.3792 0.9703
-6.6253 2.6726 -2.3791 0.9703
-6.6415 2.6315 -2.3791 0.9703
-6.6576 2.5903 -2.3790 0.9703
-6.6888 2.5077 -2.3789 0.9703
-6.7190 2.4246 -2.3788 0.9703
-6.7482 2.3412 -2.3787 0.9703
-6.8423 2.0468 -2.3784 0.9703
-6.8787 1.9194 -2.3783 0.9703
-6.9017 1.8341 -2.3782 0.9703
-6.9128 1.7913 -2.3782 0.9703
-6.9545 1.6197 -2.3780 0.9703
-6.9643 1.5766 -2.3780 0.9703
-6.9831 1.4903 -2.3779 0.9703
-7.0008 1.4038 -2.3779 0.9703
-7.0330 1.2302 -2.3777 0.9703
-7.0544 1.0994 -2.3776 0.9703
-7.0790 0.9246 -2.3775 0.9703
-7.0846 0.8808 -2.3775 0.9704
-7.0995 0.7492 -2.3774 0.9704
-7.1039 0.7053 -2.3774 0.9704
-7.1080 0.6613 -2.3774 0.9704
-7.1120 0.6173 -2.3774 0.9704
-7.1155 0.5733 -2.3774 0.9704
-7.1220 0.4853 -2.3773 0.9704
-7.1316 0.3089 -2.3772 0.9704
-7.1333 0.2648 -2.3772 0.9704
-7.1360 0.1766 -2.3772 0.9704
-7.1375 0.0883 -2.3772 0.9704
-6.9663 0.0000 -2.3776 0.9710
-6.9658 -0.0861 -2.3776 0.9710
-6.9651 -0.1292 -2.3776 0.9710
-6.9641 -0.1723 -2.3776 0.9710
-6.9629 -0.2154 -2.3775 0.9710
-6.9614 -0.2584 -2.3775 0.9710
-6.9577 -0.3445 -2.3775 0.9710
-6.9528 -0.4305 -2.3775 0.9710
-6.9500 -0.4735 -2.3775 0.9710
-6.9230 -0.7738 -2.3775 0.9710
-6.9181 -0.8166 -2.3775 0.9710
-6.9129 -0.8594 -2.3775 0.9710
-6.9075 -0.9021 -2.3775 0.9710
-6.9018 -0.9448 -2.3775 0.9710
-6.8958 -0.9875 -2.3775 0.9710
-6.8896 -1.0302 -2.3775 0.9710
-6.8621 -1.2003 -2.3776 0.9710
-6.8304 -1.3696 -2.3776 0.9710
-6.8219 -1.4119 -2.3776 0.9710
-6.8039 -1.4961 -2.3776 0.9710
-6.7946 -1.5382 -2.3776 0.9710
-6.7106 -1.8724 -2.3778 0.9710
-6.6989 -1.9139 -2.3778 0.9710
-6.6625 -2.0379 -2.3779 0.9710
-6.6498 -2.0791 -2.3779 0.9710
-6.6369 -2.1202 -2.3779 0.9710
-6.6237 -2.1612 -2.3779 0.9710
-6.6103 -2.2022 -2.3780 0.9710
-6.5966 -2.2430 -2.3780 0.9710
-6.5827 -2.2838 -2.3780 0.9710
-6.5685 -2.3245 -2.3780 0.9710
-6.5541 -2.3651 -2.3781 0.9710
-6.5245 -2.4460 -2.3781 0.9710
-6.5093 -2.4864 -2.3781 0.9710
-6.4939 -2.5266 -2.3782 0.9710
-6.4782 -2.5667 -2.3782 0.9710
-6.4623 -2.6068 -2.3782 0.9710
-6.4461 -2.6468 -2.3783 0.9710
-6.4131 -2.7263 -2.3783 0.9710
-6.3790 -2.8055 -2.3784 0.9710
-6.3617 -2.8450 -2.3784 0.9710
-6.3441 -2.8843 -2.3785 0.9710
-6.2898 -3.0016 -2.3786 0.9710
-6.2712 -3.0405 -2.3786 0.9710
-6.2140 -3.1565 -2.3787 0.9710
-6.1945 -3.1949 -2.3788 0.9710
-6.1747 -3.2332 -2.3788 0.9710
-6.1547 -3.2714 -2.3789 0.9710
-6.1345 -3.3095 -2.3789 0.9710
-6.1139 -3.3474 -2.3789 0.9710
-6.0512 -3.4605 -2.3791 0.9710
-6.0298 -3.4979 -2.3791 0.9710
-5.9419 -3.6463 -2.3793 0.9710
-5.9193 -3.6830 -2.3794 0.9710
-5.8269 -3.8286 -2.3796 0.9710
-5.8033 -3.8646 -2.3796 0.9710
-5.7064 -4.0074 -2.3798 0.9710
-5.6816 -4.0427 -2.3799 0.9710
-5.6315 -4.1128 -2.3800 0.9710
-5.5804 -4.1824 -2.3801 0.9710
-5.5286 -4.2513 -2.3802 0.9710
-5.4491 -4.3534 -2.3804 0.9710
-5.4222 -4.3872 -2.3805 0.9710
-5.3679 -4.4541 -2.3806 0.9709
-5.3126 -4.5204 -2.3807 0.9709
-5.2566 -4.5860 -2.3809 0.9709
-5.2283 -4.6186 -2.3809 0.9709
-5.1998 -4.6509 -2.3810 0.9709
-5.1711 -4.6831 -2.3810 0.9709
-5.1421 -4.7152 -2.3811 0.9709
-5.1130 -4.7470 -2.3812 0.9709
-5.0245 -4.8415 -2.3814 0.9709
-4.9645 -4.9035 -2.3815 0.9709
-4.9343 -4.9343 -2.3816 0.9709
-4.9038 -4.9648 -2.3817 0.9709
-4.8731 -4.9952 -2.3817 0.9709
-4.8423 -5.0254 -2.3818 0.9709
-4.8113 -5.0554 -2.3819 0.9709
-4.7801 -5.0852 -2.3820 0.9709
-4.6534 -5.2026 -2.3823 0.9709
-4.6213 -5.2314 -2.3823 0.9709
-4.5890 -5.2601 -2.3824 0.9709
-4.5239 -5.3168 -2.3826 0.9709
-4.4581 -5.3727 -2.3827 0.9709
-4.4249 -5.4003 -2.3828 0.9709
-4.3916 -5.4278 -2.3829 0.9709
-4.3244 -5.4820 -2.3830 0.9709
-4.2224 -5.5619 -2.3833 0.9709
-4.1536 -5.6140 -2.3834 0.9709
-4.1189 -5.6398 -2.3835 0.9709
-4.0140 -5.7159 -2.3838 0.9709
-3.7275 -5.9091 -2.3845 0.9709
-3.6544 -5.9552 -2.3846 0.9709
-3.5065 -6.0447 -2.3850 0.9709
-3.4692 -6.0665 -2.3851 0.9709
-3.4317 -6.0880 -2.3852 0.9709
-3.3942 -6.1094 -2.3853 0.9709
-3.3186 -6.1514 -2.3855 0.9709
-3.0888 -6.2717 -2.3860 0.9709
-3.0501 -6.2910 -2.3861 0.9709
-3.0112 -6.3100 -2.3862 0.9709
-2.9332 -6.3472 -2.3864 0.9709
-2.8940 -6.3655 -2.3865 0.9709
-2.8547 -6.3835 -2.3866 0.9709
-2.8153 -6.4013 -2.3867 0.9709
-2.6964 -6.4532 -2.3870 0.9709
-2.6566 -6.4701 -2.3871 0.9709
-2.6166 -6.4867 -2.3872 0.9709
-2.5765 -6.5030 -2.3873 0.9709
-2.5364 -6.5191 -2.3874 0.9709
-2.4961 -6.5349 -2.3875 0.9709
-2.4153 -6.5658 -2.3877 0.9709
-2.3748 -6.5809 -2.3878 0.9709
-2.2934 -6.6103 -2.3880 0.9709
-2.1706 -6.6526 -2.3883 0.9709
-2.0884 -6.6795 -2.3885 0.9709
-2.0471 -6.6926 -2.3886 0.9709
-2.0057 -6.7054 -2.3887 0.9709
-1.9643 -6.7180 -2.3888 0.9709
-1.8396 -6.7541 -2.3891 0.9708
-1.7979 -6.7657 -2.3892 0.9708
-1.7561 -6.7770 -2.3893 0.9708
-1.7143 -6.7880 -2.3894 0.9708
-1.6723 -6.7988 -2.3896 0.9708
-1.6303 -6.8093 -2.3897 0.9708
-1.5882 -6.8196 -2.3898 0.9708
-1.5461 -6.8296 -2.3899 0.9708
-1.4616 -6.8487 -2.3901 0.9708
-1.3345 -6.8756 -2.3904 0.9708
-1.2920 -6.8840 -2.3905 0.9708
-1.2495 -6.8922 -2.3906 0.9708
-1.2069 -6.9001 -2.3907 0.9708
-1.1642 -6.9078 -2.3908 0.9708
-1.1216 -6.9152 -2.3909 0.9708
-1.0788 -6.9223 -2.3911 0.9708
-0.9932 -6.9357 -2.3913 0.9708
-0.9074 -6.9481 -2.3915 0.9708
-0.8215 -6.9594 -2.3917 0.9708
-0.7785 -6.9647 -2.3918 0.9708
-0.7354 -6.9697 -2.3919 0.9708
-0.6923 -6.9745 -2.3920 0.9708
-0.6061 -6.9831 -2.3923 0.9708
-0.5629 -6.9871 -2.3924 0.9708
-0.5197 -6.9907 -2.3925 0.9708
-0.4765 -6.9941 -2.3926 0.9708
-0.3900 -7.0001 -2.3928 0.9708
-0.3034 -7.0051 -2.3930 0.9708
-0.1734 -7.0105 -2.3934 0.9708
-0.0433 -7.0135 -2.3937 0.9708
0.0000 -7.0139 -2.3938 0.9708
0.0434 -7.0141 -2.3939 0.9708
0.0868 -7.0141 -2.3940 0.9708
0.1302 -7.0137 -2.3942 0.9708
0.1736 -7.0131 -2.3943 0.9708
0.3037 -7.0097 -2.3946 0.9708
0.3470 -7.0080 -2.3947 0.9708
0.3965 -5.8190 -1.9906 0.9757
0.4877 -5.6186 -1.9248 0.9764
0.3864 -4.1538 -1.4238 0.9825
0.4124 -4.1538 -1.4247 0.9825
0.4371 -4.1422 -1.4216 0.9825
0.4377 -3.7080 -1.2743 0.9843
0.4380 -3.5229 -1.2116 0.9851
0.4394 -2.5121 -0.8704 0.9893
0.4396 -2.4244 -0.8409 0.9896
0.4664 -2.3258 -0.8096 0.9900
0.4814 -2.3258 -0.8106 0.9900
0.5266 -2.3258 -0.8139 0.9900
0.5417 -2.3258 -0.8150 0.9900
0.5569 -2.3258 -0.8162 0.9899
0.6027 -2.3258 -0.8200 0.9899
0.6181 -2.3258 -0.8213 0.9899
0.6335 -2.3258 -0.8227 0.9899
0.6490 -2.3259 -0.8241 0.9898
0.7430 -2.3259 -0.8333 0.9897
0.7589 -2.3259 -0.8350 0.9897
0.8070 -2.3260 -0.8402 0.9896
0.8557 -2.3260 -0.8458 0.9896
0.8885 -2.3260 -0.8498 0.9895
0.9216 -2.3260 -0.8539 0.9895
0.9383 -2.3260 -0.8560 0.9895
0.9719 -2.3260 -0.8604 0.9894
1.0230 -2.3261 -0.8673 0.9893
1.0403 -2.3261 -0.8696 0.9893
1.0576 -2.3261 -0.8721 0.9893
1.0750 -2.3261 -0.8746 0.9892
1.0925 -2.3261 -0.8771 0.9892
1.1101 -2.3261 -0.8797 0.9892
1.1278 -2.3261 -0.8823 0.9891
1.1636 -2.3261 -0.8877 0.9891
1.1998 -2.3262 -0.8933 0.9890
1.2365 -2.3262 -0.8991 0.9889
1.2550 -2.3262 -0.9021 0.9889
1.2924 -2.3262 -0.9082 0.9888
1.3303 -2.3262 -0.9146 0.9887
1.3495 -2.3262 -0.9178 0.9887
1.3688 -2.3262 -0.9212 0.9887
1.3882 -2.3262 -0.9246 0.9886
1.4078 -2.3263 -0.9280 0.9886
1.4275 -2.3263 -0.9315 0.9885
1.4675 -2.3263 -0.9387 0.9884
1.6337 -2.3264 -0.9702 0.9881
1.6771 -2.3264 -0.9788 0.9880
1.6991 -2.3264 -0.9832 0.9879
1.7212 -2.3264 -0.9877 0.9878
1.7436 -2.3265 -0.9923 0.9878
1.7890 -2.3265 -1.0016 0.9877
1.8353 -2.3265 -1.0113 0.9876
1.8824 -2.3265 -1.0214 0.9874
1.9064 -2.3266 -1.0266 0.9874
1.9550 -2.3266 -1.0372 0.9872
1.9797 -2.3266 -1.0426 0.9872
2.0046 -2.3266 -1.0481 0.9871
2.0298 -2.3266 -1.0538 0.9870
2.0553 -2.3266 -1.0595 0.9870
2.0811 -2.3266 -1.0654 0.9869
2.1602 -2.3267 -1.0836 0.9867
2.1871 -2.3267 -1.0898 0.9866
2.2420 -2.3267 -1.1028 0.9864
2.2699 -2.3268 -1.1094 0.9864
2.2982 -2.3268 -1.1162 0.9863
2.3558 -2.3268 -1.1301 0.9861
2.3851 -2.3268 -1.1372 0.9860
2.5376 -2.3269 -1.1751 0.9856
2.6288 -2.3222 -1.1971 0.9853
2.6575 -2.2896 -1.1972 0.9853
2.7077 -2.2752 -1.2071 0.9852
2.7420 -2.2752 -1.2160 0.9851
2.8121 -2.2753 -1.2346 0.9848
2.8844 -2.2753 -1.2538 0.9846
2.9214 -2.2753 -1.2638 0.9845
2.9590 -2.2753 -1.2739 0.9843
2.9972 -2.2754 -1.2843 0.9842
3.0755 -2.2754 -1.3057 0.9840
3.1866 -2.3273 -1.3467 0.9835
3.2284 -2.3273 -1.3583 0.9833
3.3141 -2.3273 -1.3821 0.9830
3.4486 -2.3274 -1.4199 0.9826
3.4950 -2.3275 -1.4331 0.9824
3.5905 -2.3275 -1.4604 0.9821
3.6397 -2.3275 -1.4745 0.9819
3.9006 -2.3277 -1.5503 0.9810
3.9561 -2.3277 -1.5666 0.9808
4.0127 -2.3278 -1.5832 0.9806
4.1901 -2.3278 -1.6359 0.9799
4.3151 -2.3279 -1.6733 0.9795
4.4459 -2.3280 -1.7128 0.9790
4.5137 -2.3280 -1.7333 0.9788
4.5832 -2.3281 -1.7544 0.9785
4.6543 -2.3281 -1.7761 0.9782
4.8787 -2.3282 -1.8450 0.9774
5.0383 -2.3283 -1.8943 0.9768
5.6281 -2.4338 -2.0928 0.9744
5.6382 -2.3969 -2.0910 0.9744
5.6810 -2.3737 -2.1013 0.9743
6.0341 -2.4341 -2.2206 0.9729
6.1232 -2.3824 -2.2424 0.9726
6.1380 -2.3445 -2.2425 0.9726
6.1525 -2.3066 -2.2425 0.9726
6.1904 -2.2772 -2.2511 0.9725
6.4353 -2.2774 -2.3298 0.9716
6.6754 -2.3160 -2.4115 0.9706
6.6897 -2.2747 -2.4115 0.9706
6.7038 -2.2333 -2.4116 0.9706
6.7177 -2.1919 -2.4116 0.9706
6.7312 -2.1503 -2.4117 0.9706
6.7445 -2.1087 -2.4117 0.9706
6.7576 -2.0670 -2.4118 0.9706
6.7952 -1.9414 -2.4119 0.9706
6.8189 -1.8573 -2.4120 0.9706
6.8304 -1.8151 -2.4121 0.9706
6.8839 -1.6032 -2.4123 0.9706
6.8939 -1.5606 -2.4124 0.9706
6.9035 -1.5180 -2.4124 0.9706
6.9129 -1.4753 -2.4124 0.9706
6.9220 -1.4326 -2.4125 0.9706
6.9477 -1.3040 -2.4126 0.9706
6.9636 -1.2180 -2.4127 0.9706
6.9783 -1.1318 -2.4128 0.9706
6.9919 -1.0454 -2.4128 0.9706
7.0045 -0.9589 -2.4129 0.9706
7.0104 -0.9156 -2.4129 0.9706
7.0214 -0.8288 -2.4130 0.9706
7.0358 -0.6984 -2.4131 0.9706
7.0441 -0.6114 -2.4131 0.9706
7.0478 -0.5678 -2.4131 0.9706
7.0512 -0.5242 -2.4132 0.9706
7.0544 -0.4806 -2.4132 0.9706
7.0600 -0.3933 -2.4132 0.9706
7.0623 -0.3497 -2.4133 0.9706
7.0644 -0.3060 -2.4133 0.9706
7.0662 -0.2623 -2.4133 0.9706
7.0678 -0.2186 -2.4133 0.9706
7.0690 -0.1749 -2.4133 0.9706
7.0708 -0.0874 -2.4134 0.9706
7.0713 0.0437 -2.4134 0.9706
7.0703 0.1312 -2.4135 0.9706
7.0650 0.3060 -2.4135 0.9706
7.0630 0.3497 -2.4135 0.9706
7.0607 0.3934 -2.4135 0.9706
7.0582 0.4371 -2.4135 0.9706
7.0523 0.5243 -2.4135 0.9706
7.0453 0.6115 -2.4135 0.9706
7.0414 0.6551 -2.4136 0.9706
7.0372 0.6986 -2.4136 0.9706
7.0280 0.7856 -2.4136 0.9706
7.0231 0.8291 -2.4136 0.9706
7.0178 0.8725 -2.4136 0.9706
7.0123 0.9159 -2.4136 0.9706
7.0004 1.0025 -2.4136 0.9706
6.9421 1.3474 -2.4135 0.9706
6.9336 1.3903 -2.4135 0.9706
6.9248 1.4332 -2.4135 0.9706
6.8871 1.6040 -2.4134 0.9706
6.8770 1.6465 -2.4134 0.9706
6.8452 1.7738 -2.4134 0.9706
6.8226 1.8583 -2.4133 0.9706
6.7990 1.9425 -2.4133 0.9706
6.7622 1.9773 -2.4045 0.9707
6.4376 1.9257 -2.2933 0.9720
6.2959 1.9258 -2.2470 0.9726
6.2622 2.0005 -2.2437 0.9726
6.1712 2.0559 -2.2200 0.9729
5.0049 1.9473 -1.8329 0.9776
4.9044 1.9784 -1.8049 0.9779
4.5753 1.9786 -1.7013 0.9792
4.4988 1.9786 -1.6774 0.9794
4.3522 1.9787 -1.6317 0.9800
4.2133 1.9788 -1.5886 0.9805
4.1465 1.9788 -1.5681 0.9808
4.0180 1.9789 -1.5286 0.9812
3.9562 1.9789 -1.5097 0.9815
3.8959 1.9790 -1.4913 0.9817
3.8370 1.9790 -1.4734 0.9819
3.7795 1.9790 -1.4560 0.9821
3.7233 1.9791 -1.4391 0.9823
3.6148 1.9791 -1.4065 0.9827
3.5624 1.9792 -1.3909 0.9829
3.4610 1.9792 -1.3607 0.9833
3.1813 1.9794 -1.2787 0.9843
3.1379 1.9794 -1.2662 0.9844
2.9738 1.9277 -1.2095 0.9851
2.9235 1.9469 -1.1988 0.9853
2.8943 1.9796 -1.1967 0.9853
2.8189 1.9796 -1.1756 0.9855
2.7822 1.9796 -1.1654 0.9857
2.7106 1.9797 -1.1456 0.9859
2.6758 1.9797 -1.1360 0.9860
2.6414 1.9797 -1.1266 0.9861
2.5745 1.9797 -1.1084 0.9864
2.5419 1.9797 -1.0996 0.9865
2.5097 1.9798 -1.0910 0.9866
2.4781 1.9798 -1.0825 0.9867
2.4162 1.9798 -1.0661 0.9869
2.3562 1.9798 -1.0503 0.9871
2.3269 1.9799 -1.0427 0.9872
2.2694 1.9799 -1.0279 0.9874
2.2413 1.9799 -1.0207 0.9874
2.2136 1.9799 -1.0136 0.9875
2.1862 1.9799 -1.0066 0.9876
2.1593 1.9799 -0.9998 0.9877
2.1064 1.9800 -0.9866 0.9879
2.0805 1.9800 -0.9802 0.9879
2.0296 1.9800 -0.9677 0.9881
2.0047 1.9800 -0.9616 0.9882
1.9557 1.9801 -0.9498 0.9883
1.9317 1.9801 -0.9441 0.9884
1.9079 1.9801 -0.9385 0.9884
1.8613 1.9801 -0.9275 0.9886
1.8384 1.9801 -0.9222 0.9886
1.8157 1.9802 -0.9169 0.9887
1.7933 1.9802 -0.9118 0.9888
1.7712 1.9802 -0.9067 0.9888
1.7276 1.9802 -0.8969 0.9890
1.7062 1.9802 -0.8921 0.9890
1.6849 1.9802 -0.8874 0.9891
1.6639 1.9802 -0.8827 0.9891
1.6226 1.9803 -0.8737 0.9892
1.5424 1.9803 -0.8567 0.9894
1.5034 1.9803 -0.8486 0.9895
1.4652 1.9803 -0.8407 0.9896
1.4463 1.9804 -0.8369 0.9897
1.4091 1.9804 -0.8295 0.9898
1.3545 1.9804 -0.8189 0.9899
1.3366 1.9804 -0.8154 0.9900
1.3012 1.9804 -0.8087 0.9900
1.2838 1.9804 -0.8055 0.9901
1.2153 1.9805 -0.7930 0.9902
1.1986 1.9805 -0.7901 0.9903
1.1653 1.9805 -0.7843 0.9903
1.1489 1.9805 -0.7814 0.9904
1.1164 1.9805 -0.7759 0.9904
1.1003 1.9805 -0.7733 0.9905
1.0685 1.9806 -0.7680 0.9905
0.9907 1.9806 -0.7558 0.9907
0.9754 1.9806 -0.7535 0.9907
0.9603 1.9806 -0.7512 0.9907
0.9452 1.9806 -0.7490 0.9908
0.8711 1.9807 -0.7385 0.9909
0.8420 1.9807 -0.7345 0.9909
0.8133 1.9807 -0.7308 0.9910
0.7990 1.9807 -0.7289 0.9910
0.7707 1.9807 -0.7254 0.9911
0.7566 1.9807 -0.7236 0.9911
0.7426 1.9807 -0.7220 0.9911
0.7287 1.9807 -0.7203 0.9911
0.6735 1.9808 -0.7140 0.9912
0.6599 1.9808 -0.7125 0.9912
0.6328 1.9808 -0.7097 0.9912
0.6193 1.9808 -0.7083 0.9913
0.6059 1.9808 -0.7070 0.9913
0.5925 1.9808 -0.7056 0.9913
0.5792 1.9808 -0.7043 0.9913
0.5659 1.9808 -0.7031 0.9913
0.5527 1.9808 -0.7019 0.9913
0.5133 1.9809 -0.6984 0.9914
0.4872 1.9809 -0.6962 0.9914
0.4228 1.9809 -0.6913 0.9915
0.4100 1.9809 -0.6904 0.9915
0.3972 1.9809 -0.6895 0.9915
0.3845 1.9809 -0.6887 0.9915
0.3591 1.9809 -0.6871 0.9915
0.3465 1.9809 -0.6863 0.9915
0.3422 2.0304 -0.7027 0.9913
0.3422 2.1097 -0.7294 0.9910
0.3422 2.1953 -0.7583 0.9907
0.3421 2.2880 -0.7896 0.9903
0.3420 2.4984 -0.8606 0.9894
0.3420 2.7504 -0.9459 0.9884
0.3419 2.8961 -0.9953 0.9878
0.3418 3.0579 -1.0501 0.9871
0.3417 3.2386 -1.1114 0.9863
0.3417 3.4416 -1.1804 0.9855
0.3416 3.6716 -1.2585 0.9845
0.3069 3.8088 -1.3041 0.9840
0.3729 5.4737 -1.8725 0.9771
0.3390 5.4737 -1.8717 0.9771
0.3050 5.4738 -1.8711 0.9771
0.3039 7.0145 -2.3962 0.9708
0.2171 7.0170 -2.3960 0.9708
0.1737 7.0178 -2.3959 0.9708
0.1303 7.0184 -2.3957 0.9708
0.0869 7.0187 -2.3956 0.9708
0.0434 7.0187 -2.3955 0.9708
0.0000 7.0185 -2.3954 0.9708
-0.0434 7.0180 -2.3952 0.9708
-0.2169 7.0133 -2.3947 0.9708
-0.3036 7.0093 -2.3945 0.9708
-0.3469 7.0070 -2.3944 0.9708
-0.4335 7.0014 -2.3941 0.9708
-0.4768 6.9982 -2.3940 0.9708
-0.5200 6.9948 -2.3939 0.9708
-0.6496 6.9828 -2.3935 0.9708
-0.6927 6.9783 -2.3933 0.9708
-0.7358 6.9735 -2.3932 0.9708
-0.7789 6.9685 -2.3931 0.9708
-0.8649 6.9576 -2.3928 0.9708
-0.9079 6.9517 -2.3927 0.9708
-0.9937 6.9394 -2.3925 0.9708
-1.0366 6.9329 -2.3924 0.9708
-1.2075 6.9039 -2.3920 0.9708
-1.2927 6.8879 -2.3918 0.9708
-1.3352 6.8795 -2.3917 0.9708
-1.4201 6.8619 -2.3915 0.9708
-1.4625 6.8526 -2.3914 0.9708
-1.5891 6.8235 -2.3911 0.9708
-1.6733 6.8027 -2.3909 0.9708
-1.7152 6.7920 -2.3908 0.9708
-1.7571 6.7810 -2.3907 0.9708
-1.8407 6.7581 -2.3905 0.9708
-1.8824 6.7463 -2.3904 0.9708
-1.9240 6.7343 -2.3903 0.9708
-1.9655 6.7220 -2.3902 0.9708
-2.0070 6.7094 -2.3901 0.9708
-2.0896 6.6836 -2.3899 0.9708
-2.1720 6.6567 -2.3897 0.9708
-2.2130 6.6428 -2.3896 0.9708
-2.2948 6.6144 -2.3895 0.9708
-2.3763 6.5850 -2.3893 0.9708
-2.4168 6.5699 -2.3892 0.9708
-2.4573 6.5546 -2.3891 0.9708
-2.5781 6.5071 -2.3888 0.9709
-2.6582 6.4742 -2.3886 0.9709
-2.6981 6.4574 -2.3885 0.9709
-2.7776 6.4230 -2.3883 0.9709
-2.8171 6.4054 -2.3882 0.9709
-2.8959 6.3696 -2.3880 0.9709
-2.9351 6.3513 -2.3879 0.9709
-2.9742 6.3328 -2.3878 0.9709
-3.2064 6.2167 -2.3873 0.9709
-3.3964 6.1134 -2.3868 0.9709
-3.4715 6.0705 -2.3867 0.9709
-3.5460 6.0266 -2.3865 0.9709
-3.5831 6.0044 -2.3864 0.9709
-3.6568 5.9592 -2.3862 0.9709
-3.6935 5.9362 -2.3861 0.9709
-3.7663 5.8897 -2.3860 0.9709
-3.8746 5.8181 -2.3857 0.9709
-3.9103 5.7939 -2.3856 0.9709
-3.9814 5.7447 -2.3855 0.9709
-4.0167 5.7197 -2.3854 0.9709
-4.0519 5.6946 -2.3853 0.9709
-4.0868 5.6692 -2.3852 0.9709
-4.1564 5.6179 -2.3850 0.9709
-4.1909 5.5919 -2.3850 0.9709
-4.2253 5.5656 -2.3849 0.9709
-4.2594 5.5392 -2.3848 0.9709
-4.3945 5.4314 -2.3845 0.9709
-4.4279 5.4039 -2.3844 0.9709
-4.4611 5.3763 -2.3843 0.9709
-4.5269 5.3204 -2.3842 0.9709
-4.5596 5.2921 -2.3841 0.9709
-4.5921 5.2636 -2.3840 0.9709
-4.7833 5.0887 -2.3835 0.9709
-4.8145 5.0588 -2.3835 0.9709
-4.8455 5.0288 -2.3834 0.9709
-4.9071 4.9682 -2.3833 0.9709
-4.9376 4.9376 -2.3832 0.9709
-4.9679 4.9068 -2.3831 0.9709
-4.9979 4.8758 -2.3830 0.9709
-5.0278 4.8447 -2.3830 0.9709
-5.0576 4.8134 -2.3829 0.9709
-5.0871 4.7819 -2.3828 0.9709
-5.1164 4.7502 -2.3828 0.9709
-5.1455 4.7183 -2.3827 0.9709
-5.2317 4.6216 -2.3825 0.9709
-5.3438 4.4903 -2.3822 0.9709
-5.4258 4.3900 -2.3820 0.9709
-5.4527 4.3563 -2.3820 0.9709
-5.4794 4.3223 -2.3819 0.9709
-5.5321 4.2540 -2.3818 0.9709
-5.5582 4.2196 -2.3817 0.9709
-5.5840 4.1851 -2.3816 0.9709
-5.6097 4.1504 -2.3816 0.9709
-5.6603 4.0804 -2.3815 0.9709
-5.6853 4.0453 -2.3814 0.9709
-5.7100 4.0099 -2.3813 0.9709
-5.7346 3.9744 -2.3813 0.9709
-5.7589 3.9388 -2.3812 0.9709
-5.7830 3.9030 -2.3812 0.9709
-5.8069 3.8671 -2.3811 0.9709
-5.8306 3.8310 -2.3811 0.9709
-5.8540 3.7948 -2.3810 0.9709
-5.9002 3.7219 -2.3809 0.9709
-6.0118 3.5373 -2.3806 0.9709
-6.0334 3.5000 -2.3806 0.9709
-6.0548 3.4626 -2.3805 0.9710
-6.0760 3.4250 -2.3805 0.9710
-6.1176 3.3494 -2.3804 0.9710
-6.1381 3.3115 -2.3803 0.9710
-6.1584 3.2734 -2.3803 0.9710
-6.1783 3.2352 -2.3802 0.9710
-6.2560 3.0811 -2.3800 0.9710
-6.2748 3.0423 -2.3800 0.9710
-6.2934 3.0034 -2.3799 0.9710
-6.3298 2.9252 -2.3799 0.9710
-6.3477 2.8860 -2.3798 0.9710
-6.3652 2.8466 -2.3798 0.9710
-6.3826 2.8071 -2.3797 0.9710
-6.3998 2.7676 -2.3797 0.9710
-6.4166 2.7279 -2.3797 0.9710
-6.4497 2.6482 -2.3796 0.9710
-6.4817 2.5682 -2.3795 0.9710
-6.5127 2.4877 -2.3794 0.9710
-6.5427 2.4069 -2.3793 0.9710
-6.6133 2.2032 -2.3791 0.9710
-6.6267 2.1622 -2.3790 0.9710
-6.6527 2.0801 -2.3789 0.9710
-6.7246 1.8316 -2.3787 0.9710
-6.7571 1.7065 -2.3786 0.9710
-6.7674 1.6646 -2.3785 0.9710
-6.7775 1.6227 -2.3785 0.9710
-6.7873 1.5807 -2.3785 0.9710
-6.7968 1.5387 -2.3784 0.9710
-6.8487 1.2854 -2.3782 0.9710
-6.8563 1.2430 -2.3782 0.9710
-6.8638 1.2006 -2.3782 0.9710
-6.8780 1.1155 -2.3781 0.9710
-6.8847 1.0730 -2.3781 0.9710
-6.8911 1.0304 -2.3780 0.9710
-6.8973 0.9877 -2.3780 0.9710
-6.9193 0.8168 -2.3779 0.9710
-6.9242 0.7740 -2.3779 0.9710
-6.9287 0.7312 -2.3779 0.9710
-6.9331 0.6883 -2.3779 0.9710
-6.9371 0.6454 -2.3778 0.9710
-6.9444 0.5595 -2.3778 0.9710
-6.9477 0.5166 -2.3778 0.9710
-6.9507 0.4736 -2.3778 0.9710
-6.9560 0.3876 -2.3777 0.9710
-6.9582 0.3446 -2.3777 0.9710
-6.9632 0.2154 -2.3777 0.9710
-6.9653 0.1293 -2.3776 0.9710
-6.9659 0.0862 -2.3776 0.9710
-6.9663 0.0431 -2.3776 0.9710
-6.8018 -0.0420 -2.3780 0.9716
-6.7998 -0.1682 -2.3780 0.9716
-6.7955 -0.2944 -2.3780 0.9716
-6.7935 -0.3364 -2.3780 0.9716
-6.7888 -0.4204 -2.3779 0.9716
-6.7861 -0.4623 -2.3779 0.9716
-6.7798 -0.5462 -2.3779 0.9716
-6.7763 -0.5882 -2.3779 0.9716
-6.7725 -0.6301 -2.3779 0.9716
-6.7685 -0.6719 -2.3779 0.9716
-6.7642 -0.7138 -2.3779 0.9716
-6.7445 -0.8808 -2.3779 0.9716
-6.7331 -0.9642 -2.3780 0.9716
-6.7270 -1.0058 -2.3780 0.9716
-6.7002 -1.1719 -2.3780 0.9716
-6.6774 -1.2960 -2.3780 0.9716
-6.6609 -1.3785 -2.3780 0.9716
-6.6434 -1.4608 -2.3781 0.9716
-6.6343 -1.5019 -2.3781 0.9716
-6.6249 -1.5429 -2.3781 0.9716
-6.6054 -1.6247 -2.3781 0.9716
-6.5953 -1.6656 -2.3781 0.9716
-6.5742 -1.7470 -2.3782 0.9716
-6.5634 -1.7877 -2.3782 0.9716
-6.5522 -1.8283 -2.3782 0.9716
-6.5292 -1.9092 -2.3782 0.9716
-6.5052 -1.9898 -2.3783 0.9716
-6.4409 -2.1901 -2.3784 0.9716
-6.4135 -2.2696 -2.3784 0.9716
-6.3705 -2.3883 -2.3785 0.9716
-6.2779 -2.6232 -2.3787 0.9716
-6.2617 -2.6620 -2.3787 0.9716
-6.2452 -2.7007 -2.3788 0.9716
-6.2115 -2.7778 -2.3788 0.9716
-6.1412 -2.9308 -2.3790 0.9716
-6.1231 -2.9688 -2.3790 0.9716
-6.1048 -3.0066 -2.3791 0.9716
-6.0673 -3.0820 -2.3791 0.9716
-6.0482 -3.1195 -2.3792 0.9716
-6.0094 -3.1942 -2.3793 0.9716
-5.9896 -3.2313 -2.3793 0.9716
-5.9696 -3.2684 -2.3793 0.9716
-5.8449 -3.4880 -2.3796 0.9716
-5.8234 -3.5241 -2.3797 0.9716
-5.8016 -3.5601 -2.3797 0.9716
-5.7573 -3.6318 -2.3798 0.9716
-5.7349 -3.6674 -2.3798 0.9716
-5.6893 -3.7382 -2.3799 0.9716
-5.6662 -3.7734 -2.3800 0.9716
-5.5956 -3.8781 -2.3802 0.9716
-5.5475 -3.9472 -2.3803 0.9716
-5.4985 -4.0157 -2.3804 0.9716
-5.4737 -4.0497 -2.3804 0.9716
-5.4487 -4.0836 -2.3805 0.9716
-5.4234 -4.1173 -2.3805 0.9716
-5.3979 -4.1509 -2.3806 0.9716
-5.3723 -4.1842 -2.3807 0.9716
-5.2410 -4.3489 -2.3810 0.9716
-5.2142 -4.3813 -2.3810 0.9716
-5.1047 -4.5095 -2.3813 0.9716
-5.0769 -4.5411 -2.3813 0.9715
-5.0489 -4.5725 -2.3814 0.9715
-5.0206 -4.6037 -2.3815 0.9715
-4.9922 -4.6348 -2.3815 0.9715
-4.9347 -4.6965 -2.3817 0.9715
-4.8766 -4.7574 -2.3818 0.9715
-4.8472 -4.7876 -2.3819 0.9715
-4.6671 -4.9650 -2.3823 0.9715
-4.6364 -4.9939 -2.3823 0.9715
-4.5746 -5.0512 -2.3825 0.9715
-4.5121 -5.1077 -2.3826 0.9715
-4.3849 -5.2184 -2.3829 0.9715
-4.3527 -5.2456 -2.3830 0.9715
-4.3203 -5.2726 -2.3831 0.9715
-4.2877 -5.2994 -2.3832 0.9715
-4.2550 -5.3260 -2.3833 0.9715
-4.2221 -5.3524 -2.3833 0.9715
-4.1891 -5.3786 -2.3834 0.9715
-4.0890 -5.4559 -2.3836 0.9715
-3.9875 -5.5314 -2.3839 0.9715
-3.8846 -5.6050 -2.3841 0.9715
-3.8153 -5.6530 -2.3843 0.9715
-3.7453 -5.7001 -2.3845 0.9715
-3.7101 -5.7234 -2.3846 0.9715
-3.6748 -5.7464 -2.3846 0.9715
-3.6393 -5.7693 -2.3847 0.9715
-3.6037 -5.7919 -2.3848 0.9715
-3.4960 -5.8584 -2.3851 0.9715
-3.4598 -5.8801 -2.3852 0.9715
-3.2770 -5.9854 -2.3856 0.9715
-3.2029 -6.0259 -2.3858 0.9715
-3.1284 -6.0655 -2.3860 0.9715
-3.0534 -6.1042 -2.3862 0.9715
-2.9779 -6.1420 -2.3863 0.9715
-2.8637 -6.1969 -2.3866 0.9715
-2.7871 -6.2323 -2.3868 0.9715
-2.7100 -6.2668 -2.3870 0.9715
-2.6713 -6.2837 -2.3871 0.9715
-2.6325 -6.3004 -2.3872 0.9715
-2.5936 -6.3168 -2.3873 0.9715
-2.4763 -6.3646 -2.3876 0.9715
-2.4370 -6.3801 -2.3877 0.9715
-2.3976 -6.3953 -2.3878 0.9715
-2.3581 -6.4102 -2.3879 0.9715
-2.3185 -6.4250 -2.3880 0.9715
-2.2391 -6.4537 -2.3882 0.9715
-2.1992 -6.4677 -2.3883 0.9715
-2.1592 -6.4814 -2.3884 0.9715
-1.9582 -6.5465 -2.3889 0.9715
-1.9178 -6.5587 -2.3890 0.9715
-1.8367 -6.5825 -2.3892 0.9715
-1.7960 -6.5940 -2.3893 0.9715
-1.6736 -6.6271 -2.3896 0.9715
-1.5916 -6.6478 -2.3898 0.9714
-1.4270 -6.6863 -2.3902 0.9714
-1.3443 -6.7041 -2.3904 0.9714
-1.3029 -6.7125 -2.3905 0.9714
-1.2198 -6.7287 -2.3907 0.9714
-1.0949 -6.7511 -2.3911 0.9714
-1.0532 -6.7580 -2.3912 0.9714
-1.0115 -6.7647 -2.3913 0.9714
-0.9278 -6.7773 -2.3915 0.9714
-0.8859 -6.7832 -2.3916 0.9714
-0.8020 -6.7943 -2.3918 0.9714
-0.7600 -6.7994 -2.3919 0.9714
-0.7180 -6.8043 -2.3920 0.9714
-0.6338 -6.8132 -2.3922 0.9714
-0.5917 -6.8174 -2.3923 0.9714
-0.5495 -6.8212 -2.3924 0.9714
-0.4229 -6.8311 -2.3928 0.9714
-0.3808 -6.8339 -2.3929 0.9714
-0.3385 -6.8364 -2.3930 0.9714
-0.2962 -6.8387 -2.3931 0.9714
-0.1693 -6.8440 -2.3934 0.9714
-0.1270 -6.8452 -2.3935 0.9714
-0.0846 -6.8462 -2.3936 0.9714
0.0424 -6.8475 -2.3940 0.9714
0.1271 -6.8471 -2.3942 0.9714
0.1694 -6.8465 -2.3943 0.9714
0.3388 -6.8414 -2.3947 0.9714
0.4327 -5.8190 -2.0400 0.9756
0.4688 -5.8191 -2.0410 0.9756
0.3864 -4.1538 -1.4585 0.9825
0.4124 -4.1538 -1.4593 0.9825
0.4382 -3.3546 -1.1828 0.9858
0.4384 -3.2020 -1.1299 0.9864
0.4386 -3.0624 -1.0816 0.9870
0.4391 -2.7071 -0.9588 0.9884
0.4392 -2.6059 -0.9239 0.9889
0.4394 -2.5118 -0.8915 0.9893
0.4396 -2.3421 -0.8331 0.9900
0.4664 -2.3258 -0.8293 0.9900
0.4814 -2.3258 -0.8303 0.9900
0.4964 -2.3258 -0.8314 0.9900
0.5115 -2.3258 -0.8325 0.9900
0.5266 -2.3258 -0.8337 0.9899
0.5417 -2.3258 -0.8349 0.9899
0.5569 -2.3258 -0.8361 0.9899
0.5874 -2.3258 -0.8386 0.9899
0.6181 -2.3258 -0.8413 0.9899
0.6335 -2.3259 -0.8428 0.9898
0.6645 -2.3259 -0.8457 0.9898
0.6801 -2.3259 -0.8472 0.9898
0.6958 -2.3259 -0.8487 0.9898
0.7115 -2.3259 -0.8503 0.9897
0.7272 -2.3259 -0.8520 0.9897
0.7431 -2.3259 -0.8536 0.9897
0.8394 -2.3260 -0.8645 0.9896
0.8557 -2.3260 -0.8664 0.9896
0.8720 -2.3260 -0.8684 0.9895
0.9216 -2.3260 -0.8747 0.9895
0.9383 -2.3260 -0.8769 0.9894
0.9551 -2.3260 -0.8791 0.9894
0.9889 -2.3261 -0.8836 0.9893
1.0059 -2.3260 -0.8860 0.9893
1.0230 -2.3261 -0.8884 0.9893
1.0403 -2.3261 -0.8908 0.9893
1.0750 -2.3261 -0.8959 0.9892
1.0925 -2.3261 -0.8984 0.9892
1.1278 -2.3261 -0.9038 0.9891
1.1816 -2.3262 -0.9121 0.9890
1.1998 -2.3262 -0.9150 0.9890
1.2181 -2.3262 -0.9180 0.9889
1.2365 -2.3262 -0.9210 0.9889
1.2550 -2.3262 -0.9240 0.9889
1.2736 -2.3262 -0.9272 0.9888
1.3113 -2.3262 -0.9336 0.9887
1.3303 -2.3262 -0.9369 0.9887
1.4474 -2.3263 -0.9579 0.9885
1.4877 -2.3263 -0.9654 0.9884
1.5286 -2.3263 -0.9732 0.9883
1.5701 -2.3263 -0.9812 0.9882
1.6337 -2.3264 -0.9938 0.9880
1.6553 -2.3264 -0.9982 0.9880
1.6991 -2.3264 -1.0072 0.9879
1.7213 -2.3264 -1.0117 0.9878
1.8120 -2.3265 -1.0309 0.9876
1.9064 -2.3265 -1.0516 0.9873
1.9797 -2.3266 -1.0680 0.9871
2.0298 -2.3266 -1.0794 0.9870
2.0553 -2.3266 -1.0853 0.9869
2.0811 -2.3267 -1.0913 0.9869
2.1602 -2.3267 -1.1099 0.9866
2.2420 -2.3267 -1.1296 0.9864
2.2699 -2.3268 -1.1364 0.9863
2.2982 -2.3268 -1.1433 0.9862
2.3268 -2.3268 -1.1504 0.9862
2.3558 -2.3268 -1.1576 0.9861
2.4148 -2.3269 -1.1724 0.9859
2.4449 -2.3269 -1.1800 0.9858
2.5518 -2.2825 -1.1969 0.9856
2.6407 -2.2752 -1.2186 0.9853
2.6740 -2.2752 -1.2274 0.9852
2.7420 -2.2752 -1.2457 0.9850
2.8121 -2.2753 -1.2646 0.9848
2.8480 -2.2753 -1.2744 0.9847
2.8844 -2.2753 -1.2844 0.9846
2.9940 -2.3022 -1.3204 0.9841
2.9972 -2.2754 -1.3156 0.9842
3.0360 -2.2754 -1.3264 0.9841
3.1867 -2.3273 -1.3795 0.9834
3.2284 -2.3273 -1.3914 0.9833
3.2709 -2.3273 -1.4034 0.9831
3.3141 -2.3274 -1.4158 0.9830
3.3581 -2.3274 -1.4284 0.9828
3.4029 -2.3274 -1.4413 0.9827
3.4486 -2.3275 -1.4545 0.9825
3.5423 -2.3275 -1.4818 0.9822
3.5906 -2.3275 -1.4959 0.9820
3.6397 -2.3276 -1.5104 0.9819
3.6899 -2.3276 -1.5252 0.9817
3.7931 -2.3276 -1.5559 0.9813
3.8463 -2.3277 -1.5717 0.9811
3.9006 -2.3277 -1.5880 0.9809
4.0127 -2.3278 -1.6218 0.9805
4.1297 -2.3278 -1.6573 0.9801
4.2519 -2.3279 -1.6947 0.9797
4.3151 -2.3279 -1.7141 0.9794
4.8021 -2.3282 -1.8657 0.9776
5.1024 -2.2818 -1.9541 0.9766
5.6381 -2.3969 -2.1418 0.9744
5.6810 -2.3737 -2.1525 0.9742
5.9281 -2.4340 -2.2404 0.9732
5.9911 -2.2884 -2.2421 0.9732
6.0740 -2.2771 -2.2678 0.9729
6.4546 -2.3292 -2.3990 0.9713
6.5155 -2.2605 -2.4110 0.9712
6.5295 -2.2202 -2.4111 0.9712
6.5567 -2.1394 -2.4112 0.9712
6.6082 -1.9767 -2.4114 0.9712
6.6204 -1.9358 -2.4114 0.9712
6.6324 -1.8949 -2.4115 0.9712
6.6556 -1.8128 -2.4116 0.9712
6.6668 -1.7716 -2.4116 0.9712
6.6885 -1.6891 -2.4117 0.9712
6.7091 -1.6063 -2.4118 0.9712
6.7381 -1.4816 -2.4119 0.9712
6.7561 -1.3982 -2.4120 0.9712
6.7891 -1.2308 -2.4122 0.9712
6.7967 -1.1888 -2.4122 0.9712
6.8479 -0.8513 -2.4125 0.9712
6.8531 -0.8089 -2.4125 0.9712
6.8628 -0.7241 -2.4126 0.9712
6.8672 -0.6817 -2.4126 0.9712
6.8713 -0.6392 -2.4126 0.9712
6.8822 -0.5117 -2.4127 0.9712
6.8853 -0.4691 -2.4127 0.9712
6.8882 -0.4265 -2.4127 0.9712
6.8907 -0.3839 -2.4128 0.9712
6.8930 -0.3413 -2.4128 0.9712
6.8968 -0.2560 -2.4128 0.9712
6.9019 0.0000 -2.4129 0.9712
6.9014 0.0854 -2.4129 0.9712
6.9008 0.1280 -2.4130 0.9712
6.8999 0.1707 -2.4130 0.9712
6.8988 0.2134 -2.4130 0.9712
6.8957 0.2987 -2.4130 0.9712
6.8937 0.3414 -2.4130 0.9712
6.8915 0.3840 -2.4130 0.9712
6.8890 0.4266 -2.4130 0.9712
6.8833 0.5118 -2.4130 0.9712
6.8764 0.5969 -2.4131 0.9712
6.8685 0.6819 -2.4131 0.9712
6.8596 0.7668 -2.4131 0.9712
6.8547 0.8092 -2.4131 0.9712
6.8496 0.8516 -2.4131 0.9712
6.8442 0.8939 -2.4131 0.9712
6.8385 0.9362 -2.4131 0.9712
6.8326 0.9785 -2.4131 0.9712
6.8062 1.1472 -2.4130 0.9712
6.7990 1.1892 -2.4130 0.9712
6.7915 1.2312 -2.4130 0.9712
6.7837 1.2732 -2.4130 0.9712
6.7757 1.3151 -2.4130 0.9712
6.7674 1.3570 -2.4130 0.9712
6.7316 1.5239 -2.4130 0.9712
6.7221 1.5656 -2.4129 0.9712
6.6917 1.6899 -2.4129 0.9712
6.6477 1.8549 -2.4128 0.9712
6.6360 1.8960 -2.4128 0.9712
6.2958 1.9258 -2.3017 0.9725
6.1123 1.9526 -2.2433 0.9732
6.0875 2.0280 -2.2432 0.9732
6.0748 2.0656 -2.2432 0.9732
5.8859 2.0830 -2.1828 0.9739
5.7724 2.0830 -2.1454 0.9743
5.5406 2.0382 -2.0639 0.9753
5.0435 1.9265 -1.8875 0.9774
5.0048 1.9472 -1.8775 0.9775
4.9931 1.9783 -1.8776 0.9775
4.9044 1.9784 -1.8488 0.9778
4.8184 1.9784 -1.8210 0.9782
4.7350 1.9785 -1.7941 0.9785
4.4988 1.9786 -1.7182 0.9794
4.4245 1.9787 -1.6944 0.9797
4.2818 1.9787 -1.6490 0.9802
4.2133 1.9788 -1.6273 0.9805
4.1465 1.9788 -1.6062 0.9807
4.0814 1.9788 -1.5857 0.9810
4.0180 1.9789 -1.5658 0.9812
3.9562 1.9789 -1.5465 0.9814
3.8958 1.9790 -1.5276 0.9817
3.7233 1.9791 -1.4741 0.9823
3.6684 1.9791 -1.4572 0.9825
3.1812 1.9794 -1.3099 0.9842
3.1379 1.9794 -1.2970 0.9844
3.0953 1.9794 -1.2845 0.9846
2.9738 1.9277 -1.2390 0.9851
2.8176 1.9528 -1.1985 0.9856
2.7461 1.9796 -1.1835 0.9858
2.6757 1.9796 -1.1636 0.9860
2.6414 1.9797 -1.1540 0.9861
2.5419 1.9797 -1.1264 0.9864
2.5097 1.9797 -1.1175 0.9865
2.4469 1.9798 -1.1004 0.9868
2.3860 1.9798 -1.0839 0.9869
2.3269 1.9798 -1.0681 0.9871
2.2979 1.9799 -1.0604 0.9872
2.2694 1.9799 -1.0529 0.9873
2.2413 1.9799 -1.0455 0.9874
2.2136 1.9799 -1.0383 0.9875
2.1862 1.9799 -1.0312 0.9876
2.0804 1.9800 -1.0041 0.9879
2.0549 1.9800 -0.9976 0.9880
1.9800 1.9801 -0.9790 0.9882
1.9557 1.9801 -0.9730 0.9883
1.9317 1.9801 -0.9671 0.9883
1.9079 1.9801 -0.9613 0.9884
1.8845 1.9801 -0.9556 0.9885
1.8157 1.9801 -0.9392 0.9887
1.7933 1.9802 -0.9340 0.9887
1.7492 1.9802 -0.9237 0.9889
1.7062 1.9802 -0.9138 0.9890
1.6431 1.9802 -0.8996 0.9892
1.6022 1.9803 -0.8905 0.9893
1.5821 1.9803 -0.8861 0.9893
1.5228 1.9803 -0.8733 0.9895
1.5034 1.9803 -0.8692 0.9895
1.4652 1.9803 -0.8612 0.9896
1.4276 1.9804 -0.8535 0.9897
1.4091 1.9804 -0.8497 0.9898
1.3908 1.9804 -0.8460 0.9898
1.3725 1.9804 -0.8424 0.9898
1.3366 1.9804 -0.8353 0.9899
1.3189 1.9804 -0.8318 0.9900
1.3013 1.9804 -0.8284 0.9900
1.2838 1.9804 -0.8251 0.9900
1.2665 1.9804 -0.8218 0.9901
1.2493 1.9805 -0.8186 0.9901
1.2153 1.9805 -0.8123 0.9902
1.1653 1.9805 -0.8034 0.9903
1.1489 1.9805 -0.8005 0.9903
1.1326 1.9805 -0.7976 0.9904
1.1164 1.9805 -0.7948 0.9904
1.0527 1.9805 -0.7841 0.9905
1.0061 1.9806 -0.7766 0.9906
0.9907 1.9806 -0.7742 0.9907
0.9603 1.9806 -0.7695 0.9907
0.9302 1.9806 -0.7650 0.9908
0.9153 1.9806 -0.7628 0.9908
0.8565 1.9807 -0.7544 0.9909
0.8276 1.9807 -0.7505 0.9909
0.8133 1.9807 -0.7486 0.9910
0.7848 1.9807 -0.7448 0.9910
0.7566 1.9807 -0.7413 0.9911
0.7426 1.9807 -0.7395 0.9911
0.6872 1.9808 -0.7330 0.9912
0.6328 1.9808 -0.7270 0.9912
0.6193 1.9808 -0.7255 0.9912
0.5925 1.9808 -0.7228 0.9913
0.5792 1.9808 -0.7215 0.9913
0.5659 1.9808 -0.7202 0.9913
0.5527 1.9808 -0.7190 0.9913
0.5264 1.9809 -0.7165 0.9914
0.4872 1.9809 -0.7132 0.9914
0.4485 1.9809 -0.7100 0.9914
0.4356 1.9809 -0.7091 0.9914
0.4228 1.9809 -0.7081 0.9915
0.4100 1.9809 -0.7072 0.9915
0.3718 1.9809 -0.7046 0.9915
0.3421 2.1950 -0.7766 0.9906
0.3421 2.2877 -0.8087 0.9902
0.3421 2.3883 -0.8435 0.9898
0.3419 2.7499 -0.9688 0.9883
0.3418 3.0573 -1.0755 0.9870
0.3417 3.2379 -1.1383 0.9863
0.3069 3.8088 -1.3359 0.9839
0.3389 5.4737 -1.9173 0.9770
0.3050 5.4738 -1.9166 0.9770
0.2543 6.8489 -2.3960 0.9714
0.1695 6.8508 -2.3958 0.9714
0.1272 6.8514 -2.3957 0.9714
0.0848 6.8517 -2.3956 0.9714
0.0424 6.8517 -2.3954 0.9714
0.0000 6.8515 -2.3953 0.9714
-0.0424 6.8510 -2.3952 0.9714
-0.0847 6.8503 -2.3951 0.9714
-0.1271 6.8493 -2.3949 0.9714
-0.1694 6.8480 -2.3948 0.9714
-0.2117 6.8465 -2.3947 0.9714
-0.3810 6.8377 -2.3942 0.9714
-0.4654 6.8318 -2.3940 0.9714
-0.5076 6.8284 -2.3938 0.9714
-0.5498 6.8248 -2.3937 0.9714
-0.8444 6.7922 -2.3928 0.9714
-0.9282 6.7808 -2.3927 0.9714
-1.0120 6.7682 -2.3925 0.9714
-1.0538 6.7615 -2.3924 0.9714
-1.0955 6.7546 -2.3923 0.9714
-1.1372 6.7474 -2.3922 0.9714
-1.2205 6.7323 -2.3920 0.9714
-1.2621 6.7244 -2.3919 0.9714
-1.3864 6.6989 -2.3916 0.9714
-1.4690 6.6807 -2.3914 0.9714
-1.5103 6.6712 -2.3913 0.9714
-1.5514 6.6615 -2.3912 0.9714
-1.5925 6.6515 -2.3911 0.9714
-1.6336 6.6413 -2.3910 0.9714
-1.7154 6.6200 -2.3908 0.9714
-1.8377 6.5863 -2.3905 0.9714
-1.9189 6.5625 -2.3903 0.9714
-1.9998 6.5377 -2.3902 0.9714
-2.0400 6.5250 -2.3901 0.9714
-2.0803 6.5120 -2.3900 0.9714
-2.1204 6.4988 -2.3899 0.9714
-2.2005 6.4715 -2.3897 0.9715
-2.2802 6.4433 -2.3895 0.9715
-2.3199 6.4288 -2.3894 0.9715
-2.3990 6.3991 -2.3892 0.9715
-2.4385 6.3839 -2.3891 0.9715
-2.5562 6.3368 -2.3888 0.9715
-2.5952 6.3207 -2.3887 0.9715
-2.6341 6.3043 -2.3886 0.9715
-2.6730 6.2876 -2.3886 0.9715
-2.9037 6.1827 -2.3880 0.9715
-2.9418 6.1644 -2.3879 0.9715
-3.1304 6.0694 -2.3875 0.9715
-3.1677 6.0497 -2.3874 0.9715
-3.2050 6.0297 -2.3873 0.9715
-3.2421 6.0096 -2.3872 0.9715
-3.2791 5.9892 -2.3871 0.9715
-3.3892 5.9267 -2.3869 0.9715
-3.4257 5.9054 -2.3868 0.9715
-3.4620 5.8839 -2.3867 0.9715
-3.6060 5.7956 -2.3863 0.9715
-3.6416 5.7730 -2.3863 0.9715
-3.6771 5.7502 -2.3862 0.9715
-3.7125 5.7271 -2.3861 0.9715
-3.7828 5.6804 -2.3859 0.9715
-3.8525 5.6328 -2.3858 0.9715
-3.8871 5.6086 -2.3857 0.9715
-3.9559 5.5597 -2.3855 0.9715
-4.2578 5.3295 -2.3848 0.9715
-4.2905 5.3029 -2.3847 0.9715
-4.3231 5.2761 -2.3846 0.9715
-4.3877 5.2219 -2.3845 0.9715
-4.4198 5.1944 -2.3844 0.9715
-4.4517 5.1668 -2.3843 0.9715
-4.4834 5.1390 -2.3843 0.9715
-4.5149 5.1111 -2.3842 0.9715
-4.5776 5.0545 -2.3840 0.9715
-4.6086 5.0259 -2.3840 0.9715
-4.7309 4.9098 -2.3837 0.9715
-4.7610 4.8803 -2.3836 0.9715
-4.7910 4.8506 -2.3835 0.9715
-4.8207 4.8208 -2.3835 0.9715
-4.8797 4.7605 -2.3833 0.9715
-4.9667 4.6687 -2.3831 0.9715
-5.0521 4.5754 -2.3829 0.9715
-5.1356 4.4805 -2.3827 0.9715
-5.1631 4.4486 -2.3826 0.9715
-5.1904 4.4164 -2.3826 0.9715
-5.2175 4.3841 -2.3825 0.9715
-5.2444 4.3516 -2.3824 0.9715
-5.3498 4.2202 -2.3822 0.9715
-5.3757 4.1869 -2.3821 0.9715
-5.4268 4.1199 -2.3820 0.9715
-5.4770 4.0522 -2.3819 0.9715
-5.5019 4.0182 -2.3818 0.9715
-5.5508 3.9496 -2.3817 0.9715
-5.5750 3.9151 -2.3817 0.9715
-5.6227 3.8457 -2.3815 0.9715
-5.6696 3.7757 -2.3814 0.9715
-5.7156 3.7051 -2.3813 0.9715
-5.7383 3.6696 -2.3813 0.9716
-5.8050 3.5623 -2.3811 0.9716
-5.8484 3.4900 -2.3810 0.9716
-5.8697 3.4537 -2.3810 0.9716
-5.8908 3.4173 -2.3809 0.9716
-5.9731 3.2703 -2.3807 0.9716
-5.9931 3.2332 -2.3807 0.9716
-6.0516 3.1213 -2.3805 0.9716
-6.0707 3.0838 -2.3805 0.9716
-6.1265 2.9704 -2.3803 0.9716
-6.1447 2.9324 -2.3803 0.9716
-6.1626 2.8943 -2.3803 0.9716
-6.1803 2.8561 -2.3802 0.9716
-6.1977 2.8178 -2.3802 0.9716
-6.2319 2.7408 -2.3801 0.9716
-6.2813 2.6246 -2.3800 0.9716
-6.3286 2.5075 -2.3799 0.9716
-6.3439 2.4683 -2.3798 0.9716
-6.3589 2.4289 -2.3798 0.9716
-6.4304 2.2310 -2.3795 0.9716
-6.4439 2.1911 -2.3795 0.9716
-6.4702 2.1112 -2.3794 0.9716
-6.5201 1.9504 -2.3792 0.9716
-6.5548 1.8290 -2.3791 0.9716
-6.6076 1.6253 -2.3789 0.9716
-6.6175 1.5844 -2.3789 0.9716
-6.6270 1.5434 -2.3789 0.9716
