ply
format ascii 1.0
element vertex 1594
property float32 x
property float32 y
property float32 z
property float32 I
end_header
-0.0455 7.3711 -2.3942 0.9695
-0.0911 7.3704 -2.3941 0.9695
-0.1367 7.3694 -2.3940 0.9695
-0.2734 7.3647 -2.3937 0.9695
-0.3189 7.3626 -2.3936 0.9695
-0.3644 7.3602 -2.3935 0.9695
-0.4099 7.3576 -2.3934 0.9695
-0.4554 7.3546 -2.3933 0.9695
-0.5009 7.3514 -2.3932 0.9695
-0.5917 7.3440 -2.3931 0.9695
-0.6371 7.3400 -2.3930 0.9695
-0.6824 7.3356 -2.3929 0.9695
-0.8635 7.3154 -2.3925 0.9695
-0.9087 7.3096 -2.3924 0.9695
-0.9538 7.3036 -2.3923 0.9695
-1.0891 7.2838 -2.3921 0.9695
-1.1340 7.2766 -2.3920 0.9695
-1.2239 7.2615 -2.3918 0.9695
-1.3135 7.2453 -2.3916 0.9695
-1.6697 7.1693 -2.3909 0.9695
-1.7581 7.1476 -2.3907 0.9695
-1.8022 7.1363 -2.3906 0.9695
-1.9341 7.1009 -2.3904 0.9695
-1.9779 7.0885 -2.3903 0.9695
-2.0216 7.0759 -2.3902 0.9695
-2.0652 7.0630 -2.3901 0.9695
-2.1957 7.0227 -2.3898 0.9695
-2.2822 6.9945 -2.3897 0.9695
-2.3254 6.9800 -2.3896 0.9695
-2.3684 6.9653 -2.3895 0.9695
-2.4113 6.9502 -2.3894 0.9695
-2.4542 6.9349 -2.3893 0.9695
-2.7933 6.8032 -2.3887 0.9695
-2.8353 6.7855 -2.3886 0.9695
-2.8771 6.7677 -2.3885 0.9695
-2.9188 6.7495 -2.3884 0.9695
-3.0844 6.6743 -2.3881 0.9696
-3.1665 6.6352 -2.3879 0.9696
-3.2887 6.5747 -2.3877 0.9696
-3.3695 6.5330 -2.3875 0.9696
-3.4098 6.5119 -2.3874 0.9696
-3.4499 6.4904 -2.3874 0.9696
-3.4898 6.4688 -2.3873 0.9696
-3.5296 6.4469 -2.3872 0.9696
-3.6089 6.4023 -2.3871 0.9696
-3.7267 6.3336 -2.3868 0.9696
-3.7656 6.3103 -2.3867 0.9696
-3.8817 6.2387 -2.3865 0.9696
-3.9201 6.2144 -2.3864 0.9696
-4.0721 6.1147 -2.3861 0.9696
-4.1471 6.0636 -2.3860 0.9696
-4.2585 5.9850 -2.3858 0.9696
-4.2954 5.9584 -2.3857 0.9696
-4.3320 5.9315 -2.3856 0.9696
-4.3685 5.9045 -2.3856 0.9696
-4.4409 5.8496 -2.3854 0.9696
-4.5482 5.7658 -2.3852 0.9696
-4.5837 5.7374 -2.3852 0.9696
-4.6540 5.6799 -2.3850 0.9696
-4.6889 5.6509 -2.3849 0.9696
-4.7236 5.6216 -2.3849 0.9696
-4.7925 5.5624 -2.3847 0.9696
-4.8267 5.5325 -2.3847 0.9696
-4.8607 5.5024 -2.3846 0.9696
-4.9281 5.4416 -2.3845 0.9696
-4.9615 5.4109 -2.3844 0.9696
-4.9948 5.3799 -2.3844 0.9696
-5.0278 5.3488 -2.3843 0.9696
-5.0607 5.3174 -2.3842 0.9696
-5.0933 5.2859 -2.3842 0.9696
-5.1901 5.1901 -2.3840 0.9696
-5.2219 5.1578 -2.3839 0.9696
-5.2851 5.0925 -2.3838 0.9696
-5.3782 4.9932 -2.3836 0.9696
-5.4089 4.9597 -2.3836 0.9696
-5.4393 4.9261 -2.3835 0.9696
-5.4695 4.8922 -2.3834 0.9696
-5.4995 4.8582 -2.3834 0.9696
-5.5590 4.7896 -2.3833 0.9696
-5.5883 4.7550 -2.3832 0.9696
-5.6751 4.6501 -2.3830 0.9696
-5.7318 4.5793 -2.3829 0.9696
-5.7598 4.5436 -2.3828 0.9696
-5.7877 4.5078 -2.3827 0.9696
-5.8153 4.4717 -2.3827 0.9696
-5.8698 4.3993 -2.3825 0.9696
-5.8968 4.3627 -2.3825 0.9696
-5.9235 4.3261 -2.3824 0.9696
-6.0022 4.2151 -2.3822 0.9696
-6.0789 4.1027 -2.3820 0.9696
-6.1535 3.9889 -2.3818 0.9696
-6.1779 3.9507 -2.3818 0.9696
-6.2963 3.7573 -2.3815 0.9696
-6.3645 3.6396 -2.3813 0.9696
-6.4087 3.5605 -2.3812 0.9696
-6.4304 3.5207 -2.3811 0.9696
-6.4519 3.4808 -2.3811 0.9696
-6.4732 3.4407 -2.3810 0.9696
-6.4942 3.4005 -2.3810 0.9696
-6.5150 3.3603 -2.3809 0.9696
-6.5558 3.2793 -2.3808 0.9696
-6.5758 3.2386 -2.3808 0.9696
-6.5955 3.1978 -2.3807 0.9696
-6.6343 3.1159 -2.3806 0.9696
-6.6721 3.0335 -2.3805 0.9696
-6.7088 2.9506 -2.3804 0.9696
-6.7445 2.8672 -2.3803 0.9696
-6.7620 2.8254 -2.3803 0.9696
-6.7792 2.7835 -2.3803 0.9696
-6.8129 2.6994 -2.3802 0.9697
-6.8455 2.6148 -2.3801 0.9697
-6.9514 2.3158 -2.3798 0.9697
-6.9655 2.2728 -2.3798 0.9697
-6.9794 2.2296 -2.3797 0.9697
-6.9929 2.1864 -2.3797 0.9697
-7.0444 2.0126 -2.3796 0.9697
-7.0686 1.9253 -2.3795 0.9697
-7.0916 1.8377 -2.3794 0.9697
-7.1028 1.7937 -2.3794 0.9697
-7.1137 1.7498 -2.3794 0.9697
-7.1346 1.6616 -2.3793 0.9697
-7.1544 1.5732 -2.3792 0.9697
-7.1821 1.4402 -2.3792 0.9697
-7.1908 1.3957 -2.3791 0.9697
-7.1992 1.3512 -2.3791 0.9697
-7.2229 1.2174 -2.3790 0.9697
-7.2302 1.1727 -2.3790 0.9697
-7.2505 1.0383 -2.3790 0.9697
-7.2567 0.9934 -2.3789 0.9697
-7.2627 0.9485 -2.3789 0.9697
-7.2683 0.9036 -2.3789 0.9697
-7.2737 0.8586 -2.3789 0.9697
-7.2788 0.8136 -2.3789 0.9697
-7.2836 0.7686 -2.3788 0.9697
-7.2882 0.7235 -2.3788 0.9697
-7.2925 0.6784 -2.3788 0.9697
-7.3098 0.4526 -2.3787 0.9697
-7.3124 0.4074 -2.3787 0.9697
-7.3148 0.3622 -2.3787 0.9697
-7.3168 0.3170 -2.3787 0.9697
-7.3186 0.2717 -2.3787 0.9697
-7.3201 0.2264 -2.3787 0.9697
-7.3213 0.1812 -2.3787 0.9697
-7.3223 0.1359 -2.3787 0.9697
-7.1437 0.0000 -2.3791 0.9703
-7.1436 -0.0442 -2.3790 0.9703
-7.1432 -0.0883 -2.3790 0.9703
-7.1415 -0.1767 -2.3790 0.9703
-7.1388 -0.2650 -2.3790 0.9703
-7.1370 -0.3091 -2.3790 0.9703
-7.1271 -0.4856 -2.3790 0.9703
-7.1240 -0.5296 -2.3790 0.9703
-7.1130 -0.6617 -2.3790 0.9703
-7.1087 -0.7057 -2.3790 0.9703
-7.1042 -0.7496 -2.3790 0.9703
-7.0995 -0.7936 -2.3790 0.9703
-7.0945 -0.8375 -2.3790 0.9703
-7.0892 -0.8813 -2.3791 0.9703
-7.0717 -1.0127 -2.3791 0.9703
-7.0371 -1.2308 -2.3791 0.9703
-7.0214 -1.3178 -2.3791 0.9703
-7.0132 -1.3612 -2.3792 0.9703
-6.9868 -1.4911 -2.3792 0.9703
-6.9376 -1.7065 -2.3793 0.9703
-6.9270 -1.7494 -2.3793 0.9703
-6.8935 -1.8776 -2.3793 0.9703
-6.8577 -2.0052 -2.3794 0.9703
-6.8325 -2.0899 -2.3795 0.9703
-6.8062 -2.1743 -2.3795 0.9703
-6.7790 -2.2584 -2.3796 0.9703
-6.6596 -2.5911 -2.3798 0.9703
-6.5938 -2.7552 -2.3799 0.9703
-6.4690 -3.0383 -2.3801 0.9703
-6.3923 -3.1975 -2.3803 0.9703
-6.3725 -3.2371 -2.3803 0.9703
-6.3322 -3.3157 -2.3804 0.9703
-6.3117 -3.3549 -2.3804 0.9703
-6.2909 -3.3939 -2.3805 0.9703
-6.2699 -3.4328 -2.3805 0.9703
-6.2272 -3.5102 -2.3806 0.9703
-6.2055 -3.5487 -2.3807 0.9703
-6.1836 -3.5871 -2.3807 0.9703
-6.1390 -3.6634 -2.3808 0.9703
-6.0703 -3.7769 -2.3809 0.9703
-6.0469 -3.8145 -2.3810 0.9703
-6.0234 -3.8519 -2.3810 0.9703
-5.9996 -3.8891 -2.3811 0.9703
-5.9755 -3.9262 -2.3811 0.9703
-5.9512 -3.9632 -2.3812 0.9703
-5.8771 -4.0732 -2.3813 0.9703
-5.8519 -4.1095 -2.3814 0.9703
-5.8265 -4.1457 -2.3814 0.9703
-5.8009 -4.1818 -2.3815 0.9703
-5.7750 -4.2177 -2.3815 0.9703
-5.7489 -4.2534 -2.3816 0.9703
-5.7227 -4.2889 -2.3816 0.9703
-5.5604 -4.4989 -2.3820 0.9703
-5.5326 -4.5333 -2.3820 0.9703
-5.4479 -4.6355 -2.3822 0.9703
-5.4193 -4.6692 -2.3823 0.9703
-5.3614 -4.7362 -2.3824 0.9703
-5.2730 -4.8352 -2.3826 0.9703
-5.2131 -4.9003 -2.3827 0.9703
-5.1829 -4.9326 -2.3827 0.9703
-5.1524 -4.9646 -2.3828 0.9703
-5.1217 -4.9965 -2.3829 0.9703
-5.0908 -5.0283 -2.3829 0.9703
-5.0598 -5.0598 -2.3830 0.9703
-5.0286 -5.0911 -2.3831 0.9703
-4.8694 -5.2449 -2.3834 0.9703
-4.8370 -5.2751 -2.3835 0.9703
-4.8045 -5.3050 -2.3835 0.9703
-4.7717 -5.3348 -2.3836 0.9703
-4.7056 -5.3937 -2.3838 0.9703
-4.6388 -5.4518 -2.3839 0.9703
-4.5713 -5.5091 -2.3840 0.9703
-4.5031 -5.5656 -2.3842 0.9703
-4.4687 -5.5935 -2.3843 0.9703
-4.4342 -5.6212 -2.3843 0.9703
-4.3995 -5.6487 -2.3844 0.9703
-4.1877 -5.8091 -2.3849 0.9703
-4.1158 -5.8608 -2.3850 0.9703
-4.0068 -5.9368 -2.3852 0.9703
-3.9701 -5.9616 -2.3853 0.9703
-3.8592 -6.0348 -2.3856 0.9703
-3.8219 -6.0588 -2.3856 0.9703
-3.7845 -6.0825 -2.3857 0.9702
-3.6714 -6.1523 -2.3860 0.9702
-3.6334 -6.1751 -2.3860 0.9702
-3.5570 -6.2200 -2.3862 0.9702
-3.5186 -6.2421 -2.3863 0.9702
-3.4413 -6.2856 -2.3865 0.9702
-3.2460 -6.3901 -2.3869 0.9702
-3.2065 -6.4103 -2.3870 0.9702
-3.1272 -6.4499 -2.3871 0.9702
-3.0874 -6.4694 -2.3872 0.9702
-2.9671 -6.5262 -2.3875 0.9702
-2.8052 -6.5986 -2.3878 0.9702
-2.6826 -6.6503 -2.3881 0.9702
-2.5591 -6.6996 -2.3884 0.9702
-2.4762 -6.7313 -2.3886 0.9702
-2.3929 -6.7619 -2.3887 0.9702
-2.3093 -6.7915 -2.3889 0.9702
-2.2673 -6.8059 -2.3890 0.9702
-2.2253 -6.8201 -2.3891 0.9702
-2.1831 -6.8340 -2.3892 0.9702
-2.0562 -6.8741 -2.3895 0.9702
-1.9286 -6.9119 -2.3898 0.9702
-1.8431 -6.9357 -2.3899 0.9702
-1.8002 -6.9473 -2.3900 0.9702
-1.6712 -6.9803 -2.3903 0.9702
-1.6281 -6.9908 -2.3904 0.9702
-1.5849 -7.0010 -2.3905 0.9702
-1.5416 -7.0110 -2.3906 0.9702
-1.4983 -7.0206 -2.3907 0.9702
-1.4549 -7.0300 -2.3908 0.9702
-1.2808 -7.0650 -2.3912 0.9702
-1.2371 -7.0731 -2.3913 0.9702
-1.1934 -7.0809 -2.3914 0.9702
-1.1058 -7.0957 -2.3916 0.9702
-1.0620 -7.1027 -2.3917 0.9702
-1.0181 -7.1094 -2.3918 0.9702
-0.9741 -7.1159 -2.3919 0.9702
-0.9302 -7.1220 -2.3920 0.9702
-0.7980 -7.1389 -2.3922 0.9702
-0.7538 -7.1440 -2.3923 0.9702
-0.6655 -7.1534 -2.3925 0.9702
-0.5770 -7.1617 -2.3927 0.9702
-0.5327 -7.1654 -2.3928 0.9702
-0.3997 -7.1749 -2.3931 0.9702
-0.3110 -7.1799 -2.3933 0.9702
-0.1334 -7.1866 -2.3937 0.9702
-0.0889 -7.1876 -2.3938 0.9701
-0.0444 -7.1883 -2.3939 0.9701
0.0445 -7.1889 -2.3941 0.9701
0.0889 -7.1888 -2.3942 0.9701
0.1779 -7.1877 -2.3944 0.9701
0.2223 -7.1868 -2.3945 0.9701
0.2668 -7.1856 -2.3946 0.9701
0.3556 -7.1823 -2.3948 0.9701
0.4001 -7.1803 -2.3949 0.9701
0.4889 -7.1754 -2.3951 0.9701
0.5333 -7.1725 -2.3952 0.9701
0.6220 -7.1660 -2.3954 0.9701
0.6664 -7.1623 -2.3955 0.9701
0.7107 -7.1583 -2.3956 0.9701
0.7992 -7.1496 -2.3958 0.9701
0.9760 -7.1288 -2.3962 0.9701
1.0201 -7.1230 -2.3963 0.9701
1.0641 -7.1168 -2.3964 0.9701
1.1962 -7.0967 -2.3967 0.9701
1.2401 -7.0895 -2.3968 0.9701
1.3278 -7.0742 -2.3970 0.9701
1.3715 -7.0661 -2.3971 0.9701
1.4589 -7.0492 -2.3973 0.9701
1.5026 -7.0403 -2.3974 0.9701
1.5896 -7.0218 -2.3976 0.9701
1.7199 -6.9920 -2.3979 0.9701
1.7631 -6.9815 -2.3980 0.9701
1.8064 -6.9707 -2.3981 0.9701
1.8926 -6.9484 -2.3983 0.9701
1.9356 -6.9369 -2.3984 0.9701
2.0214 -6.9130 -2.3986 0.9701
2.0642 -6.9006 -2.3987 0.9701
2.1496 -6.8751 -2.3989 0.9701
2.2770 -6.8349 -2.3992 0.9701
2.4458 -6.7776 -2.3996 0.9701
2.4877 -6.7626 -2.3997 0.9701
2.5296 -6.7473 -2.3997 0.9701
2.5714 -6.7318 -2.3998 0.9701
2.6131 -6.7161 -2.3999 0.9701
2.6546 -6.7000 -2.4000 0.9701
2.7375 -6.6672 -2.4002 0.9701
2.8200 -6.6334 -2.4004 0.9701
2.8611 -6.6161 -2.4005 0.9701
2.9429 -6.5807 -2.4007 0.9701
3.1053 -6.5069 -2.4011 0.9701
3.1456 -6.4878 -2.4012 0.9701
3.2258 -6.4489 -2.4013 0.9701
3.2658 -6.4291 -2.4014 0.9701
3.3849 -6.3681 -2.4017 0.9701
3.4243 -6.3473 -2.4018 0.9701
3.5029 -6.3050 -2.4020 0.9700
3.5808 -6.2616 -2.4022 0.9700
3.6196 -6.2396 -2.4023 0.9700
3.6968 -6.1948 -2.4024 0.9700
3.7728 -6.1481 -2.4022 0.9700
3.7730 -5.9812 -2.3551 0.9706
3.7215 -5.7409 -2.2784 0.9716
3.7216 -5.6640 -2.2570 0.9718
3.7217 -5.5885 -2.2360 0.9721
3.7527 -5.5602 -2.2340 0.9721
3.8214 -5.5138 -2.2341 0.9721
3.8556 -5.4903 -2.2342 0.9721
3.8789 -5.3111 -2.1902 0.9727
3.8789 -5.2428 -2.1719 0.9729
3.8792 -5.0446 -2.1193 0.9735
3.8793 -4.9177 -2.0859 0.9739
3.8432 -4.6904 -2.0194 0.9748
3.8796 -4.6754 -2.0233 0.9747
3.8796 -4.6171 -2.0084 0.9749
3.8374 -4.3985 -1.9439 0.9757
3.7233 -4.1626 -1.8599 0.9767
3.7751 -4.1169 -1.8602 0.9767
3.7752 -4.0662 -1.8478 0.9769
3.7753 -3.9181 -1.8120 0.9773
3.7754 -3.8699 -1.8005 0.9775
3.7754 -3.8224 -1.7892 0.9776
3.7755 -3.7291 -1.7672 0.9779
3.7758 -3.4622 -1.7060 0.9786
3.7758 -3.4195 -1.6965 0.9788
3.7759 -3.3356 -1.6778 0.9790
3.7760 -3.2534 -1.6599 0.9792
3.7761 -3.1729 -1.6425 0.9794
3.7762 -3.0553 -1.6176 0.9797
3.7763 -2.9788 -1.6018 0.9799
3.7764 -2.8303 -1.5717 0.9803
3.7765 -2.7940 -1.5644 0.9804
3.7765 -2.7581 -1.5574 0.9805
3.7765 -2.7224 -1.5504 0.9806
3.7766 -2.6521 -1.5368 0.9807
3.7767 -2.5830 -1.5238 0.9809
3.7767 -2.5489 -1.5174 0.9810
3.7767 -2.5151 -1.5111 0.9811
3.7768 -2.4815 -1.5050 0.9811
3.7768 -2.4482 -1.4989 0.9812
3.8979 -2.3261 -1.5117 0.9810
3.9534 -2.3261 -1.5276 0.9808
4.0099 -2.3261 -1.5438 0.9806
4.0677 -2.3262 -1.5605 0.9804
4.1268 -2.3262 -1.5776 0.9802
4.1872 -2.3262 -1.5952 0.9800
4.3121 -2.3263 -1.6317 0.9796
4.3767 -2.3263 -1.6507 0.9793
4.5106 -2.3264 -1.6902 0.9788
4.6511 -2.3265 -1.7319 0.9783
5.0959 -2.4319 -1.8804 0.9765
5.2169 -2.3718 -1.9085 0.9761
5.3066 -2.3731 -1.9359 0.9758
5.6243 -2.4322 -2.0407 0.9745
5.7213 -2.4322 -2.0703 0.9741
5.8332 -2.3951 -2.1000 0.9738
5.8807 -2.3722 -2.1117 0.9736
6.1393 -2.4325 -2.1992 0.9725
6.3132 -2.3224 -2.2402 0.9720
6.5771 -2.3275 -2.3235 0.9710
6.7090 -2.3276 -2.3649 0.9705
6.8456 -2.3277 -2.4079 0.9700
6.8910 -2.2014 -2.4091 0.9700
6.9308 -2.0732 -2.4092 0.9700
6.9682 -1.9443 -2.4092 0.9700
7.0033 -1.8148 -2.4093 0.9700
7.0144 -1.7714 -2.4093 0.9700
7.0253 -1.7280 -2.4093 0.9700
7.0359 -1.6846 -2.4093 0.9700
7.0661 -1.5538 -2.4094 0.9700
7.0938 -1.4224 -2.4094 0.9700
7.1025 -1.3786 -2.4095 0.9700
7.1110 -1.3346 -2.4095 0.9700
7.1346 -1.2025 -2.4095 0.9700
7.1419 -1.1583 -2.4095 0.9700
7.1490 -1.1142 -2.4095 0.9700
7.1801 -0.8926 -2.4096 0.9700
7.1855 -0.8482 -2.4096 0.9700
7.1906 -0.8038 -2.4096 0.9700
7.2000 -0.7147 -2.4095 0.9700
7.2043 -0.6702 -2.4096 0.9700
7.2156 -0.5364 -2.4096 0.9700
7.2219 -0.4472 -2.4097 0.9700
7.2269 -0.3578 -2.4097 0.9700
7.2309 -0.2684 -2.4097 0.9700
7.2325 -0.2237 -2.4097 0.9700
7.2337 -0.1790 -2.4098 0.9700
7.2348 -0.1342 -2.4098 0.9700
7.2355 -0.0895 -2.4098 0.9700
7.2360 -0.0447 -2.4098 0.9700
7.2361 0.0000 -2.4098 0.9700
7.2360 0.0447 -2.4098 0.9700
7.2356 0.0895 -2.4098 0.9700
7.2313 0.2684 -2.4099 0.9700
7.2295 0.3131 -2.4099 0.9700
7.2251 0.4025 -2.4099 0.9700
7.2196 0.4919 -2.4099 0.9700
7.1964 0.7594 -2.4099 0.9700
7.1915 0.8039 -2.4099 0.9700
7.1810 0.8928 -2.4099 0.9700
7.1632 1.0258 -2.4099 0.9700
7.1567 1.0701 -2.4098 0.9700
7.1499 1.1143 -2.4098 0.9700
7.1279 1.2468 -2.4098 0.9700
7.1201 1.2908 -2.4098 0.9700
7.0948 1.4227 -2.4098 0.9700
7.0858 1.4665 -2.4098 0.9700
7.0766 1.5103 -2.4097 0.9700
7.0671 1.5540 -2.4097 0.9700
7.0573 1.5977 -2.4097 0.9700
7.0369 1.6848 -2.4097 0.9700
7.0263 1.7283 -2.4097 0.9700
7.0154 1.7717 -2.4097 0.9700
7.0043 1.8150 -2.4096 0.9700
6.9928 1.8583 -2.4096 0.9700
6.9264 1.9789 -2.3989 0.9701
6.7679 1.9790 -2.3483 0.9707
6.6160 1.9791 -2.2998 0.9713
6.3012 1.9274 -2.1944 0.9726
6.2331 1.9488 -2.1749 0.9728
6.2332 2.0765 -2.1880 0.9727
6.1303 2.0845 -2.1563 0.9731
5.7357 2.0298 -2.0262 0.9747
5.5025 2.0242 -1.9525 0.9756
5.4452 2.0414 -1.9366 0.9758
5.4581 2.0848 -1.9458 0.9757
5.1106 2.0249 -1.8307 0.9771
5.1052 2.0594 -1.8333 0.9771
4.6150 1.9284 -1.6657 0.9791
4.2852 1.9803 -1.5721 0.9803
4.2166 1.9804 -1.5514 0.9806
3.9593 1.9805 -1.4743 0.9815
3.7824 1.9806 -1.4219 0.9822
3.6793 1.9850 -1.3923 0.9825
3.6794 2.2266 -1.4322 0.9820
3.6794 2.2579 -1.4376 0.9820
3.6794 2.2893 -1.4431 0.9819
3.6794 2.3210 -1.4487 0.9818
3.6794 2.3529 -1.4544 0.9818
3.6794 2.4503 -1.4722 0.9815
3.6794 2.5501 -1.4908 0.9813
3.6794 2.6180 -1.5039 0.9811
3.6794 2.6524 -1.5105 0.9811
3.6794 2.6871 -1.5173 0.9810
3.6794 2.7222 -1.5242 0.9809
3.6794 2.8293 -1.5457 0.9806
3.6794 3.0917 -1.6005 0.9799
3.6794 3.1702 -1.6174 0.9797
3.6794 3.2100 -1.6261 0.9796
3.6794 3.2503 -1.6350 0.9795
3.6794 3.4586 -1.6817 0.9789
3.6794 3.5454 -1.7016 0.9787
3.6794 3.5895 -1.7118 0.9786
3.6794 3.6342 -1.7223 0.9784
3.6794 3.6794 -1.7329 0.9783
3.6794 3.7252 -1.7437 0.9782
3.6277 3.8117 -1.7524 0.9781
3.6276 3.8592 -1.7639 0.9779
3.7845 4.0763 -1.8524 0.9768
3.7845 4.1788 -1.8775 0.9765
3.7845 4.2311 -1.8905 0.9764
3.7845 4.2841 -1.9037 0.9762
3.7845 4.3379 -1.9171 0.9760
3.7435 4.3448 -1.9099 0.9761
3.7354 4.3900 -1.9196 0.9760
3.7371 4.4475 -1.9346 0.9758
3.7364 4.5029 -1.9486 0.9756
3.7357 4.5592 -1.9629 0.9755
3.7350 4.6162 -1.9775 0.9753
3.7844 4.7975 -2.0349 0.9746
3.7844 4.9214 -2.0675 0.9742
3.7844 5.1151 -2.1190 0.9735
3.7844 5.1818 -2.1369 0.9733
3.7844 5.2496 -2.1552 0.9731
3.7437 5.4736 -2.2084 0.9724
3.6275 5.5208 -2.1999 0.9725
3.6792 5.6757 -2.2526 0.9719
3.6792 5.8325 -2.2965 0.9713
3.6792 5.9955 -2.3426 0.9708
3.6791 6.0795 -2.3665 0.9705
3.6791 6.1653 -2.3910 0.9702
3.6579 6.2167 -2.4021 0.9700
3.6193 6.2390 -2.4020 0.9700
3.5805 6.2610 -2.4019 0.9700
3.4633 6.3256 -2.4017 0.9701
3.4240 6.3467 -2.4016 0.9701
3.3450 6.3880 -2.4014 0.9701
3.3052 6.4083 -2.4013 0.9701
3.2654 6.4284 -2.4012 0.9701
3.1854 6.4678 -2.4010 0.9701
3.1452 6.4871 -2.4009 0.9701
2.9833 6.5618 -2.4005 0.9701
2.9425 6.5798 -2.4004 0.9701
2.8196 6.6325 -2.4001 0.9701
2.7371 6.6663 -2.3999 0.9701
2.6957 6.6827 -2.3998 0.9701
2.6127 6.7150 -2.3996 0.9701
2.5710 6.7308 -2.3995 0.9701
2.4874 6.7617 -2.3993 0.9701
2.4454 6.7767 -2.3992 0.9701
2.3613 6.8059 -2.3991 0.9701
2.3191 6.8202 -2.3990 0.9701
2.2768 6.8341 -2.3989 0.9701
2.1919 6.8612 -2.3987 0.9701
2.0640 6.9000 -2.3985 0.9701
2.0212 6.9123 -2.3984 0.9701
1.9784 6.9245 -2.3983 0.9701
1.9354 6.9363 -2.3982 0.9701
1.8062 6.9703 -2.3979 0.9701
1.7630 6.9810 -2.3978 0.9701
1.5896 7.0214 -2.3975 0.9701
1.5461 7.0309 -2.3974 0.9701
1.5025 7.0401 -2.3973 0.9701
1.4152 7.0576 -2.3971 0.9701
1.2839 7.0818 -2.3969 0.9701
1.1961 7.0966 -2.3967 0.9701
1.1521 7.1036 -2.3966 0.9701
1.1082 7.1104 -2.3965 0.9701
1.0641 7.1168 -2.3964 0.9701
0.9318 7.1345 -2.3962 0.9701
0.7992 7.1498 -2.3959 0.9701
0.7550 7.1543 -2.3958 0.9701
0.6220 7.1663 -2.3955 0.9701
0.4889 7.1758 -2.3953 0.9701
0.4001 7.1807 -2.3951 0.9701
0.3557 7.1828 -2.3950 0.9701
0.3112 7.1846 -2.3949 0.9701
0.2668 7.1861 -2.3948 0.9701
0.2223 7.1874 -2.3947 0.9701
0.1779 7.1883 -2.3946 0.9701
0.1334 7.1890 -2.3945 0.9701
0.0889 7.1894 -2.3944 0.9701
-0.0444 7.1890 -2.3942 0.9701
-0.0889 7.1884 -2.3941 0.9701
-0.1333 7.1874 -2.3940 0.9701
-0.1778 7.1862 -2.3939 0.9701
-0.2666 7.1829 -2.3937 0.9702
-0.3110 7.1808 -2.3936 0.9702
-0.4885 7.1699 -2.3933 0.9702
-0.6656 7.1545 -2.3929 0.9702
-0.7098 7.1500 -2.3928 0.9702
-0.8422 7.1348 -2.3926 0.9702
-0.8863 7.1292 -2.3925 0.9702
-0.9303 7.1233 -2.3924 0.9702
-1.1499 7.0899 -2.3920 0.9702
-1.1937 7.0823 -2.3919 0.9702
-1.2811 7.0665 -2.3917 0.9702
-1.6717 6.9821 -2.3909 0.9702
-1.8436 6.9376 -2.3906 0.9702
-1.8864 6.9258 -2.3905 0.9702
-1.9291 6.9137 -2.3904 0.9702
-1.9717 6.9014 -2.3903 0.9702
-2.0143 6.8889 -2.3902 0.9702
-2.1838 6.8360 -2.3899 0.9702
-2.2260 6.8221 -2.3898 0.9702
-2.2680 6.8080 -2.3897 0.9702
-2.3100 6.7936 -2.3896 0.9702
-2.3519 6.7789 -2.3896 0.9702
-2.3937 6.7640 -2.3895 0.9702
-2.4770 6.7334 -2.3893 0.9702
-2.5599 6.7018 -2.3891 0.9702
-2.6012 6.6856 -2.3891 0.9702
-2.6424 6.6692 -2.3890 0.9702
-2.6835 6.6525 -2.3889 0.9702
-2.8468 6.5832 -2.3886 0.9702
-2.9279 6.5470 -2.3884 0.9702
-2.9682 6.5286 -2.3883 0.9702
-3.0084 6.5099 -2.3883 0.9702
-3.1284 6.4523 -2.3880 0.9702
-3.2472 6.3925 -2.3878 0.9702
-3.2866 6.3721 -2.3877 0.9702
-3.3258 6.3515 -2.3876 0.9702
-3.4039 6.3094 -2.3875 0.9702
-3.4427 6.2881 -2.3874 0.9702
-3.5200 6.2446 -2.3872 0.9702
-3.5967 6.2002 -2.3871 0.9702
-3.7108 6.1319 -2.3869 0.9702
-3.8236 6.0614 -2.3867 0.9702
-3.8608 6.0374 -2.3866 0.9702
-3.8980 6.0133 -2.3865 0.9702
-3.9350 5.9889 -2.3864 0.9702
-3.9718 5.9643 -2.3864 0.9702
-4.0085 5.9394 -2.3863 0.9702
-4.1176 5.8635 -2.3861 0.9702
-4.1896 5.8118 -2.3859 0.9702
-4.2609 5.7592 -2.3858 0.9702
-4.2963 5.7325 -2.3857 0.9702
-4.3316 5.7057 -2.3857 0.9702
-4.3666 5.6786 -2.3856 0.9703
-4.4363 5.6239 -2.3855 0.9703
-4.4709 5.5962 -2.3854 0.9703
-4.5735 5.5118 -2.3852 0.9703
-4.6074 5.4833 -2.3851 0.9703
-4.6411 5.4545 -2.3851 0.9703
-4.6746 5.4256 -2.3850 0.9703
-4.8069 5.3077 -2.3847 0.9703
-4.8395 5.2778 -2.3847 0.9703
-4.8719 5.2476 -2.3846 0.9703
-4.9362 5.1867 -2.3845 0.9703
-4.9680 5.1559 -2.3844 0.9703
-4.9997 5.1249 -2.3844 0.9703
-5.0624 5.0625 -2.3842 0.9703
-5.0935 5.0309 -2.3842 0.9703
-5.1244 4.9992 -2.3841 0.9703
-5.1551 4.9673 -2.3841 0.9703
-5.1856 4.9352 -2.3840 0.9703
-5.2159 4.9029 -2.3840 0.9703
-5.3056 4.8049 -2.3838 0.9703
-5.4509 4.6380 -2.3835 0.9703
-5.5075 4.5700 -2.3834 0.9703
-5.5633 4.5013 -2.3832 0.9703
-5.5909 4.4667 -2.3832 0.9703
-5.6723 4.3618 -2.3830 0.9703
-5.6990 4.3265 -2.3829 0.9703
-5.7518 4.2555 -2.3828 0.9703
-5.7779 4.2197 -2.3827 0.9703
-5.8037 4.1838 -2.3826 0.9703
-5.8293 4.1477 -2.3826 0.9703
-5.8547 4.1115 -2.3825 0.9703
-5.8798 4.0751 -2.3825 0.9703
-5.9048 4.0386 -2.3824 0.9703
-5.9295 4.0019 -2.3823 0.9703
-6.0023 3.8909 -2.3822 0.9703
-6.0496 3.8162 -2.3820 0.9703
-6.0961 3.7409 -2.3819 0.9703
-6.1416 3.6650 -2.3818 0.9703
-6.1640 3.6269 -2.3818 0.9703
-6.2081 3.5502 -2.3816 0.9703
-6.2512 3.4730 -2.3815 0.9703
-6.2934 3.3953 -2.3814 0.9703
-6.3142 3.3562 -2.3814 0.9703
-6.3347 3.3170 -2.3813 0.9703
-6.4143 3.1591 -2.3811 0.9703
-6.4526 3.0794 -2.3810 0.9703
-6.4714 3.0393 -2.3810 0.9703
-6.4899 2.9992 -2.3809 0.9703
-6.5082 2.9589 -2.3809 0.9703
-6.5262 2.9186 -2.3808 0.9703
-6.5960 2.7561 -2.3807 0.9703
-6.6127 2.7152 -2.3806 0.9703
-6.6456 2.6331 -2.3805 0.9703
-6.6616 2.5919 -2.3805 0.9703
-6.6930 2.5092 -2.3804 0.9703
-6.7082 2.4677 -2.3804 0.9703
-6.7232 2.4262 -2.3803 0.9703
-6.7380 2.3845 -2.3803 0.9703
-6.7525 2.3427 -2.3803 0.9703
-6.7808 2.2590 -2.3802 0.9703
-6.7945 2.2170 -2.3801 0.9703
-6.8080 2.1749 -2.3801 0.9703
-6.8212 2.1327 -2.3801 0.9703
-6.8342 2.0904 -2.3800 0.9703
-6.8592 2.0057 -2.3800 0.9703
-6.8834 1.9207 -2.3799 0.9703
-6.8950 1.8780 -2.3799 0.9703
-6.9064 1.8353 -2.3798 0.9703
-6.9284 1.7497 -2.3798 0.9703
-6.9494 1.6638 -2.3797 0.9703
-6.9595 1.6208 -2.3797 0.9703
-6.9692 1.5778 -2.3797 0.9703
-6.9787 1.5346 -2.3796 0.9703
-7.0143 1.3614 -2.3795 0.9703
-7.0304 1.2746 -2.3795 0.9703
-7.0381 1.2311 -2.3795 0.9703
-7.0662 1.0566 -2.3794 0.9703
-7.0786 0.9690 -2.3793 0.9703
-7.0844 0.9253 -2.3793 0.9703
-7.1002 0.7937 -2.3793 0.9703
-7.1135 0.6618 -2.3792 0.9703
-7.1174 0.6178 -2.3792 0.9703
-7.1211 0.5737 -2.3792 0.9703
-7.1245 0.5297 -2.3792 0.9703
-7.1276 0.4856 -2.3792 0.9703
-7.1352 0.3533 -2.3791 0.9703
-7.1372 0.3092 -2.3791 0.9703
-7.1405 0.2209 -2.3791 0.9703
-7.1417 0.1767 -2.3791 0.9703
-7.1426 0.1325 -2.3791 0.9703
-7.1433 0.0883 -2.3791 0.9703
-7.1437 0.0442 -2.3791 0.9703
-6.9718 0.0000 -2.3794 0.9710
-6.9706 -0.1293 -2.3794 0.9710
-6.9696 -0.1725 -2.3794 0.9710
-6.9632 -0.3448 -2.3794 0.9710
-6.9609 -0.3878 -2.3794 0.9710
-6.9584 -0.4309 -2.3794 0.9710
-6.9556 -0.4739 -2.3794 0.9710
-6.9525 -0.5169 -2.3794 0.9710
-6.9456 -0.6029 -2.3794 0.9710
-6.9418 -0.6458 -2.3794 0.9710
-6.9287 -0.7745 -2.3794 0.9710
-6.9074 -0.9456 -2.3794 0.9710
-6.8953 -1.0310 -2.3795 0.9710
-6.8888 -1.0736 -2.3795 0.9710
-6.8820 -1.1162 -2.3795 0.9710
-6.8750 -1.1587 -2.3795 0.9710
-6.8602 -1.2437 -2.3795 0.9710
-6.8524 -1.2861 -2.3795 0.9710
-6.8361 -1.3708 -2.3795 0.9710
-6.8096 -1.4974 -2.3796 0.9710
-6.8002 -1.5395 -2.3796 0.9710
-6.7906 -1.5815 -2.3796 0.9710
-6.7807 -1.6235 -2.3796 0.9710
-6.7706 -1.6654 -2.3797 0.9710
-6.7603 -1.7072 -2.3797 0.9710
-6.7496 -1.7490 -2.3797 0.9710
-6.7276 -1.8324 -2.3797 0.9710
-6.6926 -1.9570 -2.3798 0.9710
-6.6553 -2.0808 -2.3799 0.9710
-6.6158 -2.2040 -2.3799 0.9710
-6.6021 -2.2449 -2.3800 0.9710
-6.5881 -2.2857 -2.3800 0.9710
-6.5448 -2.4076 -2.3801 0.9710
-6.5299 -2.4481 -2.3801 0.9710
-6.4676 -2.6090 -2.3802 0.9710
-6.4515 -2.6489 -2.3802 0.9710
-6.4184 -2.7286 -2.3803 0.9710
-6.4015 -2.7683 -2.3803 0.9710
-6.3843 -2.8079 -2.3804 0.9710
-6.3493 -2.8867 -2.3804 0.9710
-6.3314 -2.9260 -2.3805 0.9710
-6.3133 -2.9651 -2.3805 0.9710
-6.2949 -3.0041 -2.3805 0.9710
-6.2763 -3.0430 -2.3806 0.9709
-6.2384 -3.1205 -2.3806 0.9709
-6.1996 -3.1976 -2.3807 0.9709
-6.1597 -3.2741 -2.3808 0.9709
-6.1395 -3.3122 -2.3808 0.9709
-6.1190 -3.3501 -2.3809 0.9709
-6.0982 -3.3880 -2.3809 0.9709
-6.0773 -3.4257 -2.3810 0.9709
-5.9911 -3.5752 -2.3811 0.9709
-5.9690 -3.6123 -2.3812 0.9709
-5.9012 -3.7226 -2.3813 0.9709
-5.8783 -3.7591 -2.3814 0.9709
-5.8315 -3.8316 -2.3815 0.9709
-5.7839 -3.9036 -2.3815 0.9709
-5.6861 -4.0458 -2.3817 0.9709
-5.5589 -4.2202 -2.3820 0.9709
-5.5065 -4.2888 -2.3821 0.9709
-5.4264 -4.3905 -2.3823 0.9709
-5.3993 -4.4241 -2.3823 0.9709
-5.3719 -4.4575 -2.3824 0.9709
-5.3444 -4.4907 -2.3824 0.9709
-5.2887 -4.5567 -2.3826 0.9709
-5.2605 -4.5894 -2.3826 0.9709
-5.2036 -4.6544 -2.3827 0.9709
-5.1749 -4.6866 -2.3828 0.9709
-5.1459 -4.7186 -2.3829 0.9709
-5.1168 -4.7505 -2.3829 0.9709
-5.0874 -4.7822 -2.3830 0.9709
-5.0281 -4.8450 -2.3831 0.9709
-4.9378 -4.9378 -2.3833 0.9709
-4.9073 -4.9684 -2.3834 0.9709
-4.8457 -5.0290 -2.3835 0.9709
-4.8147 -5.0590 -2.3836 0.9709
-4.5921 -5.2636 -2.3840 0.9709
-4.5596 -5.2921 -2.3841 0.9709
-4.4941 -5.3484 -2.3842 0.9709
-4.4611 -5.3762 -2.3843 0.9709
-4.3945 -5.4313 -2.3844 0.9709
-4.3272 -5.4856 -2.3846 0.9709
-4.2934 -5.5124 -2.3847 0.9709
-4.2593 -5.5390 -2.3847 0.9709
-4.1907 -5.5916 -2.3849 0.9709
-4.1562 -5.6176 -2.3849 0.9709
-3.9812 -5.7443 -2.3853 0.9709
-3.9101 -5.7935 -2.3855 0.9709
-3.8743 -5.8177 -2.3856 0.9709
-3.7661 -5.8892 -2.3858 0.9709
-3.6197 -5.9813 -2.3861 0.9709
-3.5828 -6.0038 -2.3862 0.9709
-3.5457 -6.0261 -2.3863 0.9709
-3.4337 -6.0914 -2.3865 0.9709
-3.3960 -6.1127 -2.3866 0.9709
-3.3204 -6.1547 -2.3867 0.9709
-3.2823 -6.1753 -2.3868 0.9709
-3.2060 -6.2159 -2.3870 0.9709
-3.0904 -6.2749 -2.3872 0.9709
-2.8167 -6.4044 -2.3878 0.9709
-2.5777 -6.5059 -2.3884 0.9709
-2.2944 -6.6131 -2.3890 0.9708
-2.2535 -6.6274 -2.3891 0.9708
-2.2125 -6.6414 -2.3892 0.9708
-2.1715 -6.6553 -2.3892 0.9708
-2.0479 -6.6951 -2.3895 0.9708
-1.9651 -6.7204 -2.3897 0.9708
-1.9236 -6.7328 -2.3898 0.9708
-1.8820 -6.7448 -2.3899 0.9708
-1.8403 -6.7565 -2.3900 0.9708
-1.7567 -6.7793 -2.3902 0.9708
-1.6308 -6.8115 -2.3904 0.9708
-1.5888 -6.8217 -2.3905 0.9708
-1.5466 -6.8317 -2.3906 0.9708
-1.4621 -6.8508 -2.3908 0.9708
-1.4198 -6.8600 -2.3909 0.9708
-1.3773 -6.8689 -2.3910 0.9708
-1.3349 -6.8776 -2.3911 0.9708
-1.2924 -6.8860 -2.3912 0.9708
-1.2498 -6.8941 -2.3913 0.9708
-1.1646 -6.9096 -2.3915 0.9708
-1.1218 -6.9169 -2.3916 0.9708
-0.8647 -6.9555 -2.3921 0.9708
-0.8217 -6.9610 -2.3922 0.9708
-0.7787 -6.9662 -2.3923 0.9708
-0.7356 -6.9711 -2.3924 0.9708
-0.6925 -6.9758 -2.3925 0.9708
-0.6062 -6.9844 -2.3927 0.9708
-0.5630 -6.9883 -2.3928 0.9708
-0.2602 -7.0081 -2.3935 0.9708
-0.2168 -7.0099 -2.3936 0.9708
0.0434 -7.0148 -2.3941 0.9708
0.0868 -7.0147 -2.3942 0.9708
0.1302 -7.0143 -2.3943 0.9708
0.4338 -7.0041 -2.3950 0.9708
0.5204 -6.9988 -2.3952 0.9708
0.5636 -6.9957 -2.3953 0.9708
0.7366 -6.9807 -2.3957 0.9708
0.7798 -6.9763 -2.3958 0.9708
0.9523 -6.9560 -2.3962 0.9708
0.9954 -6.9503 -2.3963 0.9708
1.0813 -6.9380 -2.3965 0.9708
1.1671 -6.9247 -2.3967 0.9708
1.2528 -6.9103 -2.3969 0.9708
1.2955 -6.9027 -2.3970 0.9708
1.3810 -6.8867 -2.3972 0.9708
1.4661 -6.8696 -2.3974 0.9707
1.5511 -6.8515 -2.3975 0.9707
1.8046 -6.7909 -2.3981 0.9707
1.8886 -6.7686 -2.3983 0.9707
1.9723 -6.7453 -2.3985 0.9707
2.0141 -6.7332 -2.3986 0.9707
2.0974 -6.7083 -2.3988 0.9707
2.1390 -6.6954 -2.3989 0.9707
2.1804 -6.6824 -2.3990 0.9707
2.3043 -6.6415 -2.3993 0.9707
2.3454 -6.6274 -2.3994 0.9707
2.3864 -6.6130 -2.3994 0.9707
2.4274 -6.5984 -2.3995 0.9707
2.4682 -6.5835 -2.3996 0.9707
2.5090 -6.5684 -2.3997 0.9707
2.5496 -6.5530 -2.3998 0.9707
2.5902 -6.5374 -2.3999 0.9707
2.6711 -6.5054 -2.4001 0.9707
2.7114 -6.4890 -2.4002 0.9707
2.7516 -6.4723 -2.4003 0.9707
2.8316 -6.4383 -2.4005 0.9707
2.8715 -6.4209 -2.4006 0.9707
2.9112 -6.4033 -2.4007 0.9707
2.9904 -6.3673 -2.4008 0.9707
3.0299 -6.3489 -2.4009 0.9707
3.1084 -6.3114 -2.4011 0.9707
3.1475 -6.2923 -2.4012 0.9707
3.1865 -6.2729 -2.4013 0.9707
3.4177 -6.1518 -2.4018 0.9707
3.4558 -6.1307 -2.4019 0.9707
3.4938 -6.1095 -2.4020 0.9707
3.6070 -6.0443 -2.4023 0.9707
3.6817 -5.9996 -2.4024 0.9707
3.7729 -5.8999 -2.3901 0.9708
3.7216 -5.5142 -2.2705 0.9723
3.7217 -5.4415 -2.2500 0.9725
3.7285 -5.3797 -2.2339 0.9727
3.8281 -5.3102 -2.2342 0.9727
3.8788 -5.2427 -2.2258 0.9728
3.8789 -5.1755 -2.2074 0.9730
3.8790 -5.0445 -2.1718 0.9735
3.8791 -4.9805 -2.1546 0.9737
3.8793 -4.8556 -2.1211 0.9741
3.8303 -4.7340 -2.0783 0.9746
3.8796 -4.5595 -2.0432 0.9750
3.8797 -4.4470 -2.0142 0.9754
3.7232 -4.1625 -1.9060 0.9767
3.7750 -4.1168 -1.9063 0.9767
3.7751 -4.0161 -1.8811 0.9770
3.7752 -3.9667 -1.8689 0.9771
3.7752 -3.9179 -1.8569 0.9773
3.7753 -3.8698 -1.8451 0.9774
3.7753 -3.8223 -1.8336 0.9775
3.7754 -3.7290 -1.8111 0.9778
3.7754 -3.6832 -1.8001 0.9780
3.7755 -3.6379 -1.7894 0.9781
3.7756 -3.5054 -1.7583 0.9785
3.7757 -3.4195 -1.7385 0.9787
3.7758 -3.3772 -1.7289 0.9788
3.7759 -3.2941 -1.7102 0.9790
3.7760 -3.2129 -1.6921 0.9793
3.7760 -3.1728 -1.6833 0.9794
3.7761 -3.0940 -1.6661 0.9796
3.7761 -3.0553 -1.6578 0.9797
3.7762 -2.9788 -1.6415 0.9799
3.7763 -2.8302 -1.6106 0.9803
3.7764 -2.7224 -1.5889 0.9805
3.7765 -2.6871 -1.5819 0.9806
3.7765 -2.6521 -1.5750 0.9807
3.7766 -2.6174 -1.5682 0.9808
3.7766 -2.5829 -1.5616 0.9808
3.7766 -2.5488 -1.5550 0.9809
3.7767 -2.4815 -1.5423 0.9811
3.7905 -2.3260 -1.5178 0.9814
3.9533 -2.3261 -1.5655 0.9808
4.0099 -2.3262 -1.5822 0.9806
4.2489 -2.3263 -1.6532 0.9797
4.3121 -2.3263 -1.6722 0.9795
4.5106 -2.3264 -1.7321 0.9788
4.5800 -2.3264 -1.7532 0.9785
4.6917 -2.2747 -1.7795 0.9782
5.2049 -2.3664 -1.9514 0.9761
5.2941 -2.3676 -1.9793 0.9758
5.5301 -2.4321 -2.0618 0.9748
5.6243 -2.4322 -2.0913 0.9744
5.7213 -2.4322 -2.1218 0.9741
5.8212 -2.4323 -2.1532 0.9737
5.8331 -2.3950 -2.1521 0.9737
5.8807 -2.3722 -2.1642 0.9736
6.1010 -2.4172 -2.2397 0.9726
6.1858 -2.2755 -2.2495 0.9725
6.3061 -2.2756 -2.2881 0.9721
6.5771 -2.3275 -2.3812 0.9709
6.6676 -2.3133 -2.4087 0.9706
6.6958 -2.2307 -2.4087 0.9706
6.7096 -2.1892 -2.4087 0.9706
6.7230 -2.1477 -2.4088 0.9706
6.7362 -2.1061 -2.4088 0.9706
6.7492 -2.0645 -2.4088 0.9706
6.7619 -2.0227 -2.4088 0.9706
6.7743 -1.9808 -2.4089 0.9706
6.8101 -1.8549 -2.4089 0.9706
6.8541 -1.6859 -2.4090 0.9706
6.8644 -1.6435 -2.4090 0.9706
6.8844 -1.5585 -2.4090 0.9706
6.8939 -1.5159 -2.4090 0.9706
6.9032 -1.4733 -2.4091 0.9706
6.9295 -1.3450 -2.4091 0.9706
6.9607 -1.1732 -2.4091 0.9706
6.9747 -1.0870 -2.4092 0.9706
6.9814 -1.0439 -2.4092 0.9706
6.9877 -1.0007 -2.4092 0.9706
6.9938 -0.9574 -2.4092 0.9706
6.9996 -0.9142 -2.4092 0.9706
7.0051 -0.8709 -2.4092 0.9706
7.0104 -0.8275 -2.4092 0.9706
7.0154 -0.7842 -2.4092 0.9706
7.0201 -0.7408 -2.4092 0.9706
7.0246 -0.6973 -2.4092 0.9706
7.0288 -0.6539 -2.4092 0.9706
7.0364 -0.5669 -2.4092 0.9706
7.0397 -0.5234 -2.4092 0.9706
7.0482 -0.3927 -2.4092 0.9706
7.0505 -0.3491 -2.4092 0.9706
7.0526 -0.3055 -2.4092 0.9706
7.0544 -0.2619 -2.4093 0.9706
7.0559 -0.2182 -2.4093 0.9706
7.0582 -0.1310 -2.4093 0.9706
7.0589 -0.0873 -2.4093 0.9706
7.0593 -0.0437 -2.4093 0.9706
7.0594 0.0437 -2.4094 0.9706
7.0590 0.0873 -2.4094 0.9706
7.0584 0.1310 -2.4094 0.9706
7.0574 0.1746 -2.4094 0.9706
7.0562 0.2183 -2.4094 0.9706
7.0530 0.3055 -2.4094 0.9706
7.0510 0.3491 -2.4094 0.9706
7.0487 0.3927 -2.4094 0.9706
7.0462 0.4363 -2.4094 0.9706
7.0434 0.4799 -2.4094 0.9706
7.0403 0.5234 -2.4094 0.9706
7.0369 0.5670 -2.4094 0.9706
7.0333 0.6105 -2.4094 0.9706
7.0252 0.6974 -2.4094 0.9706
7.0207 0.7408 -2.4094 0.9706
7.0160 0.7842 -2.4094 0.9706
7.0110 0.8276 -2.4094 0.9706
6.9944 0.9575 -2.4094 0.9706
6.9883 1.0008 -2.4094 0.9706
6.9820 1.0440 -2.4094 0.9706
6.9685 1.1302 -2.4094 0.9706
6.9614 1.1733 -2.4094 0.9706
6.9462 1.2593 -2.4094 0.9706
6.9383 1.3022 -2.4093 0.9706
6.9301 1.3451 -2.4093 0.9706
6.9038 1.4734 -2.4093 0.9706
6.8946 1.5161 -2.4093 0.9706
6.8850 1.5587 -2.4093 0.9706
6.8752 1.6012 -2.4093 0.9706
6.8651 1.6437 -2.4092 0.9706
6.8548 1.6861 -2.4092 0.9706
6.8222 1.8129 -2.4092 0.9706
6.7679 1.9790 -2.4066 0.9706
6.6160 1.9791 -2.3569 0.9712
6.3012 1.9274 -2.2489 0.9725
6.2330 1.9488 -2.2288 0.9728
6.1303 2.0845 -2.2099 0.9730
5.2872 2.0571 -1.9363 0.9763
5.1051 2.0593 -1.8788 0.9770
5.0781 2.0851 -1.8735 0.9771
4.5692 1.9759 -1.6990 0.9792
4.3556 1.9803 -1.6330 0.9800
4.2852 1.9803 -1.6111 0.9802
4.2166 1.9804 -1.5899 0.9805
4.0847 1.9804 -1.5493 0.9810
4.0212 1.9805 -1.5298 0.9812
3.8400 1.9806 -1.4746 0.9819
3.7824 1.9806 -1.4572 0.9821
3.6792 1.9849 -1.4268 0.9825
3.6793 2.0144 -1.4316 0.9824
3.6793 2.0441 -1.4365 0.9824
3.6793 2.1344 -1.4517 0.9822
3.6793 2.1649 -1.4570 0.9821
3.6793 2.1956 -1.4623 0.9821
3.6793 2.2266 -1.4678 0.9820
3.6793 2.2892 -1.4789 0.9819
3.6793 2.3209 -1.4847 0.9818
3.6793 2.3529 -1.4905 0.9817
3.6793 2.4175 -1.5025 0.9816
3.6793 2.4832 -1.5150 0.9814
3.6793 2.5164 -1.5213 0.9813
3.6793 2.5838 -1.5344 0.9812
3.6793 2.6179 -1.5412 0.9811
3.6793 2.6871 -1.5550 0.9809
3.6793 2.7222 -1.5620 0.9808
3.6793 2.7575 -1.5693 0.9808
3.6793 2.7932 -1.5766 0.9807
3.6793 2.8293 -1.5841 0.9806
3.6793 2.8656 -1.5917 0.9805
3.6793 2.9395 -1.6073 0.9803
3.6793 3.0530 -1.6317 0.9800
3.6793 3.1701 -1.6575 0.9797
3.6793 3.2099 -1.6664 0.9796
3.6793 3.2502 -1.6755 0.9795
3.6793 3.2910 -1.6848 0.9794
3.6793 3.4159 -1.7135 0.9790
3.6793 3.5017 -1.7335 0.9788
3.6793 3.6341 -1.7650 0.9784
3.6793 3.6793 -1.7759 0.9782
3.6793 3.7251 -1.7869 0.9781
3.6793 3.7715 -1.7982 0.9780
3.6698 3.8086 -1.8051 0.9779
3.7844 4.0762 -1.8983 0.9768
3.7844 4.1271 -1.9111 0.9766
3.7844 4.1787 -1.9241 0.9765
3.7495 4.2445 -1.9329 0.9763
3.7390 4.2858 -1.9411 0.9762
3.7383 4.3388 -1.9547 0.9761
3.7353 4.3899 -1.9672 0.9759
3.7843 4.6185 -2.0378 0.9751
3.7843 4.7973 -2.0854 0.9745
3.7843 4.8588 -2.1019 0.9743
3.7843 4.9213 -2.1188 0.9741
3.7775 4.9757 -2.1321 0.9739
3.7843 5.1149 -2.1715 0.9735
3.7843 5.1816 -2.1899 0.9732
3.7843 5.2494 -2.2086 0.9730
3.7635 5.3591 -2.2350 0.9727
3.7301 5.3821 -2.2349 0.9727
3.6791 5.7532 -2.3307 0.9715
3.6791 5.9130 -2.3768 0.9710
3.5689 6.0655 -2.4019 0.9707
3.5312 6.0872 -2.4018 0.9707
3.4934 6.1087 -2.4017 0.9707
3.4173 6.1510 -2.4015 0.9707
3.3022 6.2126 -2.4012 0.9707
3.2249 6.2524 -2.4010 0.9707
3.1079 6.3104 -2.4007 0.9707
3.0687 6.3293 -2.4007 0.9707
2.9900 6.3663 -2.4005 0.9707
2.9108 6.4022 -2.4003 0.9707
2.8710 6.4199 -2.4002 0.9707
2.8311 6.4372 -2.4001 0.9707
2.7511 6.4712 -2.3999 0.9707
2.6706 6.5042 -2.3997 0.9707
2.6303 6.5205 -2.3996 0.9707
2.5493 6.5521 -2.3995 0.9707
2.3451 6.6266 -2.3991 0.9707
2.3039 6.6407 -2.3990 0.9707
2.2215 6.6683 -2.3988 0.9707
2.0556 6.7202 -2.3985 0.9707
2.0139 6.7326 -2.3984 0.9707
1.9722 6.7446 -2.3983 0.9707
1.9304 6.7565 -2.3982 0.9707
1.8465 6.7793 -2.3980 0.9707
1.8045 6.7904 -2.3979 0.9707
1.7203 6.8117 -2.3978 0.9707
1.6358 6.8320 -2.3976 0.9707
1.5934 6.8417 -2.3975 0.9707
1.5510 6.8512 -2.3974 0.9707
1.4661 6.8693 -2.3973 0.9707
1.3809 6.8864 -2.3971 0.9708
1.3382 6.8946 -2.3970 0.9708
1.2955 6.9025 -2.3969 0.9708
1.2528 6.9101 -2.3968 0.9708
1.2100 6.9175 -2.3967 0.9708
1.1671 6.9246 -2.3966 0.9708
1.1242 6.9314 -2.3966 0.9708
1.0813 6.9380 -2.3965 0.9708
1.0384 6.9443 -2.3964 0.9708
0.9953 6.9503 -2.3963 0.9708
0.9092 6.9616 -2.3961 0.9708
0.8230 6.9718 -2.3959 0.9708
0.7798 6.9765 -2.3959 0.9708
0.6934 6.9851 -2.3957 0.9708
0.6502 6.9890 -2.3956 0.9708
0.6069 6.9926 -2.3955 0.9708
0.5637 6.9960 -2.3954 0.9708
0.4771 7.0019 -2.3952 0.9708
0.4338 7.0045 -2.3952 0.9708
0.3904 7.0068 -2.3951 0.9708
0.3037 7.0105 -2.3949 0.9708
0.2603 7.0120 -2.3948 0.9708
0.1736 7.0142 -2.3946 0.9708
0.1302 7.0149 -2.3945 0.9708
0.0434 7.0154 -2.3944 0.9708
-0.0000 7.0153 -2.3943 0.9708
-0.0434 7.0149 -2.3942 0.9708
-0.1301 7.0133 -2.3940 0.9708
-0.1735 7.0121 -2.3939 0.9708
-0.2168 7.0107 -2.3938 0.9708
-0.3468 7.0047 -2.3936 0.9708
-0.4334 6.9994 -2.3934 0.9708
-0.4767 6.9963 -2.3933 0.9708
-0.6063 6.9855 -2.3931 0.9708
-0.6495 6.9813 -2.3930 0.9708
-0.6926 6.9770 -2.3929 0.9708
-0.9078 6.9509 -2.3925 0.9708
-0.9507 6.9449 -2.3924 0.9708
-0.9936 6.9387 -2.3923 0.9708
-1.0365 6.9321 -2.3922 0.9708
-1.1648 6.9110 -2.3919 0.9708
-1.2501 6.8956 -2.3918 0.9708
-1.3352 6.8791 -2.3916 0.9708
-1.3777 6.8704 -2.3915 0.9708
-1.4624 6.8524 -2.3913 0.9708
-1.5047 6.8430 -2.3913 0.9708
-1.5470 6.8333 -2.3912 0.9708
-1.7571 6.7810 -2.3908 0.9708
-1.9241 6.7345 -2.3904 0.9708
-1.9656 6.7223 -2.3903 0.9708
-2.0071 6.7098 -2.3903 0.9708
-2.0485 6.6970 -2.3902 0.9708
-2.0898 6.6840 -2.3901 0.9708
-2.1310 6.6707 -2.3900 0.9708
-2.1721 6.6571 -2.3899 0.9708
-2.2541 6.6293 -2.3898 0.9708
-2.2950 6.6150 -2.3897 0.9708
-2.3358 6.6005 -2.3896 0.9708
-2.3765 6.5857 -2.3895 0.9708
-2.4171 6.5706 -2.3894 0.9708
-2.6587 6.4752 -2.3890 0.9708
-2.7384 6.4414 -2.3888 0.9709
-2.8176 6.4066 -2.3887 0.9709
-2.9357 6.3526 -2.3884 0.9709
-2.9748 6.3341 -2.3883 0.9709
-3.0138 6.3154 -2.3883 0.9709
-3.0915 6.2772 -2.3881 0.9709
-3.1302 6.2578 -2.3880 0.9709
-3.1687 6.2381 -2.3880 0.9709
-3.2072 6.2182 -2.3879 0.9709
-3.2454 6.1980 -2.3878 0.9709
-3.2836 6.1777 -2.3877 0.9709
-3.4350 6.0938 -2.3874 0.9709
-3.4725 6.0722 -2.3874 0.9709
-3.5471 6.0285 -2.3872 0.9709
-3.5842 6.0062 -2.3871 0.9709
-3.6947 5.9382 -2.3869 0.9709
-3.8039 5.8681 -2.3867 0.9709
-3.8400 5.8443 -2.3866 0.9709
-3.9474 5.7715 -2.3864 0.9709
-3.9829 5.7468 -2.3864 0.9709
-4.0534 5.6968 -2.3862 0.9709
-4.1234 5.6459 -2.3861 0.9709
-4.1581 5.6202 -2.3860 0.9709
-4.1926 5.5942 -2.3860 0.9709
-4.2953 5.5150 -2.3858 0.9709
-4.3293 5.4881 -2.3857 0.9709
-4.3630 5.4611 -2.3856 0.9709
-4.4632 5.3788 -2.3854 0.9709
-4.5618 5.2947 -2.3852 0.9709
-4.6909 5.1797 -2.3850 0.9709
-4.7858 5.0913 -2.3848 0.9709
-4.8171 5.0615 -2.3847 0.9709
-4.9403 4.9403 -2.3845 0.9709
-4.9706 4.9096 -2.3845 0.9709
-5.0008 4.8786 -2.3844 0.9709
-5.0605 4.8161 -2.3843 0.9709
-5.0901 4.7846 -2.3842 0.9709
-5.1486 4.7211 -2.3841 0.9709
-5.2064 4.6569 -2.3840 0.9709
-5.2915 4.5591 -2.3838 0.9709
-5.3194 4.5262 -2.3838 0.9709
-5.3747 4.4598 -2.3836 0.9709
-5.4021 4.4264 -2.3836 0.9709
-5.4292 4.3928 -2.3835 0.9709
-5.4561 4.3590 -2.3834 0.9709
-5.4828 4.3251 -2.3834 0.9709
-5.5093 4.2909 -2.3833 0.9709
-5.5875 4.1877 -2.3831 0.9709
-5.6132 4.1529 -2.3831 0.9709
-5.6638 4.0830 -2.3829 0.9709
-5.6888 4.0478 -2.3829 0.9709
-5.7381 3.9769 -2.3828 0.9709
-5.7625 3.9412 -2.3827 0.9709
-5.8105 3.8695 -2.3826 0.9709
-5.8342 3.8334 -2.3825 0.9709
-5.8576 3.7971 -2.3825 0.9709
-5.9038 3.7242 -2.3823 0.9709
-5.9936 3.5767 -2.3821 0.9709
-6.0371 3.5021 -2.3820 0.9709
-6.0585 3.4646 -2.3820 0.9709
-6.1006 3.3893 -2.3819 0.9709
-6.1213 3.3515 -2.3818 0.9709
-6.1418 3.3135 -2.3818 0.9709
-6.1621 3.2754 -2.3817 0.9709
-6.1821 3.2371 -2.3817 0.9709
-6.2407 3.1217 -2.3815 0.9709
-6.2598 3.0829 -2.3815 0.9709
-6.2786 3.0441 -2.3814 0.9709
-6.3155 2.9661 -2.3813 0.9709
-6.3336 2.9270 -2.3813 0.9709
-6.3514 2.8877 -2.3812 0.9709
-6.4204 2.7295 -2.3811 0.9709
-6.4371 2.6897 -2.3810 0.9709
-6.4535 2.6498 -2.3810 0.9709
-6.5012 2.5295 -2.3808 0.9709
-6.5318 2.4488 -2.3808 0.9709
-6.5467 2.4083 -2.3807 0.9709
-6.5613 2.3677 -2.3807 0.9709
-6.5757 2.3271 -2.3807 0.9709
-6.5899 2.2863 -2.3806 0.9709
-6.6440 2.1225 -2.3805 0.9710
-6.6570 2.0813 -2.3804 0.9710
-6.6696 2.0401 -2.3804 0.9710
-6.6941 1.9574 -2.3803 0.9710
-6.7060 1.9160 -2.3803 0.9710
-6.7176 1.8744 -2.3803 0.9710
-6.7616 1.7076 -2.3801 0.9710
-6.7821 1.6238 -2.3801 0.9710
-6.7919 1.5818 -2.3801 0.9710
-6.8014 1.5398 -2.3800 0.9710
-6.8108 1.4977 -2.3800 0.9710
-6.8371 1.3710 -2.3799 0.9710
-6.8759 1.1589 -2.3798 0.9710
-6.9138 0.9030 -2.3797 0.9710
-6.9192 0.8602 -2.3797 0.9710
-6.9244 0.8174 -2.3797 0.9710
-6.9382 0.6888 -2.3796 0.9710
-6.9496 0.5599 -2.3796 0.9710
-6.9530 0.5169 -2.3796 0.9710
-6.9560 0.4739 -2.3795 0.9710
-6.9588 0.4309 -2.3795 0.9710
-6.9612 0.3878 -2.3795 0.9710
-6.9635 0.3448 -2.3795 0.9710
-6.9654 0.3017 -2.3795 0.9710
-6.9686 0.2155 -2.3795 0.9710
-6.9707 0.1294 -2.3795 0.9710
-6.9713 0.0862 -2.3795 0.9710
-6.9717 0.0431 -2.3794 0.9710
-6.8070 -0.0421 -2.3798 0.9716
-6.8066 -0.0842 -2.3798 0.9716
-6.8059 -0.1263 -2.3798 0.9716
-6.8024 -0.2525 -2.3798 0.9716
-6.8007 -0.2946 -2.3798 0.9716
-6.7913 -0.4627 -2.3798 0.9716
-6.7883 -0.5047 -2.3798 0.9716
-6.7851 -0.5467 -2.3798 0.9716
-6.7815 -0.5886 -2.3798 0.9716
-6.7778 -0.6305 -2.3798 0.9716
-6.7695 -0.7143 -2.3798 0.9716
-6.7650 -0.7562 -2.3798 0.9716
-6.7551 -0.8398 -2.3798 0.9716
-6.7385 -0.9650 -2.3798 0.9716
-6.7324 -1.0066 -2.3798 0.9716
-6.6982 -1.2143 -2.3799 0.9716
-6.6662 -1.3796 -2.3799 0.9716
-6.6576 -1.4208 -2.3799 0.9716
-6.6487 -1.4620 -2.3800 0.9716
-6.6302 -1.5441 -2.3800 0.9716
-6.6206 -1.5851 -2.3800 0.9716
-6.6005 -1.6669 -2.3800 0.9716
-6.5902 -1.7077 -2.3801 0.9716
-6.5795 -1.7485 -2.3801 0.9716
-6.5687 -1.7891 -2.3801 0.9716
-6.5575 -1.8297 -2.3801 0.9716
-6.5461 -1.8703 -2.3801 0.9716
-6.5345 -1.9107 -2.3801 0.9716
-6.5226 -1.9511 -2.3802 0.9716
-6.5105 -1.9914 -2.3802 0.9716
-6.4981 -2.0317 -2.3802 0.9716
-6.4855 -2.0719 -2.3802 0.9716
-6.4595 -2.1519 -2.3803 0.9716
-6.4461 -2.1919 -2.3803 0.9716
-6.4325 -2.2317 -2.3803 0.9716
-6.4186 -2.2715 -2.3804 0.9716
-6.4045 -2.3111 -2.3804 0.9716
-6.3902 -2.3507 -2.3804 0.9716
-6.3756 -2.3902 -2.3804 0.9716
-6.3608 -2.4296 -2.3805 0.9716
-6.3304 -2.5082 -2.3805 0.9716
-6.2991 -2.5863 -2.3806 0.9716
-6.2830 -2.6253 -2.3806 0.9716
-6.2668 -2.6641 -2.3806 0.9716
-6.1993 -2.8185 -2.3808 0.9716
-6.1818 -2.8568 -2.3808 0.9716
-6.1280 -2.9711 -2.3809 0.9716
-6.1096 -3.0090 -2.3809 0.9716
-6.0721 -3.0844 -2.3810 0.9716
-6.0530 -3.1220 -2.3811 0.9716
-5.9541 -3.3079 -2.3813 0.9716
-5.9336 -3.3447 -2.3813 0.9715
-5.8495 -3.4907 -2.3815 0.9715
-5.8061 -3.5629 -2.3815 0.9715
-5.7840 -3.5988 -2.3816 0.9715
-5.7393 -3.6702 -2.3817 0.9715
-5.6706 -3.7763 -2.3818 0.9715
-5.6472 -3.8114 -2.3819 0.9715
-5.5758 -3.9157 -2.3820 0.9715
-5.5517 -3.9502 -2.3821 0.9715
-5.4778 -4.0527 -2.3822 0.9715
-5.3763 -4.1873 -2.3824 0.9715
-5.3504 -4.2206 -2.3825 0.9715
-5.2716 -4.3195 -2.3826 0.9715
-5.2449 -4.3521 -2.3827 0.9715
-5.1636 -4.4489 -2.3829 0.9715
-5.0805 -4.5443 -2.3830 0.9715
-5.0525 -4.5757 -2.3831 0.9715
-4.9957 -4.6381 -2.3832 0.9715
-4.9382 -4.6998 -2.3833 0.9715
-4.8800 -4.7608 -2.3835 0.9715
-4.7612 -4.8805 -2.3837 0.9715
-4.7008 -4.9393 -2.3838 0.9715
-4.6703 -4.9684 -2.3839 0.9715
-4.5150 -5.1111 -2.3842 0.9715
-4.4517 -5.1669 -2.3844 0.9715
-4.3877 -5.2218 -2.3845 0.9715
-4.3555 -5.2490 -2.3846 0.9715
-4.2905 -5.3028 -2.3847 0.9715
-4.2248 -5.3557 -2.3848 0.9715
-4.1917 -5.3819 -2.3849 0.9715
-4.1585 -5.4079 -2.3850 0.9715
-4.0578 -5.4846 -2.3852 0.9715
-4.0239 -5.5098 -2.3853 0.9715
-3.9899 -5.5347 -2.3853 0.9715
-3.8869 -5.6083 -2.3856 0.9715
-3.8523 -5.6324 -2.3856 0.9715
-3.8175 -5.6563 -2.3857 0.9715
-3.6057 -5.7951 -2.3862 0.9715
-3.5699 -5.8175 -2.3862 0.9715
-3.5340 -5.8397 -2.3863 0.9715
-3.4979 -5.8616 -2.3864 0.9715
-3.3156 -5.9679 -2.3868 0.9715
-3.2417 -6.0089 -2.3869 0.9715
-3.0925 -6.0880 -2.3873 0.9715
-2.9793 -6.1450 -2.3875 0.9715
-2.9414 -6.1635 -2.3876 0.9715
-2.9033 -6.1818 -2.3877 0.9715
-2.7113 -6.2697 -2.3881 0.9715
-2.6726 -6.2866 -2.3882 0.9715
-2.6337 -6.3032 -2.3883 0.9715
-2.4773 -6.3673 -2.3886 0.9715
-2.3986 -6.3979 -2.3888 0.9715
-2.3194 -6.4276 -2.3889 0.9715
-2.2399 -6.4563 -2.3891 0.9715
-2.2001 -6.4702 -2.3892 0.9715
-2.1200 -6.4974 -2.3894 0.9715
-2.0396 -6.5236 -2.3896 0.9715
-1.9993 -6.5363 -2.3896 0.9715
-1.9185 -6.5611 -2.3898 0.9714
-1.8779 -6.5730 -2.3899 0.9714
-1.6332 -6.6397 -2.3905 0.9714
-1.5921 -6.6499 -2.3905 0.9714
-1.3446 -6.7059 -2.3911 0.9714
-1.1369 -6.7456 -2.3915 0.9714
-1.0952 -6.7527 -2.3916 0.9714
-1.0534 -6.7597 -2.3917 0.9714
-0.9699 -6.7727 -2.3919 0.9714
-0.9280 -6.7788 -2.3920 0.9714
-0.8441 -6.7903 -2.3922 0.9714
-0.8022 -6.7956 -2.3923 0.9714
-0.7602 -6.8008 -2.3924 0.9714
-0.7181 -6.8056 -2.3925 0.9714
-0.6339 -6.8145 -2.3927 0.9714
-0.5497 -6.8223 -2.3928 0.9714
-0.4653 -6.8292 -2.3930 0.9714
-0.2963 -6.8397 -2.3934 0.9714
-0.1694 -6.8448 -2.3937 0.9714
-0.1270 -6.8460 -2.3938 0.9714
-0.0847 -6.8469 -2.3939 0.9714
0.1695 -6.8470 -2.3945 0.9714
0.3388 -6.8417 -2.3948 0.9714
0.3811 -6.8398 -2.3949 0.9714
0.4234 -6.8376 -2.3950 0.9714
0.5925 -6.8261 -2.3954 0.9714
0.7191 -6.8147 -2.3957 0.9714
0.8034 -6.8059 -2.3959 0.9714
0.9297 -6.7906 -2.3962 0.9714
0.9717 -6.7850 -2.3963 0.9714
1.1394 -6.7600 -2.3966 0.9714
1.2230 -6.7459 -2.3968 0.9714
1.3897 -6.7146 -2.3972 0.9714
1.4312 -6.7062 -2.3973 0.9714
1.4728 -6.6974 -2.3974 0.9714
1.5556 -6.6792 -2.3976 0.9714
1.5969 -6.6697 -2.3977 0.9714
1.6382 -6.6600 -2.3978 0.9714
1.7206 -6.6397 -2.3980 0.9714
1.8027 -6.6185 -2.3981 0.9714
1.8846 -6.5962 -2.3983 0.9713
1.9254 -6.5847 -2.3984 0.9713
1.9662 -6.5729 -2.3985 0.9713
2.0069 -6.5609 -2.3986 0.9713
2.0475 -6.5486 -2.3987 0.9713
2.0880 -6.5361 -2.3988 0.9713
2.1285 -6.5233 -2.3989 0.9713
2.2092 -6.4969 -2.3991 0.9713
2.2895 -6.4696 -2.3993 0.9713
2.3296 -6.4556 -2.3993 0.9713
2.3696 -6.4413 -2.3994 0.9713
2.4095 -6.4268 -2.3995 0.9713
2.4889 -6.3969 -2.3997 0.9713
2.6468 -6.3344 -2.4001 0.9713
2.6860 -6.3181 -2.4002 0.9713
2.8031 -6.2679 -2.4004 0.9713
2.8419 -6.2507 -2.4005 0.9713
2.8806 -6.2332 -2.4006 0.9713
2.9577 -6.1976 -2.4008 0.9713
2.9960 -6.1794 -2.4009 0.9713
3.0725 -6.1423 -2.4010 0.9713
3.1484 -6.1043 -2.4012 0.9713
3.1862 -6.0849 -2.4013 0.9713
3.3362 -6.0051 -2.4017 0.9713
3.3735 -5.9846 -2.4017 0.9713
3.4475 -5.9429 -2.4019 0.9713
3.5210 -5.9002 -2.4021 0.9713
3.5575 -5.8785 -2.4022 0.9713
3.6302 -5.8345 -2.4023 0.9713
3.7382 -5.7667 -2.4026 0.9713
3.7730 -5.7423 -2.4021 0.9713
3.7218 -5.2997 -2.2640 0.9729
3.7688 -5.1605 -2.2340 0.9733
3.8008 -5.1372 -2.2341 0.9733
3.8789 -5.0443 -2.2246 0.9734
3.8790 -4.9804 -2.2070 0.9736
3.8791 -4.9174 -2.1897 0.9738
3.8302 -4.7339 -2.1289 0.9745
3.8432 -4.6904 -2.1199 0.9746
3.8794 -4.6752 -2.1239 0.9746
3.7230 -4.1624 -1.9524 0.9766
3.7749 -4.0660 -1.9397 0.9768
3.7751 -3.9666 -1.9144 0.9771
3.7752 -3.8697 -1.8900 0.9774
3.7752 -3.8222 -1.8782 0.9775
3.7753 -3.7753 -1.8665 0.9776
3.7754 -3.6831 -1.8439 0.9779
3.7754 -3.6379 -1.8329 0.9780
3.7754 -3.5931 -1.8221 0.9782
3.7755 -3.5489 -1.8115 0.9783
3.7756 -3.4621 -1.7909 0.9785
3.7757 -3.3771 -1.7710 0.9788
3.7757 -3.3354 -1.7613 0.9789
3.7758 -3.2941 -1.7518 0.9790
3.7759 -3.1728 -1.7242 0.9793
3.7759 -3.1332 -1.7154 0.9794
3.7760 -3.0939 -1.7066 0.9795
3.7760 -3.0552 -1.6981 0.9796
3.7761 -2.9787 -1.6814 0.9798
3.7762 -2.9037 -1.6653 0.9800
3.7762 -2.8302 -1.6498 0.9802
3.7764 -2.6870 -1.6203 0.9806
3.7764 -2.6520 -1.6133 0.9806
3.7765 -2.6173 -1.6064 0.9807
3.7765 -2.5488 -1.5928 0.9809
3.7766 -2.5150 -1.5863 0.9810
3.7766 -2.4481 -1.5735 0.9811
3.7767 -2.3823 -1.5611 0.9813
3.7767 -2.3498 -1.5551 0.9813
3.7905 -2.3260 -1.5548 0.9813
3.8979 -2.3261 -1.5869 0.9809
3.9534 -2.3261 -1.6036 0.9808
4.0099 -2.3262 -1.6207 0.9805
4.0677 -2.3262 -1.6382 0.9803
4.2489 -2.3263 -1.6935 0.9797
4.3121 -2.3263 -1.7129 0.9795
4.3767 -2.3264 -1.7328 0.9792
4.5106 -2.3264 -1.7743 0.9787
4.6511 -2.3265 -1.8181 0.9782
4.9956 -2.3841 -1.9352 0.9768
5.2169 -2.3718 -2.0035 0.9760
5.5301 -2.4321 -2.1121 0.9747
5.6243 -2.4322 -2.1423 0.9744
5.7213 -2.4322 -2.1734 0.9740
5.9550 -2.3595 -2.2394 0.9732
6.0696 -2.2755 -2.2662 0.9729
6.1858 -2.2755 -2.3043 0.9725
6.4499 -2.3275 -2.3972 0.9714
6.5358 -2.1773 -2.4084 0.9712
6.5753 -2.0558 -2.4085 0.9712
6.6003 -1.9743 -2.4085 0.9712
6.6124 -1.9335 -2.4085 0.9712
6.6243 -1.8926 -2.4085 0.9712
6.6359 -1.8516 -2.4086 0.9712
6.6473 -1.8105 -2.4086 0.9712
6.6693 -1.7282 -2.4086 0.9712
6.6799 -1.6869 -2.4086 0.9712
6.6902 -1.6456 -2.4086 0.9712
6.7004 -1.6042 -2.4087 0.9712
6.7102 -1.5628 -2.4087 0.9712
6.7198 -1.5213 -2.4087 0.9712
6.7291 -1.4797 -2.4087 0.9712
6.7381 -1.4380 -2.4087 0.9712
6.7470 -1.3963 -2.4087 0.9712
6.7555 -1.3546 -2.4088 0.9712
6.7718 -1.2710 -2.4088 0.9712
6.7795 -1.2291 -2.4088 0.9712
6.8080 -1.0610 -2.4088 0.9712
6.8206 -0.9767 -2.4088 0.9712
6.8322 -0.8923 -2.4089 0.9712
6.8377 -0.8501 -2.4089 0.9712
6.8567 -0.6807 -2.4089 0.9712
6.8681 -0.5533 -2.4089 0.9712
6.8714 -0.5109 -2.4089 0.9712
6.8745 -0.4684 -2.4089 0.9712
6.8772 -0.4259 -2.4089 0.9712
6.8797 -0.3833 -2.4089 0.9712
6.8820 -0.3407 -2.4089 0.9712
6.8839 -0.2982 -2.4089 0.9712
6.8882 -0.1704 -2.4089 0.9712
6.8892 -0.1278 -2.4089 0.9712
6.8898 -0.0852 -2.4089 0.9712
6.8904 0.0000 -2.4089 0.9712
6.8903 0.0426 -2.4089 0.9712
6.8900 0.0852 -2.4089 0.9712
6.8884 0.1704 -2.4090 0.9712
6.8873 0.2130 -2.4090 0.9712
6.8841 0.2982 -2.4090 0.9712
6.8799 0.3833 -2.4090 0.9712
6.8717 0.5109 -2.4090 0.9712
6.8684 0.5534 -2.4090 0.9712
6.8431 0.8078 -2.4090 0.9712
6.8148 1.0189 -2.4090 0.9712
6.8016 1.1032 -2.4090 0.9712
6.7947 1.1452 -2.4089 0.9712
6.7874 1.1872 -2.4089 0.9712
6.7799 1.2291 -2.4089 0.9712
6.7642 1.3129 -2.4089 0.9712
6.7473 1.3964 -2.4089 0.9712
6.7385 1.4381 -2.4089 0.9712
6.7295 1.4797 -2.4089 0.9712
6.7202 1.5213 -2.4088 0.9712
6.7007 1.6043 -2.4088 0.9712
6.6906 1.6457 -2.4088 0.9712
6.6477 1.8106 -2.4087 0.9712
6.6363 1.8517 -2.4087 0.9712
6.6247 1.8927 -2.4087 0.9712
6.6128 1.9336 -2.4087 0.9712
6.0914 1.9876 -2.2401 0.9732
6.0789 2.0252 -2.2400 0.9732
6.0662 2.0627 -2.2400 0.9732
6.0083 2.0845 -2.2233 0.9734
5.7355 2.0297 -2.1270 0.9745
5.5608 2.0848 -2.0762 0.9751
5.1106 2.0249 -1.9218 0.9770
4.4280 1.9802 -1.6958 0.9797
4.3556 1.9803 -1.6727 0.9799
4.1498 1.9804 -1.6075 0.9807
4.0847 1.9804 -1.5870 0.9809
3.8989 1.9805 -1.5289 0.9816
3.7824 1.9806 -1.4927 0.9821
3.7262 1.9806 -1.4753 0.9823
3.6792 1.9849 -1.4615 0.9824
