ply
format ascii 1.0
element vertex 1557
property float32 x
property float32 y
property float32 z
property float32 I
end_header
-14.1428 -14.8604 -0.6549 0.9212
-14.1429 -15.0457 -0.6592 0.9207
-14.1430 -15.2335 -0.6636 0.9202
-14.1432 -15.6168 -0.6726 0.9191
-14.1433 -15.8123 -0.6773 0.9186
-14.1435 -16.0106 -0.6820 0.9181
-14.1436 -16.2117 -0.6868 0.9175
-14.1437 -16.4157 -0.6918 0.9169
-14.1440 -17.0457 -0.7071 0.9152
-14.1443 -17.4815 -0.7179 0.9139
-14.1444 -17.7045 -0.7235 0.9133
-14.1448 -18.3946 -0.7408 0.9113
-14.1449 -18.6321 -0.7468 0.9106
-14.1451 -18.8735 -0.7530 0.9099
-14.1452 -19.1189 -0.7593 0.9092
-12.5530 -17.4132 -0.6853 0.9177
-12.3901 -17.4133 -0.6823 0.9180
-12.2287 -17.4134 -0.6793 0.9184
-12.0686 -17.4134 -0.6764 0.9187
-11.4418 -17.4138 -0.6652 0.9200
-11.2883 -17.4138 -0.6625 0.9203
-11.1360 -17.4139 -0.6599 0.9206
-10.9849 -17.4140 -0.6573 0.9209
-10.8350 -17.4141 -0.6548 0.9212
-10.6862 -17.4142 -0.6523 0.9215
-10.3920 -17.4143 -0.6474 0.9220
-10.2466 -17.4144 -0.6451 0.9223
-10.1022 -17.4145 -0.6427 0.9226
-9.9588 -17.4145 -0.6405 0.9229
-9.8164 -17.4146 -0.6382 0.9231
-9.5346 -17.4148 -0.6338 0.9236
-8.8463 -17.4151 -0.6236 0.9248
-8.7113 -17.4152 -0.6217 0.9250
-8.4437 -17.4153 -0.6179 0.9255
-8.3111 -17.4154 -0.6161 0.9257
-8.1793 -17.4154 -0.6143 0.9259
-8.0482 -17.4155 -0.6125 0.9261
-7.7884 -17.4157 -0.6091 0.9265
-7.5313 -17.4158 -0.6058 0.9269
-7.4038 -17.4159 -0.6042 0.9271
-7.2771 -17.4159 -0.6026 0.9272
-6.5294 -17.4163 -0.5938 0.9283
-6.2849 -17.4164 -0.5911 0.9286
-5.6829 -17.4167 -0.5849 0.9293
-5.5639 -17.4168 -0.5837 0.9294
-5.2100 -17.4170 -0.5804 0.9298
-4.7439 -17.4172 -0.5763 0.9303
-4.6285 -17.4173 -0.5754 0.9304
-4.3986 -17.4174 -0.5735 0.9306
-3.9431 -17.4176 -0.5701 0.9310
-3.8300 -17.4177 -0.5693 0.9311
-3.6048 -17.4178 -0.5679 0.9313
-3.1577 -17.4180 -0.5651 0.9316
-3.0466 -17.4181 -0.5645 0.9317
-2.7146 -17.4182 -0.5628 0.9319
-2.6044 -17.4183 -0.5623 0.9319
-2.3846 -17.4184 -0.5613 0.9321
-2.2749 -17.4185 -0.5608 0.9321
-2.1654 -17.4185 -0.5604 0.9322
-1.8380 -17.4187 -0.5592 0.9323
-1.7292 -17.4187 -0.5588 0.9323
-1.6204 -17.4188 -0.5585 0.9324
-1.2950 -17.4190 -0.5576 0.9325
-1.1868 -17.4190 -0.5574 0.9325
-0.8625 -17.4192 -0.5568 0.9326
-0.7545 -17.4192 -0.5566 0.9326
-0.5388 -17.4194 -0.5564 0.9326
-0.3232 -17.4195 -0.5562 0.9326
-0.2154 -17.4195 -0.5562 0.9327
-0.1077 -17.4196 -0.5561 0.9327
0.0000 -17.4196 -0.5561 0.9327
0.2155 -17.4197 -0.5562 0.9327
0.4310 -17.4198 -0.5563 0.9326
0.6467 -17.4200 -0.5565 0.9326
0.7546 -17.4200 -0.5567 0.9326
0.9706 -17.4201 -0.5570 0.9326
1.0787 -17.4202 -0.5572 0.9325
1.1869 -17.4203 -0.5574 0.9325
1.2952 -17.4203 -0.5577 0.9325
1.5121 -17.4204 -0.5582 0.9324
1.7294 -17.4205 -0.5589 0.9323
1.9473 -17.4206 -0.5596 0.9323
2.0564 -17.4207 -0.5600 0.9322
2.1658 -17.4207 -0.5604 0.9322
2.2753 -17.4208 -0.5609 0.9321
2.3849 -17.4209 -0.5614 0.9320
2.6048 -17.4210 -0.5624 0.9319
2.8255 -17.4211 -0.5634 0.9318
3.2697 -17.4213 -0.5659 0.9315
3.4225 -17.0681 -0.5558 0.9327
3.4228 -16.5383 -0.5392 0.9346
3.3237 -14.6815 -0.4806 0.9415
3.3242 -13.8839 -0.4558 0.9445
3.4251 -12.5750 -0.4161 0.9492
3.4256 -11.7152 -0.3897 0.9523
3.3742 -11.0310 -0.3683 0.9549
3.3744 -10.7924 -0.3610 0.9558
3.3745 -10.5631 -0.3540 0.9566
3.3845 -9.5637 -0.3239 0.9602
3.4273 -8.8088 -0.3018 0.9629
3.4274 -8.6503 -0.2971 0.9634
3.4276 -8.3477 -0.2881 0.9645
3.4277 -8.2032 -0.2838 0.9650
3.4278 -7.9265 -0.2757 0.9660
3.4280 -7.6652 -0.2681 0.9670
3.4281 -7.4180 -0.2609 0.9678
3.4282 -7.2992 -0.2575 0.9682
3.4282 -7.1836 -0.2541 0.9686
3.4284 -6.9610 -0.2477 0.9694
3.4284 -6.8539 -0.2447 0.9698
3.4285 -6.7494 -0.2417 0.9702
3.4286 -6.6473 -0.2388 0.9705
3.4288 -6.2625 -0.2279 0.9718
3.4289 -6.0829 -0.2229 0.9724
3.3772 -5.9055 -0.2172 0.9731
3.3772 -5.8217 -0.2149 0.9734
3.5215 -5.8190 -0.2171 0.9731
3.5342 -5.7593 -0.2157 0.9733
3.5343 -5.5268 -0.2094 0.9741
3.5344 -5.4523 -0.2074 0.9743
3.5345 -5.2370 -0.2017 0.9750
3.5346 -5.0999 -0.1981 0.9755
3.5346 -4.9676 -0.1946 0.9759
3.5152 -4.6902 -0.1871 0.9768
3.5348 -4.6561 -0.1866 0.9769
3.5348 -4.5969 -0.1851 0.9771
3.5349 -4.5386 -0.1837 0.9772
3.4036 -4.1539 -0.1714 0.9787
3.4300 -4.0820 -0.1702 0.9789
3.4300 -4.0311 -0.1690 0.9790
3.4301 -3.9810 -0.1678 0.9792
3.4301 -3.9316 -0.1666 0.9793
3.4302 -3.8349 -0.1643 0.9796
3.4301 -3.7875 -0.1631 0.9798
3.4303 -3.6043 -0.1589 0.9803
3.4303 -3.4730 -0.1558 0.9807
3.4304 -3.3882 -0.1539 0.9809
3.4304 -3.3466 -0.1530 0.9810
3.4304 -3.3054 -0.1521 0.9811
3.4304 -3.2648 -0.1512 0.9812
3.4305 -3.1849 -0.1494 0.9814
3.4306 -3.0684 -0.1469 0.9817
3.4306 -3.0305 -0.1461 0.9818
3.4306 -2.9558 -0.1446 0.9820
3.4306 -2.9190 -0.1438 0.9821
3.4307 -2.7409 -0.1402 0.9826
3.4308 -2.7063 -0.1395 0.9827
3.4308 -2.6721 -0.1388 0.9827
3.4308 -2.6381 -0.1382 0.9828
3.4308 -2.6046 -0.1375 0.9829
3.4309 -2.5383 -0.1363 0.9831
3.4309 -2.4733 -0.1350 0.9832
3.4309 -2.4094 -0.1338 0.9834
3.5400 -2.3259 -0.1352 0.9832
3.6373 -2.3260 -0.1378 0.9829
3.6874 -2.3260 -0.1392 0.9827
3.7906 -2.3261 -0.1420 0.9824
3.9534 -2.3262 -0.1464 0.9818
4.0100 -2.3262 -0.1480 0.9816
4.0678 -2.3262 -0.1496 0.9814
4.1268 -2.3262 -0.1512 0.9812
4.1872 -2.3263 -0.1529 0.9810
4.3439 -2.2746 -0.1565 0.9806
4.7872 -2.4317 -0.1714 0.9787
4.8615 -2.4318 -0.1735 0.9785
4.8917 -2.3717 -0.1736 0.9785
5.2626 -2.4320 -0.1851 0.9771
5.4384 -2.4321 -0.1902 0.9764
5.7212 -2.4322 -0.1985 0.9754
5.9864 -2.4148 -0.2061 0.9745
5.9865 -2.2867 -0.2046 0.9747
6.5770 -2.3275 -0.2227 0.9725
6.8454 -2.3276 -0.2308 0.9715
6.9871 -2.3277 -0.2351 0.9710
7.2869 -2.3279 -0.2442 0.9698
7.6109 -2.3280 -0.2541 0.9686
7.7830 -2.3281 -0.2594 0.9680
8.0965 -2.3132 -0.2688 0.9669
8.9358 -2.4339 -0.2957 0.9636
9.1592 -2.4340 -0.3026 0.9628
9.2636 -2.4005 -0.3055 0.9624
9.6389 -2.4342 -0.3174 0.9610
9.7613 -2.4010 -0.3209 0.9606
9.7613 -2.3371 -0.3204 0.9606
10.5941 -2.3296 -0.3463 0.9575
46.8402 -9.3924 -1.5252 0.8260
46.8405 -8.7913 -1.5215 0.8264
46.8162 -8.4874 -1.5190 0.8266
48.2884 -8.4461 -1.5650 0.8219
49.9361 -8.4164 -1.6167 0.8166
51.8984 -8.4174 -1.6785 0.8102
54.0170 -8.4185 -1.7453 0.8035
69.0711 -10.3276 -2.2296 0.7562
39.4765 -5.4043 -1.2721 0.8526
39.4485 -4.6567 -1.2682 0.8530
39.4487 -4.4095 -1.2673 0.8531
39.4552 -4.1634 -1.2666 0.8532
39.4556 -3.9168 -1.2658 0.8533
39.4518 -3.6702 -1.2650 0.8534
39.4406 -2.9323 -1.2626 0.8536
39.4407 -2.6871 -1.2621 0.8537
39.4403 -2.4422 -1.2616 0.8537
39.4321 -2.1970 -1.2608 0.8538
39.4312 -1.9524 -1.2604 0.8539
48.2918 -1.7927 -1.5428 0.8242
48.2922 -1.1948 -1.5422 0.8242
48.2923 -0.8960 -1.5420 0.8242
48.2925 -0.5973 -1.5419 0.8242
48.2928 0.0000 -1.5418 0.8243
48.2929 0.2987 -1.5418 0.8243
46.8455 0.8692 -1.4958 0.8290
48.2936 1.4938 -1.5425 0.8242
40.1970 1.4922 -1.2842 0.8513
40.2187 1.7422 -1.2852 0.8512
40.2342 1.9922 -1.2861 0.8511
40.2390 2.2420 -1.2866 0.8510
39.1202 2.4224 -1.2513 0.8548
40.2486 2.7422 -1.2879 0.8509
38.9081 3.3771 -1.2468 0.8553
48.2952 4.7944 -1.5494 0.8235
48.2954 5.0962 -1.5504 0.8234
48.3039 5.7020 -1.5528 0.8231
48.3040 6.0051 -1.5540 0.8230
48.2963 6.9163 -1.5576 0.8226
46.3594 7.2251 -1.4979 0.8288
48.2969 8.1402 -1.5636 0.8220
48.2971 8.4477 -1.5653 0.8218
11.2070 2.0317 -0.3636 0.9554
10.5338 1.9771 -0.3422 0.9580
9.6636 2.0000 -0.3151 0.9613
9.6637 2.0624 -0.3155 0.9612
8.0465 1.9265 -0.2641 0.9674
7.9987 1.9674 -0.2630 0.9676
7.8341 1.9784 -0.2580 0.9682
7.6353 1.9785 -0.2518 0.9689
7.2647 1.9787 -0.2404 0.9703
6.9264 1.9789 -0.2300 0.9716
6.7679 1.9790 -0.2251 0.9722
6.6160 1.9791 -0.2205 0.9727
5.8887 1.9618 -0.1982 0.9755
5.8887 2.0023 -0.1986 0.9754
5.8888 2.0839 -0.1994 0.9753
5.7768 2.0846 -0.1961 0.9757
5.3585 2.0848 -0.1836 0.9773
5.1686 2.0849 -0.1779 0.9779
5.0780 2.0850 -0.1753 0.9783
4.7411 2.0852 -0.1654 0.9795
4.6627 2.0852 -0.1631 0.9798
4.1497 1.9803 -0.1468 0.9818
4.0846 1.9804 -0.1449 0.9820
3.8988 1.9804 -0.1396 0.9827
3.7823 1.9805 -0.1363 0.9831
3.6712 1.9806 -0.1332 0.9834
3.6175 1.9806 -0.1317 0.9836
3.5137 1.9806 -0.1288 0.9840
3.3663 1.9807 -0.1247 0.9845
3.3332 1.9891 -0.1239 0.9846
3.3332 2.0454 -0.1249 0.9845
3.3333 2.0739 -0.1253 0.9844
3.3333 2.1027 -0.1258 0.9844
3.3333 2.1316 -0.1263 0.9843
3.3333 2.1902 -0.1273 0.9842
3.3333 2.2198 -0.1279 0.9841
3.3334 2.4345 -0.1318 0.9836
3.3335 2.4663 -0.1324 0.9835
3.3335 2.4983 -0.1330 0.9835
3.3335 2.5633 -0.1342 0.9833
3.3335 2.5963 -0.1349 0.9832
3.3335 2.6296 -0.1355 0.9832
3.3336 2.6972 -0.1369 0.9830
3.3336 2.8365 -0.1397 0.9826
3.3337 2.9818 -0.1428 0.9823
3.3337 3.0192 -0.1436 0.9822
3.3337 3.0569 -0.1444 0.9821
3.3338 3.2523 -0.1487 0.9815
3.3338 3.2928 -0.1496 0.9814
3.3339 3.3338 -0.1505 0.9813
3.3339 3.4174 -0.1524 0.9811
3.3340 3.5911 -0.1564 0.9806
3.3340 3.6359 -0.1575 0.9805
3.3340 3.6814 -0.1586 0.9803
3.3341 3.7275 -0.1597 0.9802
3.3341 3.7742 -0.1608 0.9800
3.3229 3.8087 -0.1614 0.9800
3.2823 3.8095 -0.1605 0.9801
3.4394 4.0931 -0.1707 0.9788
3.4394 4.1449 -0.1720 0.9787
3.4394 4.2509 -0.1746 0.9784
3.4395 4.3051 -0.1759 0.9782
3.4275 4.3450 -0.1767 0.9781
3.3904 4.3530 -0.1761 0.9782
3.4395 4.4729 -0.1801 0.9777
3.4396 4.5307 -0.1816 0.9775
3.4396 4.7097 -0.1862 0.9769
3.4397 4.8342 -0.1894 0.9765
3.4397 4.8981 -0.1911 0.9763
3.4397 4.9631 -0.1928 0.9761
3.4399 5.2353 -0.2000 0.9752
3.4399 5.3065 -0.2019 0.9750
3.3590 5.4738 -0.2050 0.9746
3.3350 5.7489 -0.2122 0.9738
3.3350 5.8317 -0.2145 0.9735
3.3350 5.9164 -0.2168 0.9732
3.3351 6.0030 -0.2192 0.9729
3.3351 6.0915 -0.2217 0.9726
3.3354 6.6679 -0.2380 0.9706
3.3354 6.7723 -0.2410 0.9702
3.3355 6.9893 -0.2472 0.9695
3.3356 7.1021 -0.2505 0.9691
3.3356 7.2179 -0.2539 0.9687
3.3357 7.3368 -0.2573 0.9683
3.3358 7.5846 -0.2645 0.9674
3.3358 7.7139 -0.2683 0.9669
3.3360 7.9838 -0.2762 0.9660
3.3362 8.5747 -0.2937 0.9638
3.3364 9.0697 -0.3085 0.9621
3.3266 9.2186 -0.3129 0.9615
3.2847 9.2819 -0.3143 0.9614
3.3928 9.7791 -0.3304 0.9594
3.4420 10.1228 -0.3413 0.9581
3.3931 10.3990 -0.3492 0.9572
3.2853 10.5076 -0.3515 0.9569
3.2854 10.7407 -0.3586 0.9560
3.3375 11.4138 -0.3796 0.9535
3.3377 11.9619 -0.3965 0.9515
3.3380 12.5610 -0.4149 0.9493
3.2685 13.2882 -0.4369 0.9467
3.2384 13.9050 -0.4558 0.9445
3.1847 14.9224 -0.4871 0.9408
3.0884 14.9224 -0.4865 0.9408
2.9923 14.9225 -0.4859 0.9409
2.8964 14.9226 -0.4853 0.9410
2.8008 14.9226 -0.4847 0.9410
2.7054 14.9227 -0.4842 0.9411
2.3257 14.9228 -0.4822 0.9413
2.2313 14.9229 -0.4817 0.9414
2.1371 14.9229 -0.4813 0.9415
1.9490 14.9230 -0.4805 0.9415
1.6681 14.9232 -0.4794 0.9417
1.5747 14.9232 -0.4791 0.9417
1.4815 14.9233 -0.4788 0.9417
1.3883 14.9233 -0.4785 0.9418
1.2953 14.9234 -0.4782 0.9418
1.2024 14.9234 -0.4780 0.9418
1.0168 14.9235 -0.4775 0.9419
0.9241 14.9236 -0.4774 0.9419
0.7389 14.9237 -0.4770 0.9420
0.6465 14.9237 -0.4769 0.9420
0.5540 14.9237 -0.4768 0.9420
0.4616 14.9238 -0.4767 0.9420
0.3693 14.9238 -0.4766 0.9420
0.2769 14.9239 -0.4765 0.9420
0.1846 14.9239 -0.4765 0.9420
-0.2769 14.9242 -0.4765 0.9420
-0.3692 14.9242 -0.4766 0.9420
-0.4616 14.9243 -0.4767 0.9420
-0.6465 14.9244 -0.4769 0.9420
-0.7390 14.9244 -0.4771 0.9420
-0.8315 14.9245 -0.4772 0.9419
-0.9241 14.9245 -0.4774 0.9419
-1.0168 14.9246 -0.4776 0.9419
-1.2954 14.9247 -0.4783 0.9418
-1.4816 14.9248 -0.4788 0.9417
-1.8554 14.9250 -0.4802 0.9416
-2.1373 14.9251 -0.4814 0.9414
-2.2316 14.9252 -0.4818 0.9414
-2.3261 14.9252 -0.4822 0.9413
-2.4207 14.9253 -0.4827 0.9413
-2.6106 14.9254 -0.4837 0.9412
-2.7240 15.0256 -0.4875 0.9407
-2.8201 15.0257 -0.4881 0.9407
-3.0130 15.0258 -0.4893 0.9405
-3.1097 15.0258 -0.4899 0.9404
-3.3041 15.0259 -0.4912 0.9403
-3.4017 15.0260 -0.4918 0.9402
-3.7947 15.0262 -0.4948 0.9399
-3.8839 14.9883 -0.4943 0.9399
-3.9830 14.9884 -0.4951 0.9398
-4.0824 14.9884 -0.4959 0.9397
-4.1822 14.9885 -0.4968 0.9396
-4.2823 14.9885 -0.4977 0.9395
-4.3827 14.9886 -0.4986 0.9394
-4.5847 14.9887 -0.5004 0.9392
-4.6863 14.9887 -0.5014 0.9391
-4.8907 14.9888 -0.5034 0.9389
-5.0966 14.9889 -0.5054 0.9386
-5.3044 14.9890 -0.5076 0.9384
-5.4090 14.9891 -0.5087 0.9382
-5.5140 14.9891 -0.5099 0.9381
-5.8320 14.9893 -0.5135 0.9377
-6.0465 14.9894 -0.5160 0.9374
-6.2632 14.9895 -0.5186 0.9371
-6.3724 14.9896 -0.5200 0.9369
-6.5925 14.9897 -0.5228 0.9366
-6.7035 14.9897 -0.5242 0.9364
-6.8150 14.9898 -0.5257 0.9362
-7.0401 14.9899 -0.5287 0.9359
-7.2678 14.9900 -0.5318 0.9355
-7.4982 14.9901 -0.5351 0.9351
-7.6145 14.9902 -0.5368 0.9349
-7.7316 14.9903 -0.5385 0.9347
-7.8494 14.9903 -0.5402 0.9345
-7.9679 14.9904 -0.5420 0.9343
-8.0872 14.9904 -0.5438 0.9341
-8.2073 14.9905 -0.5456 0.9339
-8.3282 14.9905 -0.5475 0.9337
-8.4500 14.9906 -0.5494 0.9335
-8.5727 14.9907 -0.5513 0.9332
-8.6962 14.9907 -0.5533 0.9330
-8.8205 14.9908 -0.5553 0.9328
-9.1993 14.9910 -0.5615 0.9320
-9.3274 14.9910 -0.5637 0.9318
-9.4565 14.9911 -0.5659 0.9315
-9.7179 14.9913 -0.5704 0.9310
-9.8501 14.9913 -0.5727 0.9307
-9.9834 14.9914 -0.5750 0.9305
-10.2534 14.9915 -0.5798 0.9299
-10.3901 14.9916 -0.5823 0.9296
-10.6671 14.9917 -0.5874 0.9290
-10.8074 14.9918 -0.5900 0.9287
-10.9490 14.9919 -0.5927 0.9284
-11.2360 14.9920 -0.5981 0.9278
-11.3816 14.9921 -0.6009 0.9274
-11.6767 14.9923 -0.6067 0.9268
-11.8265 14.9923 -0.6096 0.9264
-12.2847 14.9926 -0.6188 0.9254
-12.4405 14.9927 -0.6220 0.9250
-12.5979 14.9927 -0.6252 0.9246
-12.7570 14.9928 -0.6285 0.9242
-12.9178 14.9929 -0.6318 0.9239
-13.5785 14.9932 -0.6458 0.9222
-13.9200 14.9934 -0.6532 0.9214
-14.0938 14.9935 -0.6569 0.9209
-14.1276 14.8444 -0.6542 0.9213
-14.1277 14.6619 -0.6500 0.9217
-14.1278 14.4817 -0.6459 0.9222
-14.1282 13.4460 -0.6227 0.9249
-14.1283 13.2806 -0.6190 0.9253
-14.1284 13.1170 -0.6155 0.9257
-14.1285 12.9553 -0.6120 0.9262
-14.1285 12.7954 -0.6085 0.9266
-14.1286 12.6374 -0.6052 0.9269
-14.3525 12.3660 -0.6048 0.9270
-14.1289 12.0220 -0.5923 0.9284
-14.1290 11.8722 -0.5892 0.9288
-14.1291 11.5772 -0.5832 0.9295
-14.1294 10.8651 -0.5690 0.9312
-14.1296 10.5897 -0.5637 0.9318
-14.1297 10.3193 -0.5586 0.9324
-14.1297 10.1860 -0.5561 0.9327
-14.1298 10.0538 -0.5536 0.9330
-14.1299 9.9228 -0.5512 0.9332
-14.1299 9.7930 -0.5489 0.9335
-14.1300 9.6642 -0.5465 0.9338
-14.1302 9.2843 -0.5398 0.9346
-14.1306 8.4325 -0.5253 0.9363
-14.1306 8.3144 -0.5234 0.9365
-14.1307 8.1973 -0.5215 0.9367
-14.1308 8.0809 -0.5197 0.9369
-14.1309 7.8507 -0.5161 0.9374
-14.1309 7.7367 -0.5143 0.9376
-14.1310 7.6235 -0.5126 0.9378
-14.1310 7.5111 -0.5109 0.9380
-14.1311 7.3994 -0.5092 0.9382
-14.1312 7.1782 -0.5060 0.9385
-14.1312 7.0686 -0.5044 0.9387
-14.1313 6.8515 -0.5014 0.9391
-14.1314 6.7439 -0.4999 0.9393
-14.1316 6.2152 -0.4929 0.9401
-14.1317 6.1112 -0.4915 0.9402
-14.1318 6.0077 -0.4902 0.9404
-14.1318 5.9049 -0.4890 0.9405
-14.1318 5.8025 -0.4877 0.9407
-14.1319 5.5993 -0.4853 0.9410
-14.1320 5.3981 -0.4830 0.9413
-14.1324 4.6113 -0.4746 0.9422
-14.1325 4.5148 -0.4736 0.9424
-14.1326 4.2275 -0.4709 0.9427
-14.1327 4.1325 -0.4701 0.9428
-14.1327 4.0378 -0.4692 0.9429
-14.1328 3.8494 -0.4676 0.9431
-14.1329 3.6623 -0.4661 0.9432
-14.1330 3.4763 -0.4647 0.9434
-14.1330 3.3838 -0.4640 0.9435
-14.1331 3.2916 -0.4633 0.9436
-14.1331 3.1996 -0.4626 0.9437
-14.1332 3.1078 -0.4620 0.9437
-14.1333 2.9251 -0.4608 0.9439
-14.0332 2.6338 -0.4558 0.9445
-14.0333 2.5441 -0.4553 0.9445
-14.0333 2.4546 -0.4548 0.9446
-14.0334 2.1871 -0.4534 0.9447
-14.0335 2.0983 -0.4530 0.9448
-14.0336 1.9212 -0.4522 0.9449
-14.0336 1.7447 -0.4515 0.9450
-14.0337 1.6566 -0.4511 0.9450
-14.0337 1.5687 -0.4508 0.9451
-14.0338 1.4809 -0.4505 0.9451
-14.0338 1.3932 -0.4502 0.9451
-15.5325 1.3482 -0.4977 0.9395
-18.1516 1.3495 -0.5811 0.9297
-63.4804 3.9308 -2.0305 0.7753
-63.1810 3.5201 -2.0202 0.7763
-62.1356 1.1529 -1.9840 0.7798
-14.1351 -0.1748 -0.5564 0.9450
-14.1351 -0.2623 -0.5564 0.9450
-14.1352 -0.3497 -0.5565 0.9450
-14.1352 -0.4372 -0.5566 0.9450
-14.1352 -0.5247 -0.5567 0.9449
-14.1354 -0.7876 -0.5572 0.9449
-14.1355 -1.0509 -0.5579 0.9448
-14.1356 -1.1389 -0.5582 0.9448
-14.1356 -1.3150 -0.5588 0.9448
-14.1357 -1.4033 -0.5591 0.9447
-14.1358 -1.5801 -0.5598 0.9447
-14.1359 -1.7574 -0.5607 0.9446
-14.1360 -1.9352 -0.5616 0.9445
-14.1360 -2.0243 -0.5621 0.9444
-14.1361 -2.1136 -0.5626 0.9444
-14.1362 -2.2927 -0.5637 0.9443
-14.1362 -2.4726 -0.5648 0.9442
-14.1364 -2.6532 -0.5661 0.9440
-14.1365 -2.8346 -0.5675 0.9439
-14.1367 -3.2924 -0.5713 0.9436
-14.1368 -3.4773 -0.5730 0.9434
-14.1369 -3.6633 -0.5748 0.9432
-14.1370 -3.7568 -0.5757 0.9431
-14.1371 -3.9446 -0.5777 0.9429
-14.1371 -4.0390 -0.5787 0.9428
-14.1371 -4.1338 -0.5797 0.9427
-14.1372 -4.2289 -0.5808 0.9426
-14.1374 -4.6129 -0.5853 0.9422
-14.1375 -4.8072 -0.5877 0.9420
-14.1376 -5.0031 -0.5903 0.9417
-14.1377 -5.1017 -0.5916 0.9416
-14.1378 -5.3003 -0.5943 0.9413
-14.1378 -5.4003 -0.5957 0.9412
-14.1379 -5.5007 -0.5971 0.9411
-14.1380 -5.7031 -0.6000 0.9408
-14.1380 -5.8050 -0.6015 0.9407
-14.1382 -6.0104 -0.6047 0.9404
-14.1382 -6.1140 -0.6063 0.9402
-14.1383 -6.3228 -0.6096 0.9399
-14.1385 -6.5338 -0.6130 0.9396
-14.1385 -6.6403 -0.6148 0.9394
-14.1386 -6.8550 -0.6184 0.9390
-14.1387 -6.9634 -0.6203 0.9389
-14.1387 -7.0724 -0.6222 0.9387
-14.1388 -7.1821 -0.6242 0.9385
-14.1389 -7.2924 -0.6262 0.9383
-14.1389 -7.4035 -0.6282 0.9381
-14.1390 -7.5153 -0.6302 0.9379
-14.1391 -7.7412 -0.6345 0.9375
-14.1392 -7.9701 -0.6388 0.9371
-14.1393 -8.0858 -0.6411 0.9369
-14.1394 -8.3196 -0.6457 0.9364
-14.1395 -8.4378 -0.6481 0.9362
-14.1396 -8.5569 -0.6505 0.9360
-14.1396 -8.6768 -0.6530 0.9357
-14.1397 -8.7977 -0.6555 0.9355
-14.1398 -9.0423 -0.6606 0.9350
-14.1401 -9.4165 -0.6687 0.9343
-14.1403 -9.8001 -0.6772 0.9334
-14.1403 -9.9302 -0.6801 0.9332
-14.1404 -10.0614 -0.6831 0.9329
-14.1405 -10.1937 -0.6861 0.9326
-14.1406 -10.3273 -0.6892 0.9323
-14.1407 -10.4620 -0.6923 0.9320
-14.1408 -10.7353 -0.6988 0.9314
-15.5849 -12.2940 -0.7813 0.9236
-14.6315 -12.2945 -0.7522 0.9263
-14.2696 -12.2947 -0.7414 0.9274
-14.1417 -12.3377 -0.7387 0.9276
-14.1419 -12.6492 -0.7468 0.9269
-14.1420 -12.8076 -0.7510 0.9265
-14.1422 -13.1298 -0.7595 0.9257
-14.1423 -13.2937 -0.7639 0.9252
-14.1424 -13.4594 -0.7684 0.9248
-14.1425 -13.6272 -0.7730 0.9244
-14.1425 -13.7970 -0.7777 0.9240
-14.1427 -14.1428 -0.7872 0.9231
-14.1429 -14.4972 -0.7972 0.9221
-14.1433 -15.0461 -0.8128 0.9207
-14.1436 -15.6172 -0.8293 0.9191
-14.1437 -15.8128 -0.8350 0.9186
-14.1439 -16.2122 -0.8468 0.9175
-14.1442 -16.6231 -0.8591 0.9163
-14.1443 -16.8330 -0.8654 0.9157
-14.1445 -17.2624 -0.8784 0.9145
-14.1448 -17.7050 -0.8919 0.9133
-14.1451 -18.1614 -0.9061 0.9120
-14.1452 -18.3951 -0.9133 0.9113
-14.1456 -19.1195 -0.9361 0.9092
-12.5530 -17.4132 -0.8449 0.9177
-12.3901 -17.4133 -0.8412 0.9180
-11.4418 -17.4138 -0.8201 0.9200
-11.2883 -17.4139 -0.8168 0.9203
-11.1360 -17.4139 -0.8136 0.9206
-10.9849 -17.4140 -0.8104 0.9209
-10.6862 -17.4142 -0.8042 0.9215
-10.5386 -17.4143 -0.8011 0.9217
-10.2466 -17.4144 -0.7953 0.9223
-10.1021 -17.4145 -0.7924 0.9226
-9.8164 -17.4146 -0.7868 0.9231
-9.5346 -17.4148 -0.7814 0.9236
-9.1190 -17.4150 -0.7737 0.9243
-8.3111 -17.4154 -0.7595 0.9257
-8.0482 -17.4155 -0.7551 0.9261
-7.4039 -17.4159 -0.7448 0.9270
-7.2771 -17.4159 -0.7429 0.9272
-7.1509 -17.4160 -0.7410 0.9274
-7.0254 -17.4161 -0.7392 0.9276
-6.6525 -17.4163 -0.7338 0.9281
-6.4069 -17.4164 -0.7304 0.9284
-6.1635 -17.4165 -0.7272 0.9287
-6.0425 -17.4166 -0.7256 0.9289
-5.9221 -17.4166 -0.7241 0.9290
-5.8023 -17.4167 -0.7226 0.9291
-5.4455 -17.4169 -0.7182 0.9296
-5.3275 -17.4169 -0.7169 0.9297
-5.2099 -17.4170 -0.7155 0.9298
-5.0928 -17.4171 -0.7142 0.9299
-4.7440 -17.4172 -0.7105 0.9303
-4.6285 -17.4173 -0.7093 0.9304
-4.5134 -17.4173 -0.7082 0.9305
-4.3986 -17.4174 -0.7071 0.9306
-4.1702 -17.4175 -0.7049 0.9308
-4.0565 -17.4176 -0.7039 0.9309
-3.8300 -17.4177 -0.7019 0.9311
-3.4926 -17.4178 -0.6992 0.9314
-3.2691 -17.4180 -0.6975 0.9315
-3.1577 -17.4180 -0.6967 0.9316
-2.9357 -17.4181 -0.6952 0.9317
-2.8250 -17.4182 -0.6945 0.9318
-2.6044 -17.4183 -0.6932 0.9319
-2.4944 -17.4184 -0.6926 0.9320
-2.3846 -17.4184 -0.6920 0.9320
-2.2749 -17.4185 -0.6914 0.9321
-2.1654 -17.4185 -0.6909 0.9321
-2.0561 -17.4186 -0.6903 0.9322
-1.9470 -17.4186 -0.6899 0.9322
-1.6205 -17.4188 -0.6886 0.9324
-1.2950 -17.4190 -0.6875 0.9325
-1.1868 -17.4190 -0.6872 0.9325
-1.0786 -17.4191 -0.6869 0.9325
-0.9705 -17.4191 -0.6867 0.9325
-0.6466 -17.4193 -0.6861 0.9326
-0.5388 -17.4194 -0.6859 0.9326
-0.3232 -17.4195 -0.6857 0.9326
-0.2154 -17.4195 -0.6857 0.9326
0.0000 -17.4196 -0.6856 0.9326
0.2155 -17.4198 -0.6857 0.9326
0.4310 -17.4198 -0.6858 0.9326
0.5388 -17.4199 -0.6860 0.9326
0.7546 -17.4200 -0.6863 0.9326
0.9706 -17.4201 -0.6867 0.9325
1.5121 -17.4204 -0.6882 0.9324
1.7294 -17.4205 -0.6890 0.9323
1.8383 -17.4206 -0.6895 0.9323
2.1657 -17.4208 -0.6909 0.9321
2.2752 -17.4208 -0.6915 0.9321
2.3849 -17.4209 -0.6921 0.9320
2.7151 -17.4211 -0.6940 0.9319
2.9362 -17.4212 -0.6954 0.9317
3.0472 -17.4212 -0.6961 0.9317
3.1583 -17.4213 -0.6969 0.9316
3.4222 -17.0666 -0.6851 0.9327
3.4225 -16.5370 -0.6647 0.9346
3.4229 -16.0381 -0.6455 0.9365
3.4231 -15.5671 -0.6274 0.9382
3.4234 -15.1219 -0.6102 0.9398
3.4236 -14.7002 -0.5941 0.9414
3.4239 -14.3004 -0.5788 0.9428
3.4243 -13.5593 -0.5504 0.9456
3.4245 -13.2153 -0.5373 0.9468
3.4247 -12.8874 -0.5248 0.9480
3.3259 -10.6374 -0.4387 0.9564
3.3623 -10.5249 -0.4349 0.9567
3.3746 -10.1294 -0.4202 0.9582
3.3747 -9.9246 -0.4126 0.9589
3.4271 -8.9719 -0.3780 0.9623
3.4278 -7.7937 -0.3351 0.9665
3.4278 -7.6649 -0.3305 0.9669
3.4280 -7.2989 -0.3174 0.9682
3.4281 -7.1833 -0.3133 0.9686
3.4284 -6.6471 -0.2944 0.9705
3.4285 -6.5475 -0.2909 0.9708
3.4286 -6.4502 -0.2875 0.9712
3.4286 -6.3552 -0.2842 0.9715
3.4287 -6.2623 -0.2810 0.9718
3.4287 -6.1715 -0.2779 0.9721
3.4288 -6.0827 -0.2748 0.9724
3.3771 -5.9053 -0.2677 0.9731
3.5215 -5.8190 -0.2677 0.9731
3.5341 -5.7590 -0.2659 0.9733
3.5342 -5.5266 -0.2582 0.9741
3.5344 -5.2368 -0.2487 0.9750
3.5344 -5.1677 -0.2464 0.9752
3.5344 -5.0998 -0.2442 0.9755
3.5345 -5.0330 -0.2421 0.9757
3.5345 -4.9675 -0.2400 0.9759
3.5346 -4.9031 -0.2379 0.9761
3.5346 -4.8397 -0.2359 0.9763
3.4856 -4.7112 -0.2307 0.9768
3.5152 -4.6902 -0.2307 0.9768
3.5347 -4.6560 -0.2301 0.9769
3.5348 -4.5384 -0.2264 0.9772
3.3780 -4.2282 -0.2130 0.9786
3.3781 -4.1751 -0.2114 0.9787
3.4299 -4.0819 -0.2098 0.9789
3.4299 -4.0310 -0.2083 0.9790
3.4300 -3.9809 -0.2068 0.9792
3.4300 -3.8828 -0.2039 0.9795
3.4301 -3.7874 -0.2011 0.9798
3.4301 -3.7407 -0.1998 0.9799
3.4301 -3.6946 -0.1984 0.9800
3.4302 -3.6042 -0.1958 0.9803
3.4302 -3.5161 -0.1933 0.9805
3.4303 -3.4729 -0.1921 0.9806
3.4303 -3.3881 -0.1898 0.9809
3.4303 -3.3465 -0.1886 0.9810
3.4304 -3.2647 -0.1864 0.9812
3.4304 -3.2246 -0.1853 0.9813
3.4304 -3.1456 -0.1832 0.9815
3.4305 -3.0684 -0.1812 0.9817
3.4305 -3.0304 -0.1802 0.9818
3.4305 -2.9929 -0.1792 0.9819
3.4306 -2.9190 -0.1773 0.9821
3.4306 -2.7757 -0.1737 0.9825
3.4308 -2.5712 -0.1687 0.9830
3.4308 -2.4412 -0.1657 0.9833
3.4309 -2.3778 -0.1643 0.9834
3.4309 -2.3465 -0.1636 0.9835
3.5400 -2.3259 -0.1667 0.9832
3.5882 -2.3259 -0.1683 0.9830
3.7385 -2.3260 -0.1733 0.9825
3.7906 -2.3261 -0.1750 0.9824
3.8980 -2.3261 -0.1787 0.9820
3.9534 -2.3262 -0.1805 0.9818
4.0678 -2.3262 -0.1844 0.9814
4.1268 -2.3262 -0.1865 0.9812
4.1872 -2.3263 -0.1885 0.9810
4.2490 -2.3263 -0.1907 0.9808
4.7147 -2.4317 -0.2088 0.9790
4.7872 -2.4317 -0.2113 0.9787
4.8615 -2.4318 -0.2139 0.9785
4.8577 -2.3924 -0.2131 0.9786
4.8917 -2.3717 -0.2140 0.9785
5.1781 -2.4319 -0.2252 0.9774
5.4886 -2.3735 -0.2354 0.9763
5.8211 -2.4323 -0.2483 0.9751
5.9239 -2.4323 -0.2521 0.9747
5.9864 -2.2866 -0.2522 0.9747
6.0694 -2.2754 -0.2551 0.9744
6.4497 -2.3274 -0.2699 0.9729
6.5770 -2.3275 -0.2746 0.9725
6.7088 -2.3276 -0.2795 0.9720
6.8455 -2.3276 -0.2846 0.9715
6.9871 -2.3277 -0.2899 0.9709
7.1342 -2.3278 -0.2954 0.9704
7.2869 -2.3279 -0.3011 0.9698
7.7830 -2.3281 -0.3197 0.9680
7.9623 -2.3282 -0.3265 0.9673
8.0963 -2.3131 -0.3314 0.9669
8.8301 -2.4051 -0.3602 0.9640
8.8458 -2.3507 -0.3603 0.9640
8.8612 -2.2962 -0.3603 0.9640
9.0162 -2.2770 -0.3660 0.9635
9.5112 -2.2772 -0.3849 0.9616
10.2896 -2.3294 -0.4152 0.9586
10.5941 -2.3296 -0.4269 0.9575
11.2782 -2.3341 -0.4533 0.9549
46.8000 -9.3844 -1.8787 0.8261
46.8002 -9.0837 -1.8764 0.8263
46.8003 -8.7837 -1.8742 0.8264
48.1106 -8.4151 -1.9224 0.8224
63.6808 -9.5216 -2.5343 0.7728
39.4598 -5.6508 -1.5690 0.8525
39.4533 -5.4011 -1.5673 0.8526
39.4389 -4.6555 -1.5631 0.8530
39.4369 -4.4082 -1.5619 0.8531
39.4143 -3.1755 -1.5564 0.8536
39.4105 -2.9301 -1.5555 0.8537
39.4016 -1.9509 -1.5527 0.8539
39.4442 -1.7086 -1.5540 0.8538
46.8040 -1.7375 -1.8434 0.8290
46.8041 -1.4477 -1.8431 0.8291
46.8045 -0.8684 -1.8425 0.8291
46.8046 -0.5789 -1.8423 0.8291
46.8048 -0.2894 -1.8422 0.8291
46.8049 0.0000 -1.8422 0.8291
38.9988 0.7236 -1.5352 0.8554
38.8880 1.2028 -1.5313 0.8558
38.8965 1.4439 -1.5320 0.8557
38.8922 1.6847 -1.5322 0.8557
38.8774 1.9250 -1.5321 0.8557
38.8651 2.1654 -1.5321 0.8557
38.8373 3.3709 -1.5344 0.8555
46.6447 4.6305 -1.8449 0.8289
46.6450 5.5062 -1.8487 0.8286
46.6451 5.7989 -1.8501 0.8285
46.6454 6.3857 -1.8531 0.8282
46.6456 6.9745 -1.8563 0.8279
46.8087 7.5919 -1.8664 0.8271
46.8089 7.8894 -1.8684 0.8269
46.8090 8.1874 -1.8703 0.8268
11.2068 2.0317 -0.4483 0.9554
10.1869 1.9772 -0.4084 0.9593
8.9553 1.9692 -0.3609 0.9640
8.9423 2.0244 -0.3609 0.9640
8.9290 2.0795 -0.3608 0.9640
7.8341 1.9784 -0.3180 0.9682
7.6352 1.9785 -0.3104 0.9689
7.4457 1.9786 -0.3032 0.9696
7.2647 1.9787 -0.2964 0.9703
7.0918 1.9788 -0.2898 0.9710
6.7679 1.9790 -0.2775 0.9722
6.4703 1.9791 -0.2663 0.9733
6.1957 1.9793 -0.2560 0.9743
5.9077 1.9276 -0.2446 0.9754
5.8886 1.9617 -0.2443 0.9755
5.8886 2.0023 -0.2448 0.9754
5.8887 2.0839 -0.2459 0.9753
5.7768 2.0846 -0.2417 0.9757
5.6670 2.0847 -0.2377 0.9761
5.3909 2.0592 -0.2271 0.9772
5.3585 2.0848 -0.2263 0.9772
5.2621 2.0849 -0.2228 0.9776
4.9900 2.0850 -0.2129 0.9786
4.7411 2.0852 -0.2039 0.9795
4.2417 1.9285 -0.1834 0.9815
4.2237 1.9519 -0.1831 0.9815
4.2165 1.9803 -0.1833 0.9815
4.1496 1.9803 -0.1810 0.9818
4.0211 1.9804 -0.1764 0.9822
3.7823 1.9805 -0.1680 0.9831
3.7261 1.9805 -0.1661 0.9832
3.6712 1.9806 -0.1642 0.9834
3.6175 1.9806 -0.1623 0.9836
3.5651 1.9806 -0.1605 0.9838
3.4636 1.9807 -0.1570 0.9842
3.3663 1.9807 -0.1537 0.9845
3.3332 1.9891 -0.1528 0.9846
3.3332 2.0739 -0.1545 0.9844
3.3332 2.1316 -0.1557 0.9843
3.3333 2.1901 -0.1570 0.9842
3.3333 2.2198 -0.1576 0.9841
3.3333 2.2798 -0.1589 0.9840
3.3333 2.3408 -0.1603 0.9838
3.3333 2.3718 -0.1610 0.9838
3.3334 2.4030 -0.1617 0.9837
3.3334 2.4662 -0.1632 0.9835
3.3335 2.6296 -0.1671 0.9831
3.3335 2.6632 -0.1679 0.9831
3.3335 2.6971 -0.1688 0.9830
3.3335 2.7314 -0.1696 0.9829
3.3335 2.7661 -0.1705 0.9828
3.3336 2.8011 -0.1714 0.9827
3.3336 2.8364 -0.1723 0.9826
3.3336 2.9083 -0.1741 0.9824
3.3336 2.9448 -0.1751 0.9824
3.3336 2.9817 -0.1760 0.9823
3.3337 3.0568 -0.1780 0.9821
3.3337 3.1727 -0.1811 0.9817
3.3338 3.2523 -0.1833 0.9815
3.3338 3.4173 -0.1879 0.9811
3.3338 3.4599 -0.1891 0.9810
3.3339 3.5467 -0.1916 0.9807
3.3339 3.5910 -0.1929 0.9806
3.3339 3.6358 -0.1942 0.9804
3.3340 3.7741 -0.1982 0.9800
3.2822 3.8094 -0.1979 0.9801
3.2822 3.8574 -0.1993 0.9799
3.4393 4.1448 -0.2120 0.9787
3.4393 4.1974 -0.2136 0.9785
3.4393 4.2508 -0.2152 0.9783
3.3903 4.3529 -0.2172 0.9782
3.4395 4.5305 -0.2239 0.9775
3.4395 4.5892 -0.2257 0.9773
3.4396 4.7096 -0.2295 0.9769
3.4396 4.7713 -0.2315 0.9767
3.4396 4.8340 -0.2335 0.9765
3.4396 4.8979 -0.2356 0.9763
3.4033 4.9759 -0.2373 0.9762
3.4397 5.1652 -0.2443 0.9755
3.4398 5.2351 -0.2465 0.9752
3.4398 5.3790 -0.2513 0.9748
3.4399 5.4531 -0.2538 0.9745
3.4058 5.4738 -0.2537 0.9745
3.3590 5.4738 -0.2528 0.9746
3.3126 5.4738 -0.2518 0.9747
3.2829 5.5013 -0.2522 0.9747
3.3349 5.8316 -0.2644 0.9735
3.3349 6.0028 -0.2703 0.9729
3.3350 6.0913 -0.2733 0.9726
3.3350 6.1818 -0.2765 0.9723
3.3351 6.2744 -0.2797 0.9720
3.3351 6.3692 -0.2830 0.9716
3.3352 6.4663 -0.2864 0.9713
3.3352 6.5657 -0.2899 0.9710
3.3353 6.7721 -0.2971 0.9702
3.3353 6.8792 -0.3009 0.9699
3.3354 6.9890 -0.3048 0.9695
3.3354 7.1018 -0.3088 0.9691
3.3356 7.4587 -0.3216 0.9678
3.3357 7.5843 -0.3261 0.9674
3.3358 7.8465 -0.3356 0.9664
3.3360 8.2698 -0.3510 0.9649
3.3361 8.5743 -0.3621 0.9638
3.3361 8.7339 -0.3680 0.9633
3.3362 8.8988 -0.3741 0.9627
3.2846 9.2814 -0.3875 0.9614
3.2369 10.8208 -0.4445 0.9558
3.2371 11.3301 -0.4638 0.9539
3.2372 11.6017 -0.4741 0.9529
3.2373 11.8855 -0.4848 0.9519
3.2374 12.1826 -0.4961 0.9508
3.3382 13.5715 -0.5501 0.9456
3.1091 15.0226 -0.6038 0.9404
2.8196 15.0228 -0.6016 0.9406
2.5320 15.0229 -0.5996 0.9408
2.4366 15.0230 -0.5990 0.9409
2.1514 15.0231 -0.5973 0.9411
2.0567 15.0232 -0.5968 0.9411
1.9621 15.0232 -0.5963 0.9412
1.8677 15.0233 -0.5959 0.9412
1.7734 15.0233 -0.5954 0.9412
1.6793 15.0234 -0.5950 0.9413
1.5853 15.0234 -0.5946 0.9413
1.4914 15.0235 -0.5942 0.9414
1.3040 15.0236 -0.5935 0.9414
1.0236 15.0237 -0.5927 0.9415
0.9303 15.0237 -0.5925 0.9415
0.8371 15.0238 -0.5922 0.9415
0.4647 15.0240 -0.5916 0.9416
0.3717 15.0240 -0.5915 0.9416
0.0929 15.0242 -0.5914 0.9416
0.0000 15.0242 -0.5913 0.9416
-0.0929 15.0243 -0.5914 0.9416
-0.1858 15.0243 -0.5914 0.9416
-0.4647 15.0245 -0.5916 0.9416
-0.6508 15.0246 -0.5919 0.9416
-0.8371 15.0246 -0.5923 0.9415
-1.0237 15.0247 -0.5927 0.9415
-1.1171 15.0248 -0.5930 0.9415
-1.3041 15.0249 -0.5936 0.9414
-1.6795 15.0251 -0.5951 0.9413
-1.7736 15.0251 -0.5955 0.9412
-1.9623 15.0252 -0.5964 0.9411
-2.1517 15.0253 -0.5974 0.9410
-2.3417 15.0254 -0.5985 0.9409
-2.4370 15.0254 -0.5991 0.9409
-2.7240 15.0256 -0.6010 0.9407
-2.8201 15.0256 -0.6017 0.9406
-2.9164 15.0257 -0.6024 0.9406
-3.0130 15.0258 -0.6032 0.9405
-3.1098 15.0258 -0.6039 0.9404
-3.3041 15.0259 -0.6055 0.9403
-3.4017 15.0260 -0.6064 0.9402
-3.6960 15.0261 -0.6090 0.9399
-3.8839 14.9883 -0.6094 0.9399
-4.0824 14.9884 -0.6114 0.9397
-4.1822 14.9884 -0.6125 0.9396
-4.2823 14.9885 -0.6135 0.9395
-4.6863 14.9887 -0.6181 0.9391
-4.8907 14.9888 -0.6206 0.9388
-5.0967 14.9889 -0.6231 0.9386
-5.3044 14.9890 -0.6258 0.9383
-5.6195 14.9891 -0.6301 0.9379
-5.7255 14.9892 -0.6315 0.9378
-5.8320 14.9893 -0.6330 0.9376
-5.9390 14.9893 -0.6346 0.9375
-6.0465 14.9894 -0.6362 0.9373
-6.3724 14.9896 -0.6411 0.9369
-6.5925 14.9897 -0.6445 0.9366
-6.9272 14.9898 -0.6499 0.9360
-7.1536 14.9899 -0.6537 0.9357
-7.2678 14.9900 -0.6557 0.9355
-7.8493 14.9903 -0.6660 0.9345
-7.9678 14.9904 -0.6682 0.9343
-8.0872 14.9904 -0.6704 0.9341
-8.9458 14.9908 -0.6871 0.9325
-9.0721 14.9909 -0.6897 0.9323
-9.3274 14.9910 -0.6949 0.9318
-9.4565 14.9911 -0.6976 0.9315
-9.8501 14.9913 -0.7060 0.9307
-9.9834 14.9914 -0.7089 0.9304
-10.1179 14.9915 -0.7119 0.9302
-10.2534 14.9915 -0.7149 0.9299
-10.3901 14.9916 -0.7179 0.9296
-10.5280 14.9917 -0.7210 0.9293
-10.8074 14.9918 -0.7274 0.9287
-11.2360 14.9920 -0.7374 0.9277
-11.8265 14.9923 -0.7516 0.9264
-12.1304 14.9925 -0.7591 0.9257
-12.2847 14.9925 -0.7629 0.9253
-12.4405 14.9926 -0.7668 0.9250
-12.9178 14.9929 -0.7789 0.9238
-13.2445 14.9931 -0.7874 0.9230
-13.4106 14.9931 -0.7917 0.9226
-14.0938 14.9935 -0.8099 0.9209
-14.1279 14.8448 -0.8066 0.9212
-14.1280 14.6622 -0.8014 0.9217
-14.1281 14.4820 -0.7963 0.9222
-14.1282 14.3040 -0.7913 0.9227
-14.1283 13.9547 -0.7816 0.9236
-14.1286 13.2808 -0.7632 0.9253
-14.1287 13.1173 -0.7588 0.9257
-14.1288 12.9556 -0.7545 0.9261
-14.1288 12.7957 -0.7503 0.9265
-14.1741 12.3659 -0.7404 0.9275
-14.1293 11.8724 -0.7264 0.9288
-14.1293 11.7242 -0.7226 0.9291
-14.1295 11.4322 -0.7154 0.9298
-14.1296 11.1460 -0.7083 0.9305
-14.1297 11.0050 -0.7049 0.9308
-14.1297 10.8653 -0.7016 0.9311
-14.1299 10.5899 -0.6950 0.9318
-14.1299 10.4541 -0.6918 0.9321
-14.1300 10.3196 -0.6887 0.9324
-14.1300 10.1862 -0.6856 0.9326
-14.1302 9.7932 -0.6767 0.9335
-14.1303 9.6644 -0.6738 0.9338
-14.1303 9.5367 -0.6710 0.9340
-14.1304 9.4101 -0.6682 0.9343
-14.1304 9.2845 -0.6655 0.9346
-14.1305 9.1599 -0.6628 0.9348
-14.1306 9.0364 -0.6602 0.9351
-14.1307 8.7921 -0.6550 0.9355
-14.1308 8.5516 -0.6501 0.9360
-14.1308 8.4326 -0.6477 0.9362
-14.1310 8.1974 -0.6430 0.9367
-14.1311 7.9655 -0.6385 0.9371
-14.1312 7.7368 -0.6341 0.9375
-14.1313 7.5113 -0.6299 0.9379
-14.1313 7.3996 -0.6278 0.9381
-14.1314 7.2886 -0.6258 0.9383
-14.1314 7.1783 -0.6239 0.9385
-14.1315 7.0688 -0.6219 0.9387
-14.1315 6.9599 -0.6200 0.9389
-14.1317 6.6371 -0.6145 0.9394
-14.1318 6.4250 -0.6110 0.9397
-14.1319 6.2153 -0.6076 0.9401
-14.1320 6.0079 -0.6044 0.9404
-14.1324 5.1988 -0.5927 0.9415
-14.1324 5.0999 -0.5914 0.9416
-14.1325 5.0013 -0.5901 0.9418
-14.1325 4.9032 -0.5888 0.9419
-14.1326 4.7082 -0.5863 0.9421
-14.1327 4.6113 -0.5851 0.9422
-14.1328 4.3230 -0.5817 0.9426
-14.1329 4.0379 -0.5785 0.9429
-14.1330 3.9435 -0.5775 0.9430
-14.1330 3.8495 -0.5765 0.9430
-14.1331 3.7558 -0.5756 0.9431
-14.1332 3.4764 -0.5729 0.9434
-14.1333 3.2916 -0.5712 0.9436
-14.1334 3.1996 -0.5704 0.9436
-14.1334 3.1078 -0.5696 0.9437
-14.1334 3.0164 -0.5688 0.9438
-14.1335 2.9251 -0.5681 0.9439
-14.1337 2.5623 -0.5654 0.9441
-14.1337 2.4721 -0.5647 0.9442
-14.1338 2.2924 -0.5636 0.9443
-14.1341 1.7571 -0.5606 0.9446
-14.1341 1.6685 -0.5602 0.9446
-14.1342 1.5799 -0.5598 0.9447
-14.4859 1.3476 -0.5726 0.9434
-15.5325 1.3482 -0.6136 0.9395
-16.7409 1.3488 -0.6610 0.9350
-63.4815 3.9308 -2.5034 0.7752
-62.8857 3.1137 -2.4782 0.7772
-62.5922 2.7113 -2.4659 0.7782
-40.7810 1.5139 -1.6062 0.8493
-40.3216 1.2472 -1.5878 0.8509
-40.2259 0.4975 -1.5834 0.8513
-40.2100 0.2487 -1.5827 0.8513
-40.1737 0.0000 -1.8800 0.8514
-14.1353 -0.0874 -0.6615 0.9450
-14.1353 -0.1748 -0.6616 0.9450
-14.1354 -0.2623 -0.6616 0.9450
-14.1354 -0.3497 -0.6617 0.9450
-14.1355 -0.5247 -0.6620 0.9449
-14.1356 -0.6999 -0.6623 0.9449
-14.1357 -0.8753 -0.6628 0.9449
-14.1357 -1.0509 -0.6633 0.9448
-14.1358 -1.2269 -0.6640 0.9448
-14.1360 -1.4916 -0.6652 0.9447
-14.1361 -1.6687 -0.6661 0.9446
-14.1361 -1.7574 -0.6666 0.9446
-14.1362 -1.8462 -0.6672 0.9445
-14.1362 -1.9352 -0.6677 0.9445
-14.1363 -2.0244 -0.6683 0.9444
-14.1364 -2.3826 -0.6709 0.9442
-14.1365 -2.4726 -0.6716 0.9442
-14.1366 -2.6532 -0.6731 0.9440
-14.1366 -2.7438 -0.6739 0.9440
-14.1367 -2.8347 -0.6747 0.9439
-14.1367 -2.9258 -0.6756 0.9438
-14.1368 -3.1086 -0.6774 0.9437
-14.1370 -3.3848 -0.6803 0.9435
-14.1371 -3.5702 -0.6824 0.9433
-14.1371 -3.6634 -0.6834 0.9432
-14.1372 -3.8506 -0.6857 0.9430
-14.1373 -4.0391 -0.6881 0.9428
-14.1374 -4.1338 -0.6893 0.9427
-14.1374 -4.2290 -0.6906 0.9426
-14.1375 -4.3244 -0.6919 0.9425
-14.1376 -4.4202 -0.6932 0.9424
-14.1377 -4.7099 -0.6974 0.9421
-14.1378 -4.8072 -0.6988 0.9420
-14.1378 -4.9050 -0.7003 0.9418
-14.1379 -5.0032 -0.7018 0.9417
-14.1380 -5.3004 -0.7066 0.9413
-14.1381 -5.5008 -0.7100 0.9411
-14.1382 -5.6017 -0.7117 0.9409
-14.1384 -5.9076 -0.7171 0.9405
-14.1385 -6.1141 -0.7209 0.9402
-14.1385 -6.2182 -0.7228 0.9400
-14.1386 -6.3229 -0.7248 0.9399
-14.1387 -6.4281 -0.7268 0.9397
-14.1387 -6.5339 -0.7289 0.9395
-14.1388 -6.7474 -0.7332 0.9392
-14.1389 -6.9635 -0.7376 0.9388
-14.1391 -7.1822 -0.7422 0.9385
-14.1391 -7.2926 -0.7445 0.9383
-14.1392 -7.5155 -0.7494 0.9379
-14.1393 -7.6280 -0.7518 0.9377
-14.1394 -7.7413 -0.7544 0.9375
-14.1395 -7.8554 -0.7570 0.9373
-14.1396 -8.2024 -0.7650 0.9366
-14.1397 -8.3198 -0.7678 0.9364
-14.1398 -8.4379 -0.7706 0.9362
-14.1400 -8.7979 -0.7794 0.9355
-14.1400 -8.9197 -0.7824 0.9352
-14.1403 -9.2909 -0.7918 0.9345
-14.1404 -9.4167 -0.7950 0.9342
-14.1404 -9.5435 -0.7984 0.9340
-14.1405 -9.6714 -0.8017 0.9337
-14.1406 -9.8003 -0.8051 0.9334
-14.1406 -9.9304 -0.8086 0.9331
-14.1408 -10.1939 -0.8158 0.9326
-14.1412 -10.8741 -0.8348 0.9311
-15.7846 -12.2939 -0.9363 0.9230
-15.5850 -12.2940 -0.9289 0.9236
-15.3884 -12.2941 -0.9217 0.9242
-15.1949 -12.2942 -0.9147 0.9247
-14.8165 -12.2944 -0.9010 0.9258
-14.6316 -12.2945 -0.8944 0.9263
-14.4493 -12.2946 -0.8878 0.9268
-14.1420 -12.3379 -0.8783 0.9276
-14.1421 -12.4929 -0.8831 0.9272
-14.1422 -12.6495 -0.8879 0.9268
-14.1427 -13.4597 -0.9137 0.9248
-14.1428 -13.6275 -0.9191 0.9244
-14.1429 -13.7973 -0.9246 0.9239
-14.1430 -13.9691 -0.9303 0.9235
-14.1431 -14.1431 -0.9360 0.9230
-14.1432 -14.3192 -0.9419 0.9226
-14.1433 -14.4976 -0.9478 0.9221
-14.1435 -14.8612 -0.9601 0.9211
-14.0918 -14.9914 -0.9629 0.9209
-14.1437 -15.2343 -0.9728 0.9201
-14.1439 -15.6176 -0.9860 0.9191
-14.1445 -16.6235 -1.0214 0.9163
-14.1447 -16.8335 -1.0290 0.9157
-14.1448 -17.0465 -1.0366 0.9151
-14.1449 -17.2629 -1.0444 0.9145
-14.1450 -17.4824 -1.0524 0.9139
-14.1453 -17.9319 -1.0688 0.9126
-14.1456 -18.3956 -1.0860 0.9113
-14.1457 -18.6332 -1.0948 0.9106
-14.1460 -19.1200 -1.1130 0.9092
-12.5530 -17.4132 -1.0046 0.9176
-12.3901 -17.4133 -1.0001 0.9180
-12.2287 -17.4134 -0.9958 0.9183
-12.0686 -17.4135 -0.9915 0.9187
-11.7526 -17.4136 -0.9832 0.9193
-11.5965 -17.4137 -0.9791 0.9196
-10.8350 -17.4141 -0.9598 0.9212
-10.6862 -17.4142 -0.9562 0.9214
-10.2466 -17.4144 -0.9456 0.9223
-10.1022 -17.4145 -0.9422 0.9225
-9.8164 -17.4146 -0.9355 0.9231
-9.3952 -17.4149 -0.9260 0.9238
-8.8463 -17.4151 -0.9141 0.9248
-8.7113 -17.4152 -0.9113 0.9250
-8.5771 -17.4153 -0.9085 0.9252
-8.4437 -17.4154 -0.9057 0.9254
-8.3111 -17.4154 -0.9031 0.9256
-8.1793 -17.4155 -0.9004 0.9258
-8.0482 -17.4155 -0.8978 0.9261
-7.6595 -17.4157 -0.8904 0.9266
-7.5314 -17.4158 -0.8880 0.9268
-7.4039 -17.4159 -0.8856 0.9270
-7.2771 -17.4160 -0.8833 0.9272
-7.1509 -17.4160 -0.8811 0.9274
-6.4069 -17.4164 -0.8684 0.9284
-6.1635 -17.4165 -0.8646 0.9287
-6.0426 -17.4166 -0.8627 0.9288
-5.9221 -17.4166 -0.8609 0.9290
-5.8023 -17.4167 -0.8591 0.9291
-5.6829 -17.4167 -0.8574 0.9293
-5.5639 -17.4168 -0.8556 0.9294
-5.2099 -17.4170 -0.8508 0.9298
-5.0929 -17.4171 -0.8492 0.9299
-4.9761 -17.4171 -0.8477 0.9300
-4.7440 -17.4172 -0.8448 0.9303
-4.5134 -17.4174 -0.8420 0.9305
-4.3986 -17.4174 -0.8407 0.9306
-4.0565 -17.4176 -0.8369 0.9309
-3.9431 -17.4177 -0.8357 0.9310
-3.8300 -17.4177 -0.8346 0.9311
-3.6048 -17.4178 -0.8324 0.9313
-3.3807 -17.4179 -0.8303 0.9314
-3.2691 -17.4180 -0.8294 0.9315
-3.1577 -17.4180 -0.8284 0.9316
-2.9357 -17.4181 -0.8266 0.9317
-2.8251 -17.4182 -0.8258 0.9318
-2.6044 -17.4183 -0.8242 0.9319
-2.0562 -17.4186 -0.8208 0.9322
-1.7292 -17.4187 -0.8192 0.9323
-1.5119 -17.4189 -0.8182 0.9324
-1.4034 -17.4189 -0.8178 0.9324
-1.2950 -17.4190 -0.8174 0.9324
-1.1868 -17.4190 -0.8171 0.9325
-0.9705 -17.4192 -0.8164 0.9325
-0.7546 -17.4193 -0.8159 0.9326
-0.6466 -17.4193 -0.8157 0.9326
-0.4310 -17.4194 -0.8154 0.9326
0.3233 -17.4198 -0.8154 0.9326
0.4310 -17.4199 -0.8155 0.9326
0.5388 -17.4199 -0.8156 0.9326
0.6467 -17.4200 -0.8158 0.9326
0.9706 -17.4202 -0.8165 0.9325
1.0787 -17.4202 -0.8168 0.9325
1.2952 -17.4203 -0.8175 0.9324
1.5121 -17.4204 -0.8183 0.9324
1.6207 -17.4205 -0.8188 0.9323
1.7294 -17.4205 -0.8193 0.9323
1.9473 -17.4207 -0.8203 0.9322
2.2752 -17.4208 -0.8222 0.9321
2.3849 -17.4209 -0.8229 0.9320
2.4948 -17.4210 -0.8236 0.9320
2.6048 -17.4210 -0.8243 0.9319
2.7151 -17.4211 -0.8251 0.9318
2.9362 -17.4212 -0.8268 0.9317
3.0472 -17.4212 -0.8277 0.9316
3.1583 -17.4213 -0.8286 0.9316
3.2697 -17.4213 -0.8295 0.9315
3.4223 -16.5357 -0.7902 0.9346
3.4226 -16.0368 -0.7674 0.9364
3.4234 -14.6992 -0.7063 0.9414
3.4239 -13.9196 -0.6708 0.9442
3.4241 -13.5584 -0.6544 0.9455
3.4245 -12.8866 -0.6240 0.9480
3.4247 -12.5735 -0.6098 0.9492
3.4251 -11.9880 -0.5835 0.9513
3.4254 -11.4511 -0.5593 0.9533
3.4255 -11.1989 -0.5481 0.9542
3.4257 -10.9567 -0.5372 0.9551
3.4258 -10.7238 -0.5268 0.9559
3.4259 -10.4998 -0.5169 0.9567
3.3263 -9.5875 -0.4749 0.9602
3.3268 -8.8737 -0.4435 0.9628
3.4255 -8.6455 -0.4352 0.9634
3.4272 -8.4959 -0.4287 0.9640
3.4275 -7.9259 -0.4041 0.9660
3.4276 -7.7934 -0.3984 0.9665
3.4280 -7.0704 -0.3677 0.9690
3.4285 -6.3550 -0.3379 0.9715
3.4285 -6.2621 -0.3341 0.9718
3.4286 -6.1712 -0.3304 0.9721
3.3770 -5.9051 -0.3183 0.9731
3.4239 -5.8190 -0.3160 0.9733
3.4725 -5.8190 -0.3171 0.9732
3.5215 -5.8190 -0.3183 0.9731
3.5339 -5.7589 -0.3162 0.9733
3.5340 -5.6799 -0.3131 0.9736
3.5341 -5.4519 -0.3041 0.9743
3.4963 -5.3212 -0.2980 0.9748
3.5344 -5.0329 -0.2878 0.9757
3.5344 -4.9673 -0.2853 0.9759
3.5345 -4.9029 -0.2829 0.9761
3.5152 -4.6902 -0.2743 0.9768
3.5346 -4.6559 -0.2736 0.9769
3.5346 -4.5966 -0.2714 0.9770
3.4037 -4.1539 -0.2513 0.9787
3.4298 -4.1334 -0.2514 0.9787
3.4298 -4.0309 -0.2477 0.9790
3.4299 -3.9808 -0.2459 0.9792
3.4299 -3.9314 -0.2442 0.9793
3.4300 -3.7406 -0.2375 0.9799
3.4300 -3.6945 -0.2359 0.9800
3.4301 -3.6490 -0.2344 0.9801
3.4301 -3.6041 -0.2328 0.9803
3.4301 -3.5598 -0.2313 0.9804
3.4302 -3.5161 -0.2299 0.9805
3.4302 -3.4729 -0.2284 0.9806
3.4302 -3.4302 -0.2270 0.9808
3.4302 -3.3880 -0.2256 0.9809
3.4302 -3.3464 -0.2243 0.9810
3.4303 -3.2245 -0.2203 0.9813
3.4303 -3.1848 -0.2191 0.9814
3.4304 -3.0304 -0.2142 0.9818
3.4305 -2.8466 -0.2086 0.9823
3.4306 -2.7757 -0.2065 0.9825
3.4306 -2.7062 -0.2045 0.9827
3.4306 -2.6720 -0.2035 0.9827
3.4306 -2.6380 -0.2025 0.9828
3.4307 -2.5382 -0.1997 0.9831
3.4307 -2.4732 -0.1979 0.9832
3.4308 -2.4411 -0.1970 0.9833
3.4308 -2.3465 -0.1945 0.9835
3.4463 -2.3259 -0.1946 0.9835
3.5881 -2.3260 -0.2001 0.9830
3.6874 -2.3260 -0.2040 0.9827
3.8437 -2.3261 -0.2103 0.9822
4.1268 -2.3263 -0.2217 0.9812
4.1872 -2.3263 -0.2242 0.9810
4.3121 -2.3263 -0.2293 0.9806
4.3439 -2.2746 -0.2295 0.9806
4.7872 -2.4317 -0.2513 0.9787
4.8615 -2.4318 -0.2544 0.9785
4.8576 -2.3924 -0.2534 0.9786
5.0959 -2.4319 -0.2642 0.9776
5.1781 -2.4319 -0.2677 0.9774
5.4885 -2.4138 -0.2806 0.9763
5.4885 -2.3735 -0.2798 0.9763
5.8211 -2.4323 -0.2952 0.9751
5.9863 -2.3718 -0.3013 0.9745
5.9863 -2.3291 -0.3006 0.9746
6.3268 -2.3274 -0.3155 0.9734
6.4497 -2.3274 -0.3209 0.9729
6.5770 -2.3275 -0.3265 0.9724
6.7089 -2.3276 -0.3323 0.9720
6.8455 -2.3276 -0.3384 0.9715
6.9871 -2.3277 -0.3446 0.9709
7.2870 -2.3279 -0.3580 0.9698
7.4458 -2.3279 -0.3651 0.9692
8.0962 -2.3131 -0.3940 0.9668
8.5675 -2.2767 -0.4149 0.9651
8.7865 -2.2768 -0.4248 0.9643
9.0162 -2.2770 -0.4352 0.9634
9.3301 -2.2339 -0.4490 0.9623
10.1376 -2.2292 -0.4858 0.9593
10.4459 -2.2293 -0.4999 0.9581
46.7993 -9.6856 -2.2365 0.8258
46.7995 -8.7836 -2.2284 0.8264
46.7997 -8.4843 -2.2258 0.8266
48.1109 -8.4151 -2.2857 0.8224
53.0077 -8.2613 -2.5106 0.8067
53.0609 -7.9337 -2.5107 0.8067
39.4637 -5.6514 -1.8657 0.8525
39.4680 -5.4031 -1.8642 0.8526
39.4589 -5.1535 -1.8623 0.8527
39.5082 -4.9116 -1.8631 0.8526
39.4367 -4.4081 -1.8570 0.8531
39.4261 -3.9139 -1.8541 0.8533
39.4178 -3.4213 -1.8516 0.8535
39.4136 -3.1755 -1.8504 0.8536
39.4092 -2.9300 -1.8494 0.8536
39.3971 -2.1950 -1.8466 0.8538
39.3931 -1.9505 -1.8458 0.8539
39.4284 -1.7079 -1.8469 0.8538
46.8035 -1.4477 -2.1913 0.8290
46.8037 -1.1580 -2.1910 0.8290
39.1257 0.0000 -1.8310 0.8550
38.8962 0.4811 -1.8204 0.8558
38.8551 1.2018 -1.8192 0.8558
38.8552 1.4424 -1.8196 0.8558
38.8542 1.6830 -1.8200 0.8558
38.8501 1.9237 -1.8203 0.8558
38.8389 2.4050 -1.8211 0.8557
38.6685 2.6346 -1.8138 0.8562
38.6564 3.1145 -1.8149 0.8562
39.2772 3.6540 -1.8460 0.8539
46.3954 4.6058 -2.1819 0.8297
46.3958 5.7679 -2.1879 0.8293
46.3269 7.2200 -2.1942 0.8288
46.8085 7.8893 -2.2214 0.8269
10.7298 1.8768 -0.5098 0.9573
10.3532 1.8770 -0.4924 0.9587
9.4187 1.8886 -0.4495 0.9623
8.7594 1.9261 -0.4197 0.9647
8.5088 1.9263 -0.4083 0.9657
8.0464 1.9265 -0.3872 0.9674
7.9984 1.9674 -0.3855 0.9676
7.8340 1.9784 -0.3781 0.9682
7.2647 1.9787 -0.3524 0.9703
6.9263 1.9789 -0.3371 0.9716
6.7679 1.9790 -0.3300 0.9722
6.3303 1.9792 -0.3104 0.9738
6.1957 1.9793 -0.3044 0.9743
5.8885 1.9617 -0.2905 0.9755
5.8885 2.0430 -0.2917 0.9754
5.8886 2.0839 -0.2923 0.9753
5.7768 2.0846 -0.2874 0.9757
5.6670 2.0847 -0.2826 0.9761
5.4006 2.0247 -0.2699 0.9772
5.2621 2.0849 -0.2649 0.9776
5.1686 2.0849 -0.2608 0.9779
4.9900 2.0850 -0.2531 0.9786
4.2165 1.9803 -0.2180 0.9815
3.9592 1.9804 -0.2072 0.9824
3.8988 1.9804 -0.2046 0.9826
3.8398 1.9805 -0.2022 0.9828
3.7823 1.9805 -0.1998 0.9830
3.6712 1.9805 -0.1952 0.9834
3.6175 1.9806 -0.1930 0.9836
3.4144 1.9807 -0.1847 0.9843
3.3663 1.9807 -0.1828 0.9845
3.3331 2.0171 -0.1823 0.9845
3.3331 2.1026 -0.1844 0.9843
3.3332 2.1607 -0.1859 0.9842
3.3332 2.2197 -0.1874 0.9841
3.3332 2.3102 -0.1898 0.9839
3.3332 2.3408 -0.1906 0.9838
3.3333 2.3717 -0.1914 0.9838
3.3333 2.4029 -0.1923 0.9837
3.3333 2.4344 -0.1932 0.9836
3.3333 2.5306 -0.1959 0.9834
3.3334 2.5632 -0.1968 0.9833
3.3334 2.6295 -0.1987 0.9831
3.3334 2.7314 -0.2017 0.9829
3.3335 2.7660 -0.2027 0.9828
3.3335 2.9447 -0.2082 0.9823
3.3336 3.0568 -0.2117 0.9821
3.3336 3.1336 -0.2141 0.9818
3.3337 3.2122 -0.2166 0.9816
3.3337 3.2522 -0.2179 0.9815
3.3337 3.3752 -0.2220 0.9812
3.3338 3.4598 -0.2248 0.9809
3.3338 3.5029 -0.2263 0.9808
3.3338 3.5466 -0.2278 0.9807
3.3338 3.5909 -0.2293 0.9806
3.3339 3.7273 -0.2340 0.9802
3.3339 3.7740 -0.2357 0.9800
3.4392 4.0929 -0.2502 0.9788
3.4392 4.1973 -0.2539 0.9785
3.4392 4.2507 -0.2559 0.9783
3.4275 4.3450 -0.2590 0.9781
3.4393 4.4727 -0.2640 0.9777
3.4394 4.5891 -0.2684 0.9773
3.4395 4.7711 -0.2752 0.9767
3.4395 4.8339 -0.2776 0.9765
3.4395 4.8978 -0.2801 0.9763
3.4396 4.9628 -0.2826 0.9761
3.4397 5.3062 -0.2959 0.9750
3.4397 5.3788 -0.2988 0.9748
3.4398 5.4529 -0.3017 0.9745
3.4058 5.4737 -0.3017 0.9745
3.3590 5.4738 -0.3005 0.9746
3.3126 5.4738 -0.2994 0.9747
3.3347 5.7485 -0.3110 0.9737
3.3348 5.8314 -0.3144 0.9735
3.3348 5.9160 -0.3178 0.9732
3.3348 6.0026 -0.3213 0.9729
3.3349 6.1816 -0.3287 0.9723
3.3350 6.3690 -0.3364 0.9716
3.3351 6.6674 -0.3489 0.9706
3.3353 6.9888 -0.3624 0.9695
3.3353 7.1015 -0.3672 0.9691
3.3354 7.2173 -0.3721 0.9687
3.3354 7.3362 -0.3771 0.9682
3.3354 7.4584 -0.3823 0.9678
3.3355 7.5840 -0.3877 0.9674
3.3355 7.7133 -0.3933 0.9669
3.3357 7.9831 -0.4049 0.9659
3.3357 8.1241 -0.4110 0.9654
3.3358 8.2694 -0.4173 0.9649
3.3289 8.7150 -0.4366 0.9633
3.2359 8.9672 -0.4461 0.9625
3.2360 9.1441 -0.4539 0.9619
3.2361 9.3273 -0.4620 0.9612
3.2361 9.5172 -0.4704 0.9605
3.3367 10.4448 -0.5131 0.9570
3.3369 10.9091 -0.5339 0.9553
3.3370 11.1556 -0.5449 0.9544
3.3371 11.4126 -0.5564 0.9535
3.3375 12.2532 -0.5943 0.9504
3.3379 13.2170 -0.6379 0.9469
3.3380 13.5706 -0.6540 0.9456
3.3385 14.7469 -0.7076 0.9413
3.3034 15.0225 -0.7198 0.9403
3.1091 15.0226 -0.7179 0.9404
3.0123 15.0227 -0.7170 0.9405
2.9158 15.0227 -0.7162 0.9406
2.7235 15.0228 -0.7145 0.9407
2.3413 15.0230 -0.7115 0.9409
2.1514 15.0231 -0.7102 0.9410
2.0567 15.0232 -0.7096 0.9411
1.5853 15.0234 -0.7070 0.9413
1.4914 15.0234 -0.7065 0.9413
1.3977 15.0235 -0.7061 0.9414
1.3040 15.0235 -0.7057 0.9414
1.1170 15.0236 -0.7050 0.9415
1.0236 15.0237 -0.7047 0.9415
0.9303 15.0237 -0.7044 0.9415
0.7439 15.0238 -0.7039 0.9415
0.6508 15.0239 -0.7037 0.9416
0.5577 15.0239 -0.7036 0.9416
0.0000 15.0242 -0.7031 0.9416
-0.1858 15.0243 -0.7032 0.9416
-0.2788 15.0244 -0.7032 0.9416
-0.4647 15.0245 -0.7034 0.9416
-0.5577 15.0245 -0.7036 0.9416
-0.6508 15.0245 -0.7038 0.9416
-0.7439 15.0246 -0.7040 0.9415
-0.8371 15.0246 -0.7042 0.9415
-1.1171 15.0248 -0.7051 0.9415
-1.2105 15.0248 -0.7054 0.9414
-1.3041 15.0249 -0.7058 0.9414
-1.3978 15.0249 -0.7062 0.9414
-1.7736 15.0251 -0.7080 0.9412
-1.9624 15.0252 -0.7091 0.9411
-2.1517 15.0253 -0.7103 0.9410
-2.3417 15.0254 -0.7116 0.9409
-2.6281 15.0256 -0.7138 0.9407
-2.8201 15.0257 -0.7154 0.9406
-2.9164 15.0257 -0.7163 0.9405
-3.0130 15.0257 -0.7172 0.9405
-3.1098 15.0258 -0.7181 0.9404
-3.2068 15.0258 -0.7190 0.9403
-3.5976 15.0261 -0.7231 0.9400
-3.8839 14.9883 -0.7246 0.9399
-4.0824 14.9884 -0.7270 0.9397
-4.1821 14.9884 -0.7282 0.9396
-4.2823 14.9885 -0.7295 0.9395
-4.5847 14.9887 -0.7335 0.9392
-4.8906 14.9888 -0.7378 0.9388
-4.9934 14.9888 -0.7393 0.9387
-5.0966 14.9889 -0.7409 0.9386
-5.3044 14.9890 -0.7441 0.9383
-5.5140 14.9891 -0.7474 0.9380
-5.6195 14.9892 -0.7491 0.9379
-5.7255 14.9892 -0.7509 0.9378
-5.9390 14.9893 -0.7545 0.9375
-6.2632 14.9895 -0.7602 0.9370
-6.4821 14.9896 -0.7643 0.9367
-6.5925 14.9896 -0.7663 0.9365
-6.8150 14.9898 -0.7706 0.9362
-8.0871 14.9904 -0.7971 0.9341
-8.6961 14.9907 -0.8110 0.9330
-8.9458 14.9908 -0.8170 0.9325
-9.1992 14.9910 -0.8231 0.9320
-9.8501 14.9913 -0.8394 0.9307
-10.1179 14.9914 -0.8464 0.9301
-10.3901 14.9916 -0.8536 0.9296
-10.5280 14.9916 -0.8573 0.9293
-10.9490 14.9919 -0.8688 0.9284
-11.0918 14.9919 -0.8727 0.9280
-11.3816 14.9921 -0.8809 0.9274
-12.1304 14.9925 -0.9025 0.9257
-12.2847 14.9925 -0.9071 0.9253
-12.4405 14.9926 -0.9117 0.9250
-12.5979 14.9927 -0.9164 0.9246
