ply
format ascii 1.0
element vertex 1570
property float32 x
property float32 y
property float32 z
property float32 I
end_header
-9.5128 8.0943 -2.3741 0.9504
-9.6113 7.9752 -2.3739 0.9504
-9.7084 7.8551 -2.3736 0.9504
-9.8511 7.6726 -2.3733 0.9504
-9.9904 7.4875 -2.3730 0.9504
-10.0361 7.4253 -2.3729 0.9504
-10.0814 7.3628 -2.3728 0.9504
-10.2150 7.1736 -2.3725 0.9504
-10.2587 7.1100 -2.3724 0.9504
-10.3448 6.9818 -2.3722 0.9505
-10.4294 6.8527 -2.3719 0.9505
-10.5123 6.7225 -2.3717 0.9505
-10.5531 6.6571 -2.3716 0.9505
-10.5936 6.5913 -2.3715 0.9505
-10.6336 6.5254 -2.3714 0.9505
-10.7125 6.3927 -2.3711 0.9505
-10.7513 6.3261 -2.3710 0.9505
-10.8654 6.1247 -2.3707 0.9505
-10.9393 5.9893 -2.3705 0.9505
-10.9757 5.9213 -2.3704 0.9505
-11.0116 5.8530 -2.3703 0.9505
-11.0471 5.7846 -2.3702 0.9505
-11.1849 5.5086 -2.3698 0.9505
-11.2183 5.4391 -2.3697 0.9505
-11.2512 5.3694 -2.3696 0.9505
-11.4096 5.0180 -2.3691 0.9505
-11.4994 4.8050 -2.3688 0.9505
-11.5285 4.7336 -2.3688 0.9505
-11.5571 4.6620 -2.3687 0.9505
-11.5853 4.5903 -2.3686 0.9505
-11.7451 4.1565 -2.3681 0.9505
-11.7702 4.0836 -2.3680 0.9505
-11.7949 4.0106 -2.3679 0.9505
-11.8428 3.8642 -2.3678 0.9505
-11.8661 3.7908 -2.3677 0.9505
-11.9758 3.4216 -2.3673 0.9506
-12.0554 3.1240 -2.3671 0.9506
-12.0742 3.0493 -2.3670 0.9506
-12.1277 2.8245 -2.3668 0.9506
-12.1611 2.6741 -2.3667 0.9506
-12.1771 2.5988 -2.3666 0.9506
-12.1927 2.5234 -2.3666 0.9506
-12.2224 2.3723 -2.3665 0.9506
-12.2365 2.2966 -2.3664 0.9506
-12.2502 2.2208 -2.3664 0.9506
-12.2762 2.0691 -2.3663 0.9506
-12.2885 1.9931 -2.3662 0.9506
-12.3118 1.8409 -2.3661 0.9506
-12.3227 1.7647 -2.3661 0.9506
-12.3331 1.6884 -2.3660 0.9506
-12.3702 1.3827 -2.3659 0.9506
-12.3783 1.3062 -2.3658 0.9506
-12.4061 0.9996 -2.3657 0.9506
-12.4171 0.8460 -2.3656 0.9506
-12.4220 0.7692 -2.3656 0.9506
-12.4303 0.6155 -2.3655 0.9506
-12.4337 0.5386 -2.3655 0.9506
-12.4366 0.4617 -2.3655 0.9506
-12.4391 0.3848 -2.3655 0.9506
-12.4427 0.2309 -2.3654 0.9506
-12.4437 0.1539 -2.3654 0.9506
-12.4443 0.0770 -2.3654 0.9506
-11.9633 -0.2220 -2.3664 0.9524
-11.9616 -0.2959 -2.3664 0.9524
-11.9504 -0.5917 -2.3664 0.9524
-11.9464 -0.6656 -2.3664 0.9524
-11.9372 -0.8133 -2.3664 0.9524
-11.9262 -0.9609 -2.3663 0.9524
-11.9200 -1.0346 -2.3663 0.9524
-11.8734 -1.4761 -2.3663 0.9524
-11.8641 -1.5495 -2.3663 0.9524
-11.8334 -1.7693 -2.3664 0.9524
-11.7986 -1.9886 -2.3664 0.9524
-11.7862 -2.0615 -2.3664 0.9524
-11.7731 -2.1345 -2.3664 0.9524
-11.7600 -2.2070 -2.3664 0.9524
-11.7317 -2.3526 -2.3665 0.9524
-11.7171 -2.4250 -2.3665 0.9524
-11.6704 -2.6420 -2.3665 0.9524
-11.6539 -2.7141 -2.3665 0.9524
-11.6370 -2.7863 -2.3666 0.9524
-11.6197 -2.8581 -2.3666 0.9524
-11.6018 -2.9301 -2.3666 0.9524
-11.5263 -3.2162 -2.3667 0.9524
-11.4860 -3.3586 -2.3668 0.9524
-11.4651 -3.4296 -2.3668 0.9524
-11.4439 -3.5005 -2.3668 0.9524
-11.4222 -3.5712 -2.3669 0.9524
-11.4000 -3.6418 -2.3669 0.9524
-11.3310 -3.8529 -2.3670 0.9524
-11.3072 -3.9229 -2.3670 0.9524
-11.2829 -3.9929 -2.3671 0.9524
-11.2582 -4.0626 -2.3671 0.9524
-11.2330 -4.1323 -2.3672 0.9524
-11.2075 -4.2017 -2.3672 0.9524
-11.1283 -4.4092 -2.3674 0.9524
-11.1011 -4.4780 -2.3674 0.9524
-11.0734 -4.5467 -2.3675 0.9524
-10.9879 -4.7516 -2.3676 0.9524
-10.9585 -4.8196 -2.3677 0.9524
-10.9288 -4.8874 -2.3677 0.9524
-10.8986 -4.9550 -2.3678 0.9524
-10.8680 -5.0224 -2.3678 0.9524
-10.7415 -5.2903 -2.3681 0.9524
-10.5743 -5.6206 -2.3684 0.9523
-10.5396 -5.6861 -2.3685 0.9523
-10.3970 -5.9457 -2.3688 0.9523
-10.3604 -6.0101 -2.3688 0.9523
-10.2858 -6.1381 -2.3690 0.9523
-10.2480 -6.2018 -2.3690 0.9523
-10.2098 -6.2653 -2.3691 0.9523
-10.0928 -6.4542 -2.3694 0.9523
-10.0530 -6.5167 -2.3694 0.9523
-10.0129 -6.5790 -2.3695 0.9523
-9.9723 -6.6410 -2.3696 0.9523
-9.9314 -6.7028 -2.3697 0.9523
-9.7212 -7.0079 -2.3701 0.9523
-9.6780 -7.0681 -2.3702 0.9523
-9.5463 -7.2473 -2.3705 0.9523
-9.5017 -7.3065 -2.3706 0.9523
-9.4567 -7.3654 -2.3707 0.9523
-9.3656 -7.4824 -2.3708 0.9523
-9.3196 -7.5404 -2.3709 0.9523
-9.2263 -7.6558 -2.3711 0.9523
-9.1792 -7.7130 -2.3712 0.9523
-9.1317 -7.7699 -2.3713 0.9523
-9.0838 -7.8266 -2.3714 0.9523
-9.0356 -7.8829 -2.3715 0.9523
-8.8890 -8.0503 -2.3718 0.9523
-8.8394 -8.1054 -2.3719 0.9523
-8.7895 -8.1603 -2.3720 0.9523
-8.6887 -8.2691 -2.3723 0.9523
-8.5350 -8.4301 -2.3726 0.9523
-8.4831 -8.4831 -2.3727 0.9523
-8.4309 -8.5358 -2.3728 0.9523
-8.3784 -8.5882 -2.3729 0.9523
-8.2723 -8.6920 -2.3732 0.9523
-8.1650 -8.7946 -2.3734 0.9522
-8.1108 -8.8453 -2.3735 0.9522
-8.0016 -8.9459 -2.3738 0.9522
-7.9466 -8.9956 -2.3739 0.9522
-7.7795 -9.1429 -2.3742 0.9522
-7.7232 -9.1914 -2.3744 0.9522
-7.5526 -9.3346 -2.3747 0.9522
-7.4373 -9.4283 -2.3750 0.9522
-7.2624 -9.5661 -2.3754 0.9522
-7.1443 -9.6564 -2.3757 0.9522
-7.0251 -9.7451 -2.3759 0.9522
-6.9651 -9.7889 -2.3761 0.9522
-6.7224 -9.9604 -2.3766 0.9522
-6.6611 -10.0024 -2.3768 0.9522
-6.5376 -10.0853 -2.3770 0.9522
-6.4755 -10.1261 -2.3772 0.9522
-6.4131 -10.1665 -2.3773 0.9522
-6.2876 -10.2463 -2.3776 0.9522
-6.0976 -10.3630 -2.3780 0.9522
-5.9697 -10.4389 -2.3783 0.9521
-5.9053 -10.4763 -2.3785 0.9521
-5.7110 -10.5860 -2.3789 0.9521
-5.4488 -10.7267 -2.3795 0.9521
-5.3827 -10.7609 -2.3796 0.9521
-5.2499 -10.8280 -2.3799 0.9521
-5.1162 -10.8935 -2.3803 0.9521
-4.9817 -10.9574 -2.3806 0.9521
-4.7785 -11.0501 -2.3810 0.9521
-4.6421 -11.1098 -2.3813 0.9521
-4.5736 -11.1390 -2.3815 0.9521
-4.5050 -11.1679 -2.3817 0.9521
-4.4361 -11.1963 -2.3818 0.9521
-4.2978 -11.2518 -2.3821 0.9521
-4.0193 -11.3577 -2.3828 0.9521
-3.8790 -11.4081 -2.3831 0.9521
-3.7382 -11.4568 -2.3834 0.9520
-3.5967 -11.5037 -2.3838 0.9520
-3.5257 -11.5266 -2.3839 0.9520
-3.4546 -11.5489 -2.3841 0.9520
-3.3834 -11.5709 -2.3843 0.9520
-3.2404 -11.6135 -2.3846 0.9520
-3.0970 -11.6543 -2.3849 0.9520
-3.0251 -11.6741 -2.3851 0.9520
-2.8086 -11.7307 -2.3856 0.9520
-2.7362 -11.7487 -2.3858 0.9520
-2.5183 -11.7999 -2.3863 0.9520
-2.3725 -11.8319 -2.3866 0.9520
-2.2995 -11.8472 -2.3868 0.9520
-2.2263 -11.8621 -2.3870 0.9520
-2.1531 -11.8764 -2.3872 0.9520
-1.9328 -11.9170 -2.3877 0.9520
-1.7118 -11.9534 -2.3882 0.9520
-1.4901 -11.9857 -2.3887 0.9519
-1.4160 -11.9956 -2.3889 0.9519
-1.3419 -12.0050 -2.3891 0.9519
-1.2677 -12.0140 -2.3893 0.9519
-1.1935 -12.0225 -2.3894 0.9519
-1.1192 -12.0305 -2.3896 0.9519
-1.0449 -12.0381 -2.3898 0.9519
-0.9705 -12.0452 -2.3900 0.9519
-0.7470 -12.0638 -2.3905 0.9519
-0.6724 -12.0692 -2.3907 0.9519
-0.5978 -12.0740 -2.3909 0.9519
-0.5232 -12.0783 -2.3910 0.9519
-0.4485 -12.0823 -2.3912 0.9519
-0.3738 -12.0857 -2.3914 0.9519
-0.2991 -12.0887 -2.3916 0.9519
-0.0748 -12.0949 -2.3921 0.9519
0.0000 -12.0960 -2.3923 0.9519
0.0748 -12.0967 -2.3925 0.9519
0.2245 -12.0967 -2.3928 0.9519
0.3741 -12.0948 -2.3932 0.9519
0.4489 -12.0932 -2.3934 0.9519
0.5238 -12.0911 -2.3936 0.9519
0.5986 -12.0885 -2.3937 0.9518
0.7482 -12.0820 -2.3941 0.9518
0.8977 -12.0737 -2.3945 0.9518
0.9724 -12.0688 -2.3946 0.9518
1.0471 -12.0635 -2.3948 0.9518
1.1964 -12.0514 -2.3952 0.9518
1.4201 -12.0299 -2.3957 0.9518
1.4946 -12.0218 -2.3959 0.9518
1.6104 -11.7631 -2.3481 0.9527
1.5969 -11.1515 -2.2280 0.9551
1.6660 -11.1422 -2.2282 0.9551
1.6724 -10.7312 -2.1480 0.9567
1.5607 -9.6226 -1.9280 0.9610
1.6119 -9.5638 -1.9182 0.9612
1.6132 -8.8985 -1.7886 0.9638
1.6135 -8.5969 -1.7299 0.9650
1.6143 -7.8000 -1.5753 0.9680
1.6147 -7.3434 -1.4870 0.9698
1.6155 -6.5679 -1.3377 0.9728
1.6157 -6.3978 -1.3050 0.9735
1.6159 -6.2357 -1.2740 0.9741
1.5644 -5.8870 -1.2047 0.9755
1.5853 -5.8202 -1.1930 0.9757
1.6166 -5.5285 -1.1392 0.9768
1.5384 -5.0293 -1.0402 0.9788
1.5966 -4.9978 -1.0376 0.9788
1.6172 -4.8544 -1.0120 0.9794
1.6173 -4.7564 -0.9936 0.9797
1.6174 -4.6619 -0.9759 0.9801
1.6179 -4.1583 -0.8825 0.9820
1.6180 -4.0836 -0.8687 0.9822
1.6180 -4.0112 -0.8554 0.9825
1.6182 -3.8727 -0.8301 0.9830
1.6182 -3.8065 -0.8180 0.9833
1.6183 -3.7422 -0.8064 0.9835
1.6184 -3.6797 -0.7950 0.9837
1.6184 -3.6190 -0.7841 0.9840
1.6185 -3.5023 -0.7631 0.9844
1.6186 -3.4463 -0.7530 0.9846
1.6186 -3.3917 -0.7433 0.9848
1.6187 -3.2867 -0.7246 0.9852
1.6188 -3.2362 -0.7156 0.9854
1.6188 -3.1869 -0.7069 0.9855
1.6189 -3.1387 -0.6985 0.9857
1.6189 -3.0458 -0.6822 0.9860
1.6191 -2.9143 -0.6594 0.9865
1.6191 -2.8724 -0.6521 0.9866
1.6192 -2.8314 -0.6451 0.9868
1.6192 -2.7912 -0.6382 0.9869
1.6193 -2.6758 -0.6186 0.9873
1.6194 -2.5672 -0.6003 0.9877
1.6195 -2.5324 -0.5945 0.9878
1.6195 -2.4648 -0.5833 0.9880
1.6195 -2.4319 -0.5779 0.9882
1.6196 -2.3997 -0.5726 0.9883
1.6196 -2.3369 -0.5623 0.9885
1.6333 -2.3257 -0.5621 0.9885
1.6548 -2.3257 -0.5645 0.9884
1.6766 -2.3257 -0.5670 0.9884
1.7207 -2.3258 -0.5722 0.9883
1.7431 -2.3258 -0.5748 0.9882
1.7657 -2.3258 -0.5775 0.9882
1.8582 -2.3258 -0.5888 0.9879
1.8818 -2.3259 -0.5917 0.9879
1.9058 -2.3259 -0.5947 0.9878
1.9300 -2.3259 -0.5977 0.9878
1.9791 -2.3259 -0.6040 0.9876
2.0292 -2.3259 -0.6105 0.9875
2.0804 -2.3260 -0.6172 0.9874
2.1065 -2.3260 -0.6206 0.9873
2.1329 -2.3260 -0.6241 0.9872
2.1595 -2.3260 -0.6277 0.9871
2.2137 -2.3260 -0.6351 0.9870
2.2413 -2.3260 -0.6388 0.9869
2.3551 -2.3261 -0.6547 0.9866
2.3844 -2.3261 -0.6588 0.9865
2.4141 -2.3262 -0.6630 0.9864
2.4442 -2.3262 -0.6673 0.9863
2.4747 -2.3262 -0.6717 0.9862
2.5686 -2.3262 -0.6854 0.9860
2.8036 -2.3263 -0.7205 0.9853
2.8392 -2.3264 -0.7259 0.9851
2.8753 -2.3264 -0.7315 0.9850
2.9492 -2.3264 -0.7429 0.9848
3.0646 -2.3265 -0.7610 0.9844
3.1042 -2.3265 -0.7672 0.9843
3.1446 -2.3265 -0.7736 0.9842
3.1857 -2.3266 -0.7802 0.9840
3.2274 -2.3266 -0.7869 0.9839
3.2699 -2.3266 -0.7937 0.9838
3.3652 -2.2712 -0.8029 0.9836
3.3868 -2.2554 -0.8048 0.9835
3.5894 -2.3268 -0.8460 0.9827
3.6386 -2.3268 -0.8542 0.9825
3.7919 -2.3269 -0.8799 0.9820
3.8451 -2.3269 -0.8889 0.9818
4.0114 -2.3270 -0.9172 0.9813
4.1283 -2.3271 -0.9373 0.9809
4.1887 -2.3271 -0.9477 0.9807
4.2505 -2.3271 -0.9584 0.9804
4.3783 -2.3272 -0.9806 0.9800
4.7257 -2.3274 -1.0418 0.9788
4.8004 -2.3274 -1.0551 0.9785
4.9558 -2.3275 -1.0829 0.9779
5.1196 -2.3276 -1.1123 0.9773
5.2049 -2.3277 -1.1277 0.9770
5.3828 -2.3278 -1.1599 0.9764
5.7711 -2.3280 -1.2308 0.9749
5.8757 -2.3280 -1.2500 0.9746
6.0951 -2.3282 -1.2904 0.9737
6.8414 -2.3736 -1.4322 0.9709
7.3061 -2.4340 -1.5230 0.9691
7.4501 -2.3800 -1.5468 0.9686
7.7829 -2.3806 -1.6097 0.9674
8.3484 -2.3294 -1.7142 0.9653
8.5527 -2.3296 -1.7531 0.9645
8.7666 -2.3296 -1.7940 0.9637
8.9907 -2.3298 -1.8369 0.9628
9.4853 -2.3954 -1.9348 0.9609
11.9187 -2.8536 -2.4238 0.9513
11.9706 -2.6322 -2.4240 0.9513
12.0030 -2.4841 -2.4242 0.9512
12.0334 -2.3356 -2.4243 0.9512
12.0888 -2.0375 -2.4246 0.9512
12.1014 -1.9627 -2.4246 0.9512
12.1137 -1.8879 -2.4247 0.9512
12.1367 -1.7380 -2.4248 0.9512
12.1770 -1.4374 -2.4250 0.9512
12.1859 -1.3621 -2.4251 0.9512
12.1944 -1.2867 -2.4251 0.9512
12.2168 -1.0604 -2.4253 0.9512
12.2294 -0.9092 -2.4253 0.9512
12.2448 -0.6822 -2.4255 0.9512
12.2527 -0.5307 -2.4255 0.9512
12.2559 -0.4549 -2.4256 0.9512
12.2587 -0.3791 -2.4256 0.9512
12.2627 -0.2275 -2.4257 0.9512
12.2649 -0.0758 -2.4257 0.9512
12.2653 0.0000 -2.4258 0.9512
12.2652 0.0759 -2.4258 0.9512
12.2646 0.1517 -2.4258 0.9512
12.2575 0.4551 -2.4259 0.9512
12.2546 0.5308 -2.4259 0.9512
12.2380 0.8338 -2.4260 0.9512
12.2327 0.9095 -2.4260 0.9512
12.2138 1.1363 -2.4260 0.9512
12.2066 1.2118 -2.4260 0.9512
12.1533 1.6638 -2.4260 0.9512
12.1318 1.8140 -2.4260 0.9512
12.1203 1.8889 -2.4260 0.9512
12.0959 2.0387 -2.4260 0.9512
12.0830 2.1135 -2.4260 0.9512
12.0558 2.2627 -2.4260 0.9512
12.0415 2.3372 -2.4260 0.9512
12.0268 2.4116 -2.4259 0.9512
12.0116 2.4859 -2.4259 0.9512
9.4054 2.0073 -1.9020 0.9615
8.7330 1.9771 -1.7709 0.9641
8.4895 1.9772 -1.7239 0.9651
8.2585 1.9773 -1.6795 0.9660
7.8501 1.9825 -1.6013 0.9675
7.8501 2.0342 -1.6038 0.9675
7.8372 2.0827 -1.6038 0.9675
7.1238 2.0831 -1.4679 0.9702
6.7633 2.0231 -1.3962 0.9716
6.1858 1.9340 -1.2818 0.9739
6.1858 1.9761 -1.2843 0.9739
6.0636 1.9785 -1.2615 0.9743
5.9390 1.9786 -1.2381 0.9748
5.3793 1.9789 -1.1336 0.9769
5.2785 1.9789 -1.1149 0.9773
4.9950 1.9791 -1.0626 0.9783
4.8202 1.9792 -1.0306 0.9790
4.7368 1.9792 -1.0153 0.9793
4.6557 1.9793 -1.0005 0.9796
4.5770 1.9793 -0.9862 0.9799
4.3537 1.9794 -0.9459 0.9807
4.2148 1.9795 -0.9209 0.9812
4.1480 1.9795 -0.9090 0.9814
4.0829 1.9796 -0.8974 0.9817
3.9576 1.9796 -0.8752 0.9821
3.8972 1.9797 -0.8645 0.9823
3.7246 1.9798 -0.8342 0.9829
3.6697 1.9798 -0.8247 0.9831
3.6161 1.9798 -0.8153 0.9833
3.5123 1.9799 -0.7974 0.9837
3.4622 1.9799 -0.7888 0.9839
3.4130 1.9799 -0.7804 0.9840
3.3650 1.9800 -0.7722 0.9842
3.3179 1.9800 -0.7642 0.9844
3.2718 1.9800 -0.7563 0.9845
3.1824 1.9801 -0.7413 0.9848
3.1389 1.9801 -0.7340 0.9850
3.0546 1.9801 -0.7200 0.9853
3.0137 1.9801 -0.7132 0.9854
2.9735 1.9802 -0.7065 0.9855
2.9340 1.9802 -0.7001 0.9857
2.8572 1.9802 -0.6875 0.9859
2.7831 1.9803 -0.6755 0.9862
2.6766 1.9803 -0.6585 0.9865
2.6423 1.9804 -0.6531 0.9866
2.5754 1.9804 -0.6425 0.9868
2.5106 1.9804 -0.6324 0.9870
2.4789 1.9804 -0.6275 0.9871
2.4477 1.9804 -0.6227 0.9872
2.3570 1.9805 -0.6089 0.9875
2.2987 1.9805 -0.6001 0.9877
2.2420 1.9806 -0.5917 0.9879
2.1869 1.9806 -0.5835 0.9880
2.1600 1.9806 -0.5796 0.9881
2.0812 1.9806 -0.5682 0.9884
2.0555 1.9807 -0.5646 0.9884
2.0303 1.9807 -0.5610 0.9885
2.0053 1.9807 -0.5574 0.9886
1.9807 1.9807 -0.5540 0.9886
1.9086 1.9807 -0.5440 0.9888
1.8851 1.9807 -0.5408 0.9889
1.8619 1.9808 -0.5376 0.9890
1.8390 1.9808 -0.5346 0.9890
1.8163 1.9808 -0.5315 0.9891
1.7281 1.9808 -0.5199 0.9893
1.6003 1.8807 -0.4884 0.9900
1.5803 1.8807 -0.4858 0.9900
1.5606 1.8807 -0.4833 0.9901
1.4836 1.8808 -0.4738 0.9903
1.4463 1.8808 -0.4692 0.9904
1.4279 1.8808 -0.4670 0.9904
1.4218 1.8971 -0.4689 0.9904
1.4219 1.9218 -0.4728 0.9903
1.4218 1.9469 -0.4768 0.9902
1.4219 1.9724 -0.4809 0.9901
1.4219 1.9983 -0.4851 0.9900
1.5220 2.1961 -0.5285 0.9892
1.5221 2.2254 -0.5332 0.9891
1.5221 2.2856 -0.5431 0.9889
1.5221 2.3480 -0.5534 0.9887
1.5221 2.3801 -0.5588 0.9885
1.5221 2.4129 -0.5642 0.9884
1.5221 2.4463 -0.5698 0.9883
1.5221 2.4804 -0.5756 0.9882
1.5221 2.5506 -0.5874 0.9880
1.5221 2.6238 -0.5999 0.9877
1.5221 2.7397 -0.6199 0.9873
1.5221 2.7801 -0.6268 0.9872
1.5221 2.9069 -0.6490 0.9867
1.5221 2.9511 -0.6567 0.9866
1.5221 3.0906 -0.6814 0.9861
1.5221 3.1394 -0.6900 0.9859
1.5221 3.1895 -0.6990 0.9857
1.5221 3.2937 -0.7176 0.9853
1.5221 3.3479 -0.7274 0.9851
1.5221 3.4037 -0.7374 0.9849
1.5221 3.4610 -0.7478 0.9847
1.5221 3.5199 -0.7584 0.9845
1.5221 3.8418 -0.8173 0.9833
1.5221 4.0602 -0.8576 0.9825
1.5222 4.2182 -0.8869 0.9819
1.5222 4.7650 -0.9893 0.9798
1.5222 5.0888 -1.0505 0.9786
1.5222 5.2059 -1.0727 0.9781
1.5222 5.3280 -1.0959 0.9777
1.5222 5.4555 -1.1202 0.9772
1.5222 5.5888 -1.1456 0.9767
1.5222 5.7283 -1.1722 0.9761
1.5222 5.8745 -1.2002 0.9756
1.5223 6.1887 -1.2605 0.9743
1.5223 6.9228 -1.4019 0.9715
1.5223 7.5918 -1.5314 0.9689
1.5223 8.7035 -1.7475 0.9646
1.5223 9.0323 -1.8116 0.9633
1.6186 10.3857 -2.0788 0.9580
1.5586 10.8835 -2.1744 0.9562
1.4899 10.8835 -2.1726 0.9562
1.4975 12.0453 -2.4006 0.9517
1.4228 12.0533 -2.4004 0.9517
1.1987 12.0746 -2.3998 0.9517
1.0491 12.0865 -2.3994 0.9517
0.9743 12.0918 -2.3992 0.9517
0.8245 12.1009 -2.3988 0.9517
0.7496 12.1047 -2.3986 0.9518
0.6746 12.1081 -2.3984 0.9518
0.4498 12.1154 -2.3978 0.9518
0.3748 12.1169 -2.3976 0.9518
0.2998 12.1180 -2.3974 0.9518
0.2249 12.1186 -2.3972 0.9518
0.0000 12.1176 -2.3966 0.9518
-0.0749 12.1163 -2.3963 0.9518
-0.1498 12.1146 -2.3961 0.9518
-0.2247 12.1124 -2.3959 0.9518
-0.2996 12.1097 -2.3957 0.9518
-0.5241 12.0990 -2.3951 0.9518
-0.6736 12.0895 -2.3947 0.9518
-0.9721 12.0650 -2.3939 0.9518
-1.1954 12.0418 -2.3933 0.9519
-1.2697 12.0331 -2.3931 0.9519
-1.3440 12.0240 -2.3929 0.9519
-1.4182 12.0145 -2.3927 0.9519
-1.4923 12.0044 -2.3924 0.9519
-1.5664 11.9939 -2.3922 0.9519
-1.6404 11.9830 -2.3920 0.9519
-2.0828 11.9078 -2.3908 0.9519
-2.1562 11.8936 -2.3906 0.9519
-2.5218 11.8162 -2.3896 0.9519
-2.8124 11.7466 -2.3888 0.9519
-2.8848 11.7282 -2.3887 0.9519
-3.0292 11.6900 -2.3884 0.9520
-3.1012 11.6703 -2.3882 0.9520
-3.1732 11.6501 -2.3880 0.9520
-3.3881 11.5870 -2.3876 0.9520
-3.4594 11.5650 -2.3874 0.9520
-3.5306 11.5427 -2.3873 0.9520
-3.6017 11.5198 -2.3871 0.9520
-3.7434 11.4729 -2.3868 0.9520
-3.8141 11.4488 -2.3866 0.9520
-3.8846 11.4242 -2.3865 0.9520
-4.0250 11.3739 -2.3862 0.9520
-4.2345 11.2950 -2.3857 0.9520
-4.4425 11.2124 -2.3852 0.9520
-4.5114 11.1840 -2.3851 0.9520
-4.7855 11.0662 -2.3845 0.9520
-5.0565 10.9417 -2.3839 0.9520
-5.1237 10.9095 -2.3837 0.9520
-5.4569 10.7426 -2.3830 0.9521
-5.5229 10.7080 -2.3829 0.9521
-5.5887 10.6730 -2.3827 0.9521
-5.6542 10.6376 -2.3826 0.9521
-5.7195 10.6018 -2.3824 0.9521
-5.7846 10.5655 -2.3823 0.9521
-5.9142 10.4920 -2.3820 0.9521
-6.1067 10.3786 -2.3816 0.9521
-6.1704 10.3400 -2.3814 0.9521
-6.2339 10.3010 -2.3813 0.9521
-6.2971 10.2617 -2.3812 0.9521
-6.6711 10.0176 -2.3803 0.9521
-6.7937 9.9331 -2.3801 0.9521
-6.8546 9.8904 -2.3799 0.9521
-7.0956 9.7156 -2.3794 0.9521
-7.2144 9.6261 -2.3791 0.9521
-7.2734 9.5808 -2.3790 0.9521
-7.3905 9.4890 -2.3788 0.9521
-7.4487 9.4426 -2.3786 0.9521
-7.5066 9.3959 -2.3785 0.9521
-7.6783 9.2535 -2.3781 0.9522
-7.7350 9.2054 -2.3780 0.9522
-7.7914 9.1569 -2.3779 0.9522
-7.9032 9.0589 -2.3776 0.9522
-7.9587 9.0094 -2.3775 0.9522
-8.0138 8.9595 -2.3774 0.9522
-8.0687 8.9093 -2.3773 0.9522
-8.1232 8.8588 -2.3771 0.9522
-8.2313 8.7568 -2.3769 0.9522
-8.2849 8.7053 -2.3768 0.9522
-8.6509 8.3358 -2.3760 0.9522
-8.7019 8.2817 -2.3759 0.9522
-8.8528 8.1177 -2.3755 0.9522
-8.9024 8.0624 -2.3754 0.9522
-8.9517 8.0069 -2.3753 0.9522
-9.0007 7.9510 -2.3752 0.9522
-9.1929 7.7246 -2.3748 0.9522
-9.2401 7.6672 -2.3747 0.9522
-9.2869 7.6096 -2.3746 0.9522
-9.4253 7.4350 -2.3743 0.9522
-9.5157 7.3173 -2.3741 0.9522
-9.6047 7.1984 -2.3739 0.9522
-9.6486 7.1386 -2.3738 0.9522
-9.7354 7.0182 -2.3736 0.9522
-10.0269 6.5883 -2.3728 0.9523
-10.0670 6.5258 -2.3727 0.9523
-10.1067 6.4631 -2.3726 0.9523
-10.2234 6.2737 -2.3723 0.9523
-10.2615 6.2100 -2.3722 0.9523
-10.3736 6.0178 -2.3719 0.9523
-10.4463 5.8885 -2.3717 0.9523
-10.6549 5.4955 -2.3711 0.9523
-10.6882 5.4293 -2.3710 0.9523
-10.8488 5.0952 -2.3705 0.9523
-10.9102 4.9603 -2.3703 0.9523
-10.9698 4.8246 -2.3701 0.9523
-10.9990 4.7565 -2.3700 0.9523
-11.0842 4.5511 -2.3698 0.9523
-11.1117 4.4823 -2.3697 0.9523
-11.1655 4.3443 -2.3695 0.9523
-11.2177 4.2056 -2.3694 0.9523
-11.2431 4.1360 -2.3693 0.9523
-11.2681 4.0662 -2.3692 0.9523
-11.3405 3.8561 -2.3690 0.9523
-11.3866 3.7153 -2.3688 0.9523
-11.4090 3.6447 -2.3688 0.9523
-11.4525 3.5031 -2.3686 0.9523
-11.4737 3.4321 -2.3686 0.9523
-11.4943 3.3610 -2.3685 0.9523
-11.5146 3.2898 -2.3684 0.9523
-11.5344 3.2184 -2.3684 0.9523
-11.5537 3.1470 -2.3683 0.9523
-11.5727 3.0753 -2.3682 0.9523
-11.5911 3.0036 -2.3682 0.9523
-11.6092 2.9318 -2.3681 0.9524
-11.6268 2.8599 -2.3680 0.9524
-11.6607 2.7158 -2.3679 0.9524
-11.6928 2.5712 -2.3678 0.9524
-11.7082 2.4988 -2.3678 0.9524
-11.7232 2.4263 -2.3677 0.9524
-11.7377 2.3536 -2.3676 0.9524
-11.7913 2.0624 -2.3674 0.9524
-11.8483 1.6967 -2.3672 0.9524
-11.8771 1.4766 -2.3671 0.9524
-11.8941 1.3295 -2.3670 0.9524
-11.9019 1.2559 -2.3670 0.9524
-11.9162 1.1086 -2.3669 0.9524
-11.9226 1.0348 -2.3669 0.9524
-11.9393 0.8134 -2.3668 0.9524
-11.9481 0.6657 -2.3667 0.9524
-11.9552 0.5179 -2.3667 0.9524
-11.9580 0.4439 -2.3666 0.9524
-11.9638 0.2220 -2.3666 0.9524
-11.9649 0.1480 -2.3665 0.9524
-11.9654 0.0740 -2.3665 0.9524
-11.5206 -0.0712 -2.3676 0.9540
-11.5150 -0.3562 -2.3675 0.9540
-11.5063 -0.5697 -2.3675 0.9540
-11.5025 -0.6409 -2.3675 0.9540
-11.4983 -0.7120 -2.3674 0.9540
-11.4936 -0.7831 -2.3674 0.9540
-11.4885 -0.8541 -2.3674 0.9540
-11.4830 -0.9252 -2.3674 0.9540
-11.4770 -0.9962 -2.3674 0.9540
-11.4638 -1.1380 -2.3674 0.9540
-11.4566 -1.2089 -2.3674 0.9540
-11.4407 -1.3505 -2.3674 0.9540
-11.4322 -1.4212 -2.3674 0.9540
-11.3829 -1.7740 -2.3675 0.9540
-11.3718 -1.8444 -2.3675 0.9540
-11.3358 -2.0551 -2.3675 0.9540
-11.3096 -2.1951 -2.3675 0.9540
-11.2817 -2.3349 -2.3676 0.9540
-11.2672 -2.4046 -2.3676 0.9540
-11.2367 -2.5438 -2.3676 0.9540
-11.1879 -2.7519 -2.3677 0.9540
-11.1708 -2.8211 -2.3677 0.9540
-11.1169 -3.0280 -2.3678 0.9540
-11.0981 -3.0967 -2.3678 0.9540
-11.0789 -3.1653 -2.3678 0.9540
-11.0592 -3.2338 -2.3679 0.9540
-11.0392 -3.3021 -2.3679 0.9540
-10.9977 -3.4385 -2.3679 0.9540
-10.8870 -3.7772 -2.3681 0.9540
-10.8635 -3.8447 -2.3682 0.9540
-10.8155 -3.9788 -2.3682 0.9540
-10.7659 -4.1123 -2.3683 0.9540
-10.7404 -4.1790 -2.3684 0.9540
-10.7146 -4.2454 -2.3684 0.9540
-10.6617 -4.3777 -2.3685 0.9540
-10.5224 -4.7057 -2.3688 0.9540
-10.4038 -4.9650 -2.3690 0.9540
-10.3731 -5.0293 -2.3690 0.9540
-10.3421 -5.0935 -2.3691 0.9540
-10.3106 -5.1575 -2.3692 0.9540
-10.2787 -5.2213 -2.3692 0.9540
-10.2139 -5.3483 -2.3693 0.9540
-10.1810 -5.4115 -2.3694 0.9540
-10.1476 -5.4745 -2.3695 0.9540
-10.1138 -5.5373 -2.3695 0.9540
-10.0796 -5.5999 -2.3696 0.9540
-10.0451 -5.6623 -2.3697 0.9540
-9.9749 -5.7865 -2.3698 0.9540
-9.9392 -5.8482 -2.3699 0.9540
-9.9031 -5.9097 -2.3699 0.9540
-9.8667 -5.9711 -2.3700 0.9540
-9.8299 -6.0321 -2.3701 0.9540
-9.7927 -6.0930 -2.3702 0.9540
-9.7552 -6.1537 -2.3702 0.9540
-9.7172 -6.2140 -2.3703 0.9540
-9.6789 -6.2742 -2.3704 0.9540
-9.6403 -6.3342 -2.3705 0.9540
-9.5221 -6.5126 -2.3707 0.9540
-9.4414 -6.6303 -2.3709 0.9540
-9.3594 -6.7471 -2.3710 0.9540
-9.3178 -6.8051 -2.3711 0.9540
-9.2336 -6.9203 -2.3713 0.9540
-9.1046 -7.0912 -2.3716 0.9540
-9.0610 -7.1477 -2.3717 0.9540
-9.0170 -7.2038 -2.3718 0.9540
-8.8375 -7.4258 -2.3721 0.9540
-8.7917 -7.4807 -2.3722 0.9540
-8.6525 -7.6434 -2.3725 0.9539
-8.5580 -7.7505 -2.3727 0.9539
-8.5103 -7.8037 -2.3728 0.9539
-8.4138 -7.9090 -2.3730 0.9539
-8.1671 -8.1672 -2.3736 0.9539
-8.1168 -8.2179 -2.3737 0.9539
-8.0662 -8.2684 -2.3738 0.9539
-8.0153 -8.3184 -2.3739 0.9539
-7.8608 -8.4669 -2.3742 0.9539
-7.7562 -8.5644 -2.3745 0.9539
-7.7035 -8.6124 -2.3746 0.9539
-7.5435 -8.7552 -2.3749 0.9539
-7.4896 -8.8022 -2.3751 0.9539
-7.4354 -8.8488 -2.3752 0.9539
-7.3261 -8.9409 -2.3754 0.9539
-7.1042 -9.1213 -2.3759 0.9539
-7.0480 -9.1656 -2.3760 0.9539
-6.9348 -9.2530 -2.3763 0.9539
-6.8779 -9.2962 -2.3764 0.9539
-6.8206 -9.3391 -2.3765 0.9539
-6.5889 -9.5070 -2.3771 0.9539
-6.3532 -9.6692 -2.3776 0.9539
-6.2936 -9.7088 -2.3777 0.9539
-6.1135 -9.8256 -2.3781 0.9538
-6.0529 -9.8638 -2.3783 0.9538
-5.9312 -9.9391 -2.3785 0.9538
-5.8084 -10.0128 -2.3788 0.9538
-5.6227 -10.1206 -2.3792 0.9538
-5.4349 -10.2250 -2.3797 0.9538
-5.3719 -10.2591 -2.3798 0.9538
-5.3087 -10.2928 -2.3799 0.9538
-5.2453 -10.3260 -2.3801 0.9538
-5.1816 -10.3589 -2.3802 0.9538
-5.1177 -10.3913 -2.3804 0.9538
-5.0537 -10.4234 -2.3805 0.9538
-4.9250 -10.4864 -2.3808 0.9538
-4.7305 -10.5780 -2.3813 0.9538
-4.6653 -10.6077 -2.3814 0.9538
-4.5999 -10.6370 -2.3816 0.9538
-4.4686 -10.6945 -2.3819 0.9538
-4.4026 -10.7226 -2.3820 0.9538
-4.3365 -10.7503 -2.3822 0.9538
-4.1371 -10.8310 -2.3826 0.9538
-4.0703 -10.8571 -2.3828 0.9538
-3.9362 -10.9080 -2.3831 0.9537
-3.7339 -10.9813 -2.3836 0.9537
-3.5983 -11.0281 -2.3839 0.9537
-3.3938 -11.0952 -2.3844 0.9537
-3.3253 -11.1167 -2.3845 0.9537
-3.2567 -11.1378 -2.3847 0.9537
-3.1880 -11.1585 -2.3848 0.9537
-3.1192 -11.1787 -2.3850 0.9537
-3.0502 -11.1986 -2.3852 0.9537
-2.9811 -11.2180 -2.3853 0.9537
-2.8425 -11.2555 -2.3856 0.9537
-2.7034 -11.2913 -2.3860 0.9537
-2.4940 -11.3419 -2.3865 0.9537
-2.2836 -11.3886 -2.3870 0.9537
-2.2133 -11.4033 -2.3871 0.9537
-2.1429 -11.4176 -2.3873 0.9537
-2.0724 -11.4314 -2.3875 0.9537
-1.9311 -11.4577 -2.3878 0.9537
-1.8604 -11.4703 -2.3880 0.9537
-1.7895 -11.4824 -2.3881 0.9537
-1.5765 -11.5160 -2.3886 0.9536
-1.3629 -11.5457 -2.3891 0.9536
-1.2915 -11.5548 -2.3893 0.9536
-1.2202 -11.5634 -2.3895 0.9536
-0.9340 -11.5933 -2.3902 0.9536
-0.7190 -11.6111 -2.3907 0.9536
-0.6472 -11.6162 -2.3909 0.9536
-0.4316 -11.6287 -2.3914 0.9536
-0.2159 -11.6372 -2.3919 0.9536
-0.0720 -11.6407 -2.3922 0.9536
0.0000 -11.6418 -2.3924 0.9536
0.1441 -11.6426 -2.3928 0.9536
0.2161 -11.6423 -2.3929 0.9536
0.5761 -11.6343 -2.3938 0.9535
0.6481 -11.6314 -2.3940 0.9535
0.7201 -11.6280 -2.3941 0.9535
0.7920 -11.6242 -2.3943 0.9535
0.8640 -11.6199 -2.3945 0.9535
0.9359 -11.6152 -2.3947 0.9535
1.0796 -11.6044 -2.3950 0.9535
1.5100 -11.5614 -2.3961 0.9535
1.5816 -11.5527 -2.3962 0.9535
1.6697 -10.7137 -2.2283 0.9567
1.6119 -9.5639 -1.9931 0.9612
1.6127 -9.2202 -1.9235 0.9625
1.6130 -8.8975 -1.8583 0.9637
1.6133 -8.5960 -1.7973 0.9649
1.6148 -7.1331 -1.5030 0.9706
1.6154 -6.5674 -1.3898 0.9728
1.6157 -6.2352 -1.3237 0.9740
1.6166 -5.4042 -1.1592 0.9772
1.5649 -5.0052 -1.0777 0.9788
1.6170 -4.9558 -1.0713 0.9789
1.6171 -4.8541 -1.0514 0.9793
1.6175 -4.4823 -0.9793 0.9807
1.6177 -4.3149 -0.9470 0.9814
1.6177 -4.2352 -0.9317 0.9817
1.6179 -4.0833 -0.9026 0.9822
1.6180 -3.9407 -0.8754 0.9828
1.6182 -3.8063 -0.8500 0.9833
1.6182 -3.7420 -0.8378 0.9835
1.6183 -3.6795 -0.8261 0.9837
1.6184 -3.5596 -0.8036 0.9842
1.6185 -3.4461 -0.7824 0.9846
1.6186 -3.3916 -0.7723 0.9848
1.6186 -3.3384 -0.7624 0.9850
1.6188 -3.1867 -0.7345 0.9855
1.6188 -3.0916 -0.7172 0.9859
1.6192 -2.7518 -0.6561 0.9870
1.6192 -2.7134 -0.6493 0.9872
1.6192 -2.6757 -0.6427 0.9873
1.6193 -2.6388 -0.6362 0.9874
1.6194 -2.5671 -0.6237 0.9877
1.6194 -2.4982 -0.6118 0.9879
1.6195 -2.4319 -0.6004 0.9881
1.6195 -2.3996 -0.5949 0.9882
1.6196 -2.3679 -0.5895 0.9884
1.6766 -2.3258 -0.5892 0.9884
1.6986 -2.3258 -0.5918 0.9883
1.7207 -2.3258 -0.5945 0.9883
1.7431 -2.3258 -0.5973 0.9882
1.7657 -2.3258 -0.6001 0.9881
1.8347 -2.3258 -0.6088 0.9880
1.8581 -2.3258 -0.6118 0.9879
1.8818 -2.3258 -0.6148 0.9879
1.9544 -2.3259 -0.6243 0.9877
2.0292 -2.3259 -0.6343 0.9875
2.0805 -2.3260 -0.6413 0.9873
2.1065 -2.3260 -0.6449 0.9873
2.1329 -2.3260 -0.6485 0.9872
2.1864 -2.3260 -0.6560 0.9870
2.2413 -2.3261 -0.6638 0.9869
2.3261 -2.3261 -0.6760 0.9867
2.3551 -2.3261 -0.6802 0.9866
2.3844 -2.3261 -0.6845 0.9865
2.4442 -2.3262 -0.6934 0.9863
2.4747 -2.3262 -0.6980 0.9862
2.5056 -2.3262 -0.7026 0.9861
2.6008 -2.3262 -0.7171 0.9859
2.6665 -2.3263 -0.7272 0.9857
2.7686 -2.3263 -0.7431 0.9853
2.8036 -2.3264 -0.7487 0.9852
2.8392 -2.3264 -0.7543 0.9851
2.9120 -2.3264 -0.7659 0.9849
2.9871 -2.3265 -0.7781 0.9847
3.0255 -2.3265 -0.7843 0.9845
3.0645 -2.3265 -0.7907 0.9844
3.1043 -2.3265 -0.7972 0.9843
3.1446 -2.3265 -0.8039 0.9842
3.1857 -2.3266 -0.8107 0.9840
3.2699 -2.3266 -0.8247 0.9837
3.3408 -2.3154 -0.8353 0.9835
3.3485 -2.2902 -0.8337 0.9836
3.3745 -2.2472 -0.8332 0.9836
3.5412 -2.3268 -0.8708 0.9828
3.9548 -2.3270 -0.9430 0.9814
4.0114 -2.3270 -0.9530 0.9812
4.3784 -2.3272 -1.0190 0.9800
4.4445 -2.3273 -1.0310 0.9797
4.5123 -2.3273 -1.0434 0.9795
4.8005 -2.3275 -1.0963 0.9784
4.9558 -2.3275 -1.1252 0.9779
5.0367 -2.3276 -1.1402 0.9776
5.1196 -2.3276 -1.1557 0.9773
5.2050 -2.3277 -1.1717 0.9770
5.6697 -2.3279 -1.2595 0.9753
5.8758 -2.3280 -1.2988 0.9745
5.9837 -2.3281 -1.3195 0.9741
6.0952 -2.3282 -1.3408 0.9737
6.2834 -2.3114 -1.3758 0.9730
6.8415 -2.3736 -1.4881 0.9709
7.1580 -2.4339 -1.5537 0.9696
7.3062 -2.4340 -1.5826 0.9690
7.4291 -2.4240 -1.6059 0.9686
7.4442 -2.3781 -1.6059 0.9686
7.6070 -2.3784 -1.6379 0.9680
8.3484 -2.3294 -1.7811 0.9652
9.4851 -2.3954 -2.0104 0.9608
11.4473 -2.8157 -2.4226 0.9530
11.4649 -2.7450 -2.4226 0.9530
11.4820 -2.6741 -2.4227 0.9530
11.5148 -2.5320 -2.4228 0.9530
11.5306 -2.4608 -2.4229 0.9530
11.5459 -2.3896 -2.4230 0.9530
11.5607 -2.3182 -2.4230 0.9530
11.5752 -2.2467 -2.4231 0.9530
11.6157 -2.0317 -2.4233 0.9530
11.6284 -1.9599 -2.4233 0.9530
11.6405 -1.8880 -2.4234 0.9530
11.6744 -1.6718 -2.4236 0.9530
11.6847 -1.5996 -2.4236 0.9530
11.6947 -1.5273 -2.4237 0.9530
11.7131 -1.3826 -2.4238 0.9530
11.7375 -1.1652 -2.4239 0.9530
11.7514 -1.0200 -2.4240 0.9530
11.7635 -0.8746 -2.4241 0.9530
11.7689 -0.8018 -2.4241 0.9530
11.7738 -0.7290 -2.4242 0.9530
11.7858 -0.5105 -2.4243 0.9530
11.7916 -0.3647 -2.4243 0.9530
11.7937 -0.2918 -2.4244 0.9530
11.7955 -0.2189 -2.4244 0.9530
11.7967 -0.1459 -2.4244 0.9530
11.7976 -0.0729 -2.4245 0.9530
11.7978 0.0730 -2.4245 0.9530
11.7948 0.2918 -2.4246 0.9530
11.7904 0.4377 -2.4246 0.9530
11.7876 0.5106 -2.4246 0.9530
11.7609 0.9476 -2.4247 0.9530
11.7548 1.0203 -2.4247 0.9530
11.7484 1.0930 -2.4247 0.9530
11.7414 1.1656 -2.4247 0.9530
11.7261 1.3107 -2.4247 0.9530
11.7179 1.3832 -2.4247 0.9530
11.6901 1.6004 -2.4247 0.9530
11.6349 1.9610 -2.4247 0.9530
11.6226 2.0329 -2.4247 0.9530
11.6097 2.1047 -2.4247 0.9530
11.5685 2.3197 -2.4247 0.9530
9.4052 2.0073 -1.9763 0.9615
9.1643 2.0152 -1.9283 0.9624
8.2584 1.9773 -1.7451 0.9659
7.8499 1.9309 -1.6612 0.9675
7.8499 1.9824 -1.6638 0.9675
7.6334 2.0285 -1.6231 0.9683
7.5455 2.0552 -1.6071 0.9686
7.3523 2.0515 -1.5686 0.9693
7.2906 2.0830 -1.5582 0.9695
7.1238 2.0831 -1.5253 0.9701
6.7633 2.0231 -1.4507 0.9716
6.7217 2.0560 -1.4445 0.9717
6.1856 1.9340 -1.3318 0.9739
5.9390 1.9786 -1.2864 0.9748
5.8190 1.9786 -1.2630 0.9752
5.7032 1.9787 -1.2405 0.9756
5.5915 1.9787 -1.2189 0.9761
5.4836 1.9788 -1.1980 0.9765
5.3793 1.9788 -1.1779 0.9769
5.2785 1.9789 -1.1585 0.9772
5.1809 1.9790 -1.1397 0.9776
4.9949 1.9791 -1.1041 0.9783
4.9062 1.9791 -1.0872 0.9786
4.4261 1.9794 -0.9964 0.9804
4.3537 1.9794 -0.9828 0.9807
4.2147 1.9795 -0.9569 0.9812
4.1479 1.9795 -0.9445 0.9814
4.0829 1.9796 -0.9325 0.9816
3.9576 1.9796 -0.9094 0.9821
3.8383 1.9797 -0.8875 0.9825
3.6697 1.9798 -0.8569 0.9831
3.6161 1.9798 -0.8472 0.9833
3.5124 1.9799 -0.8286 0.9837
3.4622 1.9799 -0.8196 0.9838
3.4130 1.9799 -0.8109 0.9840
3.2886 1.9625 -0.7870 0.9845
3.2718 1.9800 -0.7859 0.9845
3.2266 1.9800 -0.7780 0.9847
3.1389 1.9801 -0.7627 0.9850
3.0137 1.9801 -0.7410 0.9854
2.9735 1.9802 -0.7341 0.9855
2.9340 1.9802 -0.7274 0.9856
2.8953 1.9802 -0.7208 0.9858
2.7831 1.9803 -0.7019 0.9861
2.7470 1.9803 -0.6959 0.9863
2.7115 1.9803 -0.6900 0.9864
2.6086 1.9804 -0.6730 0.9867
2.5754 1.9804 -0.6676 0.9868
2.5427 1.9804 -0.6623 0.9869
2.4789 1.9804 -0.6520 0.9871
2.4477 1.9805 -0.6470 0.9872
2.3868 1.9805 -0.6374 0.9874
2.2986 1.9805 -0.6235 0.9877
2.2701 1.9805 -0.6191 0.9878
2.2420 1.9805 -0.6148 0.9879
2.1071 1.9806 -0.5943 0.9883
2.0811 1.9806 -0.5904 0.9883
2.0053 1.9807 -0.5792 0.9886
1.9563 1.9807 -0.5721 0.9887
1.8851 1.9807 -0.5619 0.9889
1.7717 1.9808 -0.5461 0.9892
1.7498 1.9808 -0.5431 0.9893
1.7281 1.9808 -0.5402 0.9893
1.7067 1.9808 -0.5373 0.9894
1.6855 1.9809 -0.5345 0.9894
1.6645 1.9809 -0.5317 0.9895
1.6231 1.9809 -0.5263 0.9896
1.5826 1.9809 -0.5210 0.9897
1.4836 1.8808 -0.4923 0.9903
1.4649 1.8808 -0.4899 0.9903
1.4463 1.8808 -0.4876 0.9904
1.4279 1.8808 -0.4853 0.9904
1.4218 1.8971 -0.4872 0.9904
1.4218 1.9217 -0.4913 0.9903
1.5220 2.0840 -0.5303 0.9895
1.5220 2.1390 -0.5395 0.9893
1.5220 2.1673 -0.5442 0.9892
1.5220 2.1960 -0.5491 0.9891
1.5220 2.3164 -0.5696 0.9887
1.5220 2.3479 -0.5750 0.9886
1.5220 2.3800 -0.5806 0.9885
1.5220 2.4128 -0.5862 0.9884
1.5220 2.4803 -0.5980 0.9882
1.5220 2.5150 -0.6041 0.9881
1.5220 2.5505 -0.6104 0.9879
1.5220 2.6615 -0.6301 0.9876
1.5220 2.7800 -0.6513 0.9871
1.5220 2.8635 -0.6664 0.9868
1.5221 2.9067 -0.6743 0.9867
1.5221 2.9964 -0.6906 0.9864
1.5221 3.0905 -0.7079 0.9860
1.5221 3.1393 -0.7170 0.9859
1.5221 3.1894 -0.7262 0.9857
1.5221 3.2408 -0.7358 0.9855
1.5221 3.4035 -0.7662 0.9849
1.5221 3.4608 -0.7769 0.9847
1.5221 3.7070 -0.8235 0.9838
1.5221 3.7733 -0.8361 0.9835
1.5221 3.9121 -0.8626 0.9830
1.5221 4.1377 -0.9060 0.9822
1.5221 4.3011 -0.9376 0.9815
1.5221 4.4764 -0.9716 0.9809
1.5203 4.6593 -1.0072 0.9802
1.4608 4.6722 -1.0060 0.9802
1.5221 5.0885 -1.0915 0.9785
1.5221 5.2055 -1.1145 0.9781
1.5221 5.5884 -1.1903 0.9766
1.5221 6.0273 -1.2775 0.9749
1.5221 6.1882 -1.3096 0.9743
1.5221 6.7237 -1.4167 0.9722
1.5221 7.3548 -1.5434 0.9698
1.5222 7.8423 -1.6417 0.9679
1.5221 8.1102 -1.6957 0.9669
1.5222 8.3962 -1.7536 0.9658
1.6186 10.3857 -2.1600 0.9580
1.6064 10.7440 -2.2324 0.9566
1.5399 10.7529 -2.2323 0.9566
1.4732 10.7614 -2.2321 0.9566
1.4410 11.5910 -2.4003 0.9534
1.2973 11.6060 -2.3999 0.9534
1.2254 11.6129 -2.3997 0.9534
1.0815 11.6253 -2.3993 0.9534
0.9375 11.6359 -2.3989 0.9534
0.7213 11.6484 -2.3984 0.9535
0.6492 11.6517 -2.3982 0.9535
0.5771 11.6546 -2.3980 0.9535
0.5050 11.6569 -2.3978 0.9535
0.2886 11.6615 -2.3972 0.9535
-0.0721 11.6600 -2.3962 0.9535
-0.1442 11.6584 -2.3960 0.9535
-0.2163 11.6563 -2.3958 0.9535
-0.5763 11.6393 -2.3948 0.9535
-0.8637 11.6176 -2.3940 0.9535
-0.9355 11.6111 -2.3938 0.9535
-1.0072 11.6041 -2.3936 0.9535
-1.0788 11.5967 -2.3934 0.9536
-1.2220 11.5806 -2.3930 0.9536
-1.2935 11.5719 -2.3928 0.9536
-1.4362 11.5531 -2.3924 0.9536
-1.5076 11.5430 -2.3922 0.9536
-1.5788 11.5325 -2.3920 0.9536
-1.6499 11.5216 -2.3919 0.9536
-1.7210 11.5102 -2.3917 0.9536
-1.8629 11.4861 -2.3913 0.9536
-2.0752 11.4468 -2.3907 0.9536
-2.4972 11.3563 -2.3895 0.9536
-2.9156 11.2517 -2.3886 0.9536
-3.0542 11.2133 -2.3883 0.9536
-3.1233 11.1935 -2.3881 0.9537
-3.1922 11.1732 -2.3880 0.9537
-3.2610 11.1526 -2.3878 0.9537
-3.4668 11.0881 -2.3874 0.9537
-3.5350 11.0657 -2.3872 0.9537
-3.6032 11.0430 -2.3871 0.9537
-3.8742 10.9477 -2.3865 0.9537
-3.9416 10.9229 -2.3863 0.9537
-4.0088 10.8976 -2.3862 0.9537
-4.2095 10.8194 -2.3858 0.9537
-4.3425 10.7651 -2.3855 0.9537
-4.4087 10.7374 -2.3853 0.9537
-4.4748 10.7093 -2.3852 0.9537
-4.6063 10.6518 -2.3849 0.9537
-4.6718 10.6225 -2.3847 0.9537
-5.1250 10.4060 -2.3837 0.9537
-5.4427 10.2396 -2.3830 0.9537
-5.5056 10.2051 -2.3829 0.9538
-5.6929 10.0995 -2.3825 0.9538
-5.7550 10.0635 -2.3823 0.9538
-5.8783 9.9904 -2.3821 0.9538
-5.9396 9.9533 -2.3819 0.9538
-6.0007 9.9159 -2.3818 0.9538
-6.0616 9.8780 -2.3817 0.9538
-6.1222 9.8398 -2.3815 0.9538
-6.1827 9.8012 -2.3814 0.9538
-6.5398 9.5619 -2.3806 0.9538
-6.7150 9.4374 -2.3802 0.9538
-6.8304 9.3526 -2.3800 0.9538
-7.1145 9.1346 -2.3794 0.9538
-7.1705 9.0899 -2.3792 0.9538
-7.2262 9.0449 -2.3791 0.9538
-7.2816 8.9996 -2.3790 0.9538
-7.3367 8.9540 -2.3789 0.9538
-7.4462 8.8616 -2.3786 0.9538
-7.5004 8.8150 -2.3785 0.9538
-7.5544 8.7680 -2.3784 0.9538
-7.8199 8.5281 -2.3778 0.9538
-7.8722 8.4792 -2.3777 0.9539
-7.9241 8.4299 -2.3776 0.9539
-7.9757 8.3804 -2.3774 0.9539
-8.0270 8.3305 -2.3773 0.9539
-8.0779 8.2803 -2.3772 0.9539
-8.2787 8.0765 -2.3768 0.9539
-8.4744 7.8678 -2.3763 0.9539
-8.5703 7.7617 -2.3761 0.9539
-8.6178 7.7082 -2.3760 0.9539
-8.7117 7.6004 -2.3758 0.9539
-8.7581 7.5460 -2.3757 0.9539
-8.8043 7.4914 -2.3756 0.9539
-8.8500 7.4365 -2.3755 0.9539
-8.8955 7.3813 -2.3754 0.9539
-8.9406 7.3258 -2.3753 0.9539
-9.0298 7.2141 -2.3751 0.9539
-9.0738 7.1578 -2.3750 0.9539
-9.1175 7.1013 -2.3749 0.9539
-9.2039 6.9874 -2.3747 0.9539
-9.3309 6.8146 -2.3745 0.9539
-9.4546 6.6396 -2.3742 0.9539
-9.5353 6.5217 -2.3740 0.9539
-9.7302 6.2224 -2.3735 0.9539
-9.7680 6.1618 -2.3734 0.9539
-9.9872 5.7937 -2.3727 0.9539
-10.0225 5.7315 -2.3726 0.9539
-10.0918 5.6067 -2.3724 0.9540
-10.1595 5.4810 -2.3722 0.9540
-10.2582 5.2909 -2.3720 0.9540
-10.2903 5.2272 -2.3719 0.9540
-10.3220 5.1632 -2.3718 0.9540
-10.4148 4.9703 -2.3715 0.9540
-10.4747 4.8407 -2.3713 0.9540
-10.5330 4.7104 -2.3711 0.9540
-10.6175 4.5138 -2.3709 0.9540
-10.6983 4.3156 -2.3706 0.9540
-10.7244 4.2492 -2.3706 0.9540
-10.7754 4.1159 -2.3704 0.9540
-10.8003 4.0491 -2.3703 0.9540
-10.8248 3.9821 -2.3703 0.9540
-10.8489 3.9149 -2.3702 0.9540
-10.8725 3.8477 -2.3701 0.9540
-10.9186 3.7127 -2.3700 0.9540
-10.9410 3.6450 -2.3699 0.9540
-10.9630 3.5771 -2.3698 0.9540
-11.0058 3.4411 -2.3697 0.9540
-11.0668 3.2360 -2.3695 0.9540
-11.0863 3.1674 -2.3694 0.9540
-11.1054 3.0987 -2.3694 0.9540
-11.1423 2.9610 -2.3692 0.9540
-11.1601 2.8919 -2.3692 0.9540
-11.1775 2.8228 -2.3691 0.9540
-11.2581 2.4756 -2.3688 0.9540
-11.3149 2.1962 -2.3686 0.9540
-11.3407 2.0560 -2.3685 0.9540
-11.3530 1.9858 -2.3685 0.9540
-11.3872 1.7747 -2.3683 0.9540
-11.4520 1.2801 -2.3681 0.9540
-11.4595 1.2092 -2.3680 0.9540
-11.4795 0.9964 -2.3679 0.9540
-11.4853 0.9254 -2.3679 0.9540
-11.4906 0.8543 -2.3679 0.9540
-11.5000 0.7121 -2.3678 0.9540
-11.5077 0.5698 -2.3677 0.9540
-11.5108 0.4986 -2.3677 0.9540
-11.5159 0.3562 -2.3677 0.9540
-11.5178 0.2850 -2.3676 0.9540
-11.5202 0.1425 -2.3676 0.9540
-11.1069 0.0000 -2.3686 0.9556
-11.1032 -0.2747 -2.3685 0.9556
-11.1012 -0.3434 -2.3685 0.9556
-11.0928 -0.5492 -2.3685 0.9556
-11.0892 -0.6178 -2.3685 0.9556
-11.0851 -0.6864 -2.3684 0.9556
-11.0757 -0.8234 -2.3684 0.9556
-11.0585 -1.0288 -2.3684 0.9556
-11.0519 -1.0971 -2.3684 0.9556
-11.0449 -1.1655 -2.3684 0.9556
-11.0296 -1.3020 -2.3684 0.9556
-11.0214 -1.3702 -2.3684 0.9556
-11.0127 -1.4383 -2.3684 0.9556
-10.9941 -1.5744 -2.3684 0.9556
-10.9739 -1.7103 -2.3685 0.9556
-10.9631 -1.7781 -2.3685 0.9556
-10.9520 -1.8459 -2.3685 0.9556
-10.9404 -1.9136 -2.3685 0.9556
-10.9284 -1.9812 -2.3685 0.9556
-10.9160 -2.0488 -2.3685 0.9556
-10.9032 -2.1163 -2.3685 0.9556
-10.8900 -2.1837 -2.3685 0.9556
-10.8623 -2.3182 -2.3686 0.9556
-10.8329 -2.4524 -2.3686 0.9556
-10.8177 -2.5194 -2.3686 0.9556
-10.8020 -2.5863 -2.3686 0.9556
-10.7859 -2.6530 -2.3687 0.9556
-10.7694 -2.7197 -2.3687 0.9556
-10.7525 -2.7863 -2.3687 0.9556
-10.6992 -2.9854 -2.3688 0.9556
-10.6807 -3.0515 -2.3688 0.9556
-10.6618 -3.1176 -2.3689 0.9556
-10.6227 -3.2493 -2.3689 0.9556
-10.5819 -3.3805 -2.3690 0.9556
-10.5610 -3.4459 -2.3690 0.9556
-10.4958 -3.6414 -2.3691 0.9556
-10.4732 -3.7063 -2.3692 0.9556
-10.4502 -3.7711 -2.3692 0.9556
-10.3790 -3.9645 -2.3693 0.9556
-10.3545 -4.0287 -2.3694 0.9556
-10.3296 -4.0927 -2.3694 0.9556
-10.2259 -4.3474 -2.3696 0.9556
-10.1991 -4.4105 -2.3696 0.9556
-10.1718 -4.4737 -2.3697 0.9556
-10.1441 -4.5366 -2.3697 0.9556
-10.0590 -4.7242 -2.3699 0.9556
-10.0002 -4.8485 -2.3700 0.9556
-9.9399 -4.9722 -2.3701 0.9556
-9.9092 -5.0337 -2.3702 0.9556
-9.8781 -5.0949 -2.3702 0.9556
-9.8149 -5.2170 -2.3704 0.9556
-9.7827 -5.2778 -2.3704 0.9556
-9.7172 -5.3986 -2.3705 0.9556
-9.6839 -5.4587 -2.3706 0.9556
-9.6502 -5.5187 -2.3707 0.9556
-9.6162 -5.5783 -2.3707 0.9555
-9.5818 -5.6379 -2.3708 0.9555
-9.4405 -5.8739 -2.3711 0.9555
-9.3677 -5.9906 -2.3712 0.9555
-9.3308 -6.0486 -2.3713 0.9555
-9.2934 -6.1064 -2.3714 0.9555
-9.2178 -6.2213 -2.3715 0.9555
-9.1795 -6.2783 -2.3716 0.9555
-9.1018 -6.3918 -2.3718 0.9555
-8.9421 -6.6158 -2.3721 0.9555
-8.9014 -6.6712 -2.3722 0.9555
-8.8603 -6.7264 -2.3723 0.9555
-8.7770 -6.8360 -2.3724 0.9555
-8.7349 -6.8904 -2.3725 0.9555
-8.6496 -6.9985 -2.3727 0.9555
-8.5194 -7.1585 -2.3730 0.9555
-8.4752 -7.2115 -2.3731 0.9555
-8.4308 -7.2640 -2.3732 0.9555
-8.2956 -7.4200 -2.3735 0.9555
-8.2040 -7.5226 -2.3737 0.9555
-8.0639 -7.6745 -2.3740 0.9555
-8.0166 -7.7246 -2.3741 0.9555
-7.9691 -7.7744 -2.3742 0.9555
-7.9212 -7.8238 -2.3743 0.9555
-7.8245 -7.9219 -2.3745 0.9555
-7.6772 -8.0668 -2.3748 0.9555
-7.6275 -8.1145 -2.3749 0.9555
-7.4767 -8.2557 -2.3752 0.9555
-7.4259 -8.3022 -2.3753 0.9555
-7.3747 -8.3483 -2.3755 0.9555
-7.3233 -8.3942 -2.3756 0.9555
-7.2716 -8.4397 -2.3757 0.9555
-7.2196 -8.4849 -2.3758 0.9555
-7.1673 -8.5298 -2.3759 0.9555
-6.9555 -8.7062 -2.3764 0.9554
-6.7938 -8.8351 -2.3767 0.9554
-6.7394 -8.8774 -2.3769 0.9554
-6.6298 -8.9610 -2.3771 0.9554
-6.5191 -9.0432 -2.3773 0.9554
-6.4075 -9.1241 -2.3776 0.9554
-6.3512 -9.1640 -2.3777 0.9554
-6.2381 -9.2429 -2.3780 0.9554
-6.1811 -9.2818 -2.3781 0.9554
-6.1239 -9.3203 -2.3782 0.9554
-6.0088 -9.3964 -2.3785 0.9554
-5.9509 -9.4338 -2.3786 0.9554
-5.8928 -9.4710 -2.3787 0.9554
-5.8344 -9.5078 -2.3789 0.9554
-5.6580 -9.6160 -2.3793 0.9554
-5.4796 -9.7210 -2.3797 0.9554
-5.4197 -9.7552 -2.3798 0.9554
-5.2387 -9.8558 -2.3802 0.9554
-4.9944 -9.9847 -2.3808 0.9554
-4.8712 -10.0469 -2.3811 0.9554
-4.8092 -10.0774 -2.3812 0.9554
-4.6848 -10.1373 -2.3815 0.9554
-4.5596 -10.1957 -2.3818 0.9553
-4.4967 -10.2244 -2.3819 0.9553
-4.4337 -10.2526 -2.3821 0.9553
-4.3704 -10.2804 -2.3822 0.9553
-4.2435 -10.3350 -2.3825 0.9553
-4.1797 -10.3617 -2.3826 0.9553
-3.9875 -10.4394 -2.3831 0.9553
-3.6640 -10.5610 -2.3838 0.9553
-3.5989 -10.5841 -2.3840 0.9553
-3.5336 -10.6069 -2.3841 0.9553
-3.2710 -10.6937 -2.3848 0.9553
-3.2050 -10.7145 -2.3849 0.9553
-3.0726 -10.7546 -2.3852 0.9553
-2.9397 -10.7933 -2.3855 0.9553
-2.8732 -10.8119 -2.3857 0.9553
-2.8064 -10.8302 -2.3858 0.9553
-2.7396 -10.8481 -2.3860 0.9553
-2.6726 -10.8655 -2.3862 0.9553
-2.6055 -10.8826 -2.3863 0.9553
-2.5383 -10.8992 -2.3865 0.9553
-2.4711 -10.9154 -2.3866 0.9553
-2.4036 -10.9312 -2.3868 0.9553
-2.3362 -10.9466 -2.3869 0.9553
-2.2686 -10.9615 -2.3871 0.9553
-2.2009 -10.9761 -2.3873 0.9552
-1.9293 -11.0302 -2.3879 0.9552
-1.7929 -11.0547 -2.3882 0.9552
-1.7246 -11.0663 -2.3884 0.9552
-1.5879 -11.0883 -2.3887 0.9552
-1.5193 -11.0986 -2.3889 0.9552
-1.4508 -11.1086 -2.3890 0.9552
-1.3135 -11.1272 -2.3894 0.9552
-1.1759 -11.1441 -2.3897 0.9552
-1.1071 -11.1519 -2.3899 0.9552
-0.9691 -11.1663 -2.3902 0.9552
-0.9002 -11.1729 -2.3904 0.9552
-0.8311 -11.1790 -2.3905 0.9552
-0.6929 -11.1900 -2.3909 0.9552
-0.6237 -11.1948 -2.3910 0.9552
-0.3467 -11.2099 -2.3917 0.9552
-0.2774 -11.2126 -2.3918 0.9552
-0.1387 -11.2168 -2.3922 0.9552
0.0000 -11.2192 -2.3925 0.9552
0.1388 -11.2199 -2.3928 0.9551
0.2082 -11.2196 -2.3930 0.9551
0.2776 -11.2189 -2.3932 0.9551
0.4164 -11.2162 -2.3935 0.9551
0.6245 -11.2089 -2.3940 0.9551
0.6939 -11.2056 -2.3942 0.9551
0.8326 -11.1977 -2.3945 0.9551
0.9711 -11.1882 -2.3949 0.9551
1.2479 -11.1639 -2.3955 0.9551
1.3861 -11.1491 -2.3959 0.9551
1.5595 -10.4299 -2.2489 0.9578
1.6090 -10.3240 -2.2282 0.9582
1.6119 -9.5639 -2.0683 0.9611
1.6132 -8.5951 -1.8649 0.9649
1.6135 -8.3128 -1.8058 0.9660
1.6137 -8.0478 -1.7504 0.9670
1.6140 -7.7986 -1.6983 0.9680
1.6149 -6.9340 -1.5182 0.9713
1.6151 -6.7457 -1.4792 0.9720
1.6154 -6.3967 -1.4069 0.9734
1.6156 -6.2347 -1.3735 0.9740
1.5643 -5.7433 -1.2694 0.9759
1.5702 -5.3699 -1.1931 0.9774
1.5383 -5.0290 -1.1215 0.9787
1.5649 -5.0052 -1.1183 0.9788
1.6169 -4.9555 -1.1116 0.9789
1.6170 -4.8538 -1.0910 0.9793
1.6172 -4.6613 -1.0522 0.9800
1.6173 -4.5701 -1.0338 0.9804
1.6175 -4.3970 -0.9991 0.9810
1.6177 -4.2350 -0.9668 0.9816
1.6178 -4.0831 -0.9366 0.9822
1.6179 -3.9405 -0.9084 0.9827
1.6180 -3.8723 -0.8950 0.9830
1.6181 -3.8061 -0.8820 0.9832
1.6182 -3.6794 -0.8572 0.9837
1.6183 -3.6186 -0.8453 0.9839
1.6183 -3.5595 -0.8338 0.9841
1.6185 -3.3914 -0.8014 0.9847
1.6186 -3.2864 -0.7812 0.9851
1.6187 -3.2359 -0.7716 0.9853
1.6187 -3.1866 -0.7622 0.9855
1.6188 -3.0915 -0.7442 0.9858
1.6188 -3.0456 -0.7355 0.9860
1.6189 -3.0007 -0.7271 0.9862
1.6189 -2.9569 -0.7189 0.9863
1.6190 -2.9141 -0.7109 0.9865
1.6191 -2.7910 -0.6881 0.9869
1.6191 -2.7133 -0.6738 0.9872
1.6193 -2.5670 -0.6472 0.9877
1.6194 -2.4981 -0.6349 0.9879
1.6194 -2.4646 -0.6289 0.9880
1.6194 -2.4318 -0.6230 0.9881
1.6195 -2.3995 -0.6173 0.9882
1.6195 -2.3679 -0.6118 0.9883
1.6766 -2.3257 -0.6114 0.9883
1.6986 -2.3258 -0.6142 0.9883
1.7431 -2.3258 -0.6198 0.9882
1.8347 -2.3258 -0.6317 0.9880
1.8582 -2.3258 -0.6348 0.9879
1.9300 -2.3259 -0.6445 0.9877
1.9544 -2.3259 -0.6479 0.9877
1.9791 -2.3259 -0.6513 0.9876
2.0805 -2.3260 -0.6655 0.9873
2.1065 -2.3260 -0.6692 0.9872
2.1329 -2.3260 -0.6730 0.9872
2.1595 -2.3260 -0.6768 0.9871
2.2137 -2.3260 -0.6848 0.9870
2.2975 -2.3261 -0.6972 0.9867
2.3551 -2.3261 -0.7059 0.9866
2.3844 -2.3261 -0.7104 0.9865
2.4141 -2.3262 -0.7149 0.9864
2.5369 -2.3262 -0.7340 0.9860
2.5686 -2.3262 -0.7390 0.9859
2.6334 -2.3263 -0.7493 0.9857
2.7341 -2.3263 -0.7655 0.9854
2.8392 -2.3264 -0.7828 0.9851
2.8753 -2.3264 -0.7887 0.9850
3.0255 -2.3265 -0.8139 0.9845
3.1043 -2.3265 -0.8273 0.9843
3.1856 -2.3266 -0.8412 0.9840
3.3131 -2.3266 -0.8633 0.9836
3.3484 -2.2901 -0.8651 0.9835
3.6887 -2.3269 -0.9300 0.9823
3.7398 -2.3269 -0.9393 0.9821
3.7919 -2.3269 -0.9487 0.9820
3.8994 -2.3270 -0.9684 0.9816
4.0114 -2.3270 -0.9890 0.9812
4.0693 -2.3271 -0.9997 0.9810
4.2505 -2.3272 -1.0334 0.9804
4.3137 -2.3272 -1.0452 0.9802
4.3784 -2.3272 -1.0574 0.9799
4.5123 -2.3273 -1.0827 0.9794
4.5817 -2.3273 -1.0959 0.9792
4.7257 -2.3274 -1.1234 0.9787
4.8004 -2.3275 -1.1377 0.9784
4.9559 -2.3276 -1.1676 0.9779
5.0367 -2.3276 -1.1832 0.9776
5.2927 -2.3278 -1.2330 0.9766
5.4757 -2.3279 -1.2688 0.9760
5.7712 -2.3280 -1.3271 0.9749
5.9837 -2.3281 -1.3692 0.9741
6.0952 -2.3282 -1.3914 0.9737
6.2103 -2.3283 -1.4144 0.9732
6.2832 -2.3114 -1.4277 0.9730
6.3086 -2.2765 -1.4302 0.9729
6.8191 -2.4132 -1.5426 0.9708
7.1414 -2.3791 -1.6052 0.9697
7.2761 -2.3741 -1.6321 0.9692
7.4498 -2.3799 -1.6678 0.9685
7.9473 -2.4310 -1.7723 0.9666
7.9474 -2.3239 -1.7658 0.9667
7.9713 -2.2774 -1.7679 0.9667
8.3484 -2.3295 -1.8483 0.9652
8.7667 -2.3297 -1.9344 0.9636
11.0262 -2.7122 -2.4214 0.9546
11.0431 -2.6440 -2.4215 0.9546
11.0596 -2.5757 -2.4216 0.9546
11.0756 -2.5073 -2.4217 0.9546
11.0912 -2.4389 -2.4217 0.9546
11.1211 -2.3016 -2.4218 0.9546
11.1627 -2.0951 -2.4220 0.9546
11.1757 -2.0261 -2.4221 0.9546
11.2005 -1.8878 -2.4222 0.9546
11.2122 -1.8185 -2.4223 0.9546
11.2344 -1.6798 -2.4224 0.9546
11.2448 -1.6103 -2.4224 0.9546
11.2734 -1.4015 -2.4226 0.9546
11.3124 -1.0524 -2.4228 0.9546
11.3405 -0.7022 -2.4230 0.9546
11.3575 -0.3513 -2.4232 0.9546
11.3596 -0.2810 -2.4232 0.9546
11.3613 -0.2108 -2.4232 0.9546
11.3625 -0.1405 -2.4233 0.9546
11.3633 -0.0703 -2.4233 0.9546
11.3620 0.2108 -2.4234 0.9546
11.3563 0.4216 -2.4234 0.9546
11.3536 0.4918 -2.4234 0.9546
11.3468 0.6322 -2.4235 0.9546
11.3333 0.8426 -2.4235 0.9546
11.3092 1.1227 -2.4235 0.9546
11.3020 1.1926 -2.4235 0.9546
11.2864 1.3323 -2.4236 0.9546
11.2780 1.4021 -2.4236 0.9546
11.2691 1.4718 -2.4236 0.9546
11.2500 1.6111 -2.4236 0.9546
11.2066 1.8888 -2.4235 0.9546
11.1947 1.9581 -2.4235 0.9546
11.1823 2.0273 -2.4235 0.9546
11.1563 2.1654 -2.4235 0.9546
11.1426 2.2343 -2.4235 0.9546
11.1285 2.3032 -2.4235 0.9546
9.4050 2.0072 -2.0508 0.9614
9.1645 2.0152 -2.0010 0.9623
8.4894 1.9771 -1.8588 0.9650
7.8497 1.9824 -1.7265 0.9674
7.8498 2.0341 -1.7293 0.9674
7.8371 2.0827 -1.7293 0.9674
7.4390 2.0262 -1.6442 0.9690
7.2556 2.0245 -1.6064 0.9697
7.1238 2.0831 -1.5828 0.9701
6.1855 1.9339 -1.3820 0.9738
6.0636 1.9785 -1.3602 0.9743
5.9390 1.9785 -1.3349 0.9747
5.8189 1.9786 -1.3107 0.9752
5.7031 1.9787 -1.2873 0.9756
5.5914 1.9787 -1.2648 0.9760
5.4836 1.9788 -1.2432 0.9764
5.2785 1.9789 -1.2021 0.9772
5.1809 1.9790 -1.1827 0.9776
4.9062 1.9791 -1.1282 0.9786
4.8202 1.9791 -1.1112 0.9789
4.6557 1.9792 -1.0788 0.9795
4.2833 1.9794 -1.0062 0.9809
4.0829 1.9796 -0.9676 0.9816
4.0194 1.9796 -0.9555 0.9818
3.6161 1.9798 -0.8791 0.9833
3.4621 1.9799 -0.8505 0.9838
3.2578 1.9441 -0.8090 0.9846
3.2266 1.9800 -0.8073 0.9846
3.1389 1.9801 -0.7914 0.9849
3.0137 1.9801 -0.7690 0.9854
2.7831 1.9803 -0.7284 0.9861
2.7115 1.9803 -0.7160 0.9864
2.6423 1.9804 -0.7042 0.9866
2.5105 1.9804 -0.6819 0.9870
2.4789 1.9804 -0.6766 0.9871
2.4477 1.9804 -0.6714 0.9872
2.4170 1.9804 -0.6664 0.9873
2.3867 1.9805 -0.6614 0.9874
2.2987 1.9805 -0.6470 0.9877
2.2701 1.9805 -0.6425 0.9878
2.2143 1.9806 -0.6335 0.9879
2.1599 1.9806 -0.6249 0.9881
2.1071 1.9806 -0.6167 0.9882
1.8851 1.9807 -0.5831 0.9889
1.8619 1.9808 -0.5797 0.9889
1.8163 1.9808 -0.5731 0.9891
1.7939 1.9808 -0.5699 0.9891
1.7498 1.9808 -0.5636 0.9892
1.7067 1.9808 -0.5576 0.9894
1.5826 1.9809 -0.5407 0.9897
1.5219 2.0047 -0.5368 0.9898
1.5219 2.0307 -0.5412 0.9897
1.5219 2.0571 -0.5457 0.9896
1.5219 2.1112 -0.5550 0.9894
1.5219 2.1960 -0.5698 0.9891
1.5220 2.2252 -0.5749 0.9890
1.5220 2.2854 -0.5855 0.9888
1.5220 2.3478 -0.5967 0.9886
1.5220 2.4461 -0.6144 0.9883
1.5220 2.5504 -0.6334 0.9879
1.5220 2.6236 -0.6468 0.9877
1.5220 2.6614 -0.6538 0.9875
1.5220 2.7000 -0.6610 0.9874
1.5220 2.7395 -0.6683 0.9873
1.5220 2.8212 -0.6836 0.9870
1.5220 2.8634 -0.6915 0.9868
1.5220 2.9066 -0.6997 0.9867
1.5220 2.9509 -0.7081 0.9865
1.5220 3.0427 -0.7255 0.9862
1.5220 3.0903 -0.7346 0.9860
1.5220 3.1391 -0.7440 0.9858
1.5220 3.1892 -0.7536 0.9857
1.5220 3.3477 -0.7842 0.9851
1.5220 3.4034 -0.7950 0.9849
1.5220 3.6426 -0.8419 0.9840
1.5220 4.0597 -0.9246 0.9824
1.5220 4.2178 -0.9562 0.9818
1.5220 4.3870 -0.9902 0.9812
1.5220 4.5687 -1.0269 0.9805
1.5180 4.6525 -1.0436 0.9802
1.4887 4.6601 -1.0433 0.9802
1.4585 4.6650 -1.0423 0.9802
1.5220 4.9759 -1.1096 0.9789
1.5220 5.0882 -1.1326 0.9785
1.5220 5.3273 -1.1815 0.9776
1.5062 5.3980 -1.1951 0.9773
1.4702 5.5326 -1.2208 0.9769
1.5220 6.0268 -1.3256 0.9749
1.5220 6.1877 -1.3589 0.9743
1.5220 6.3570 -1.3939 0.9736
1.5220 6.5352 -1.4309 0.9729
1.5220 7.1316 -1.5551 0.9706
