ply
format ascii 1.0
element vertex 1607
property float32 x
property float32 y
property float32 z
property float32 I
end_header
4.0864 -13.3594 0.4879 0.9456
4.0865 -13.0703 0.4782 0.9467
4.0869 -12.2676 0.4515 0.9496
4.0871 -11.7803 0.4354 0.9513
4.1929 -10.3941 0.3914 0.9561
4.1471 -10.1000 0.3813 0.9572
4.1930 -10.0349 0.3798 0.9574
4.0658 -9.5637 0.3629 0.9593
4.0881 -9.4535 0.3597 0.9596
4.0883 -8.9922 0.3449 0.9612
4.0884 -8.8468 0.3403 0.9617
4.0885 -8.5671 0.3315 0.9627
4.0886 -8.4327 0.3273 0.9632
4.0888 -7.9274 0.3115 0.9649
4.0889 -7.5792 0.3007 0.9661
4.0891 -7.1504 0.2876 0.9676
4.0892 -6.9497 0.2816 0.9682
4.0894 -6.5724 0.2703 0.9695
4.0895 -6.3086 0.2625 0.9704
4.0896 -6.1410 0.2576 0.9709
4.0896 -6.0595 0.2553 0.9712
4.0379 -5.8261 0.2475 0.9720
4.1948 -5.8190 0.2505 0.9717
4.1949 -5.6699 0.2463 0.9722
4.1949 -5.5972 0.2443 0.9724
4.1949 -5.5257 0.2423 0.9726
4.1950 -5.4554 0.2403 0.9728
4.1460 -5.3232 0.2356 0.9734
4.1951 -5.2510 0.2347 0.9735
4.1952 -4.9927 0.2277 0.9742
4.1952 -4.9305 0.2261 0.9744
4.1953 -4.8692 0.2244 0.9746
4.1953 -4.8087 0.2228 0.9748
4.1462 -4.6936 0.2187 0.9752
4.1952 -4.6902 0.2197 0.9751
4.1954 -4.6325 0.2183 0.9753
4.1954 -4.4084 0.2125 0.9759
4.0386 -4.1913 0.2033 0.9770
4.0523 -4.1539 0.2026 0.9770
4.0905 -4.0402 0.2008 0.9773
4.0905 -3.9415 0.1984 0.9775
4.0905 -3.8930 0.1972 0.9777
4.0906 -3.7977 0.1949 0.9779
4.0907 -3.6136 0.1906 0.9784
4.0907 -3.5688 0.1896 0.9785
4.0907 -3.4807 0.1876 0.9787
4.0907 -3.4373 0.1866 0.9788
4.0908 -3.3944 0.1856 0.9789
4.0908 -3.3520 0.1847 0.9791
4.0908 -3.3099 0.1838 0.9792
4.0908 -3.2682 0.1828 0.9793
4.0908 -3.2270 0.1820 0.9794
4.0909 -3.1458 0.1802 0.9796
4.0909 -3.0660 0.1785 0.9797
4.0909 -3.0267 0.1777 0.9798
4.0909 -2.9877 0.1769 0.9799
4.0910 -2.9109 0.1753 0.9801
4.0910 -2.8354 0.1738 0.9803
4.0910 -2.7981 0.1731 0.9804
4.0912 -2.5455 0.1683 0.9809
4.0912 -2.5106 0.1676 0.9810
4.0912 -2.4759 0.1670 0.9810
4.0912 -2.4073 0.1658 0.9812
4.0912 -2.3733 0.1652 0.9812
4.0912 -2.3397 0.1646 0.9813
4.1262 -2.3259 0.1654 0.9812
4.2483 -2.3260 0.1691 0.9808
4.3761 -2.3260 0.1731 0.9804
4.4422 -2.3260 0.1751 0.9801
4.5099 -2.3261 0.1772 0.9799
4.5793 -2.3261 0.1794 0.9797
4.7232 -2.3262 0.1839 0.9791
4.9532 -2.3263 0.1911 0.9783
4.9820 -2.3023 0.1917 0.9783
5.5292 -2.4318 0.2109 0.9761
5.8202 -2.4319 0.2203 0.9751
5.9230 -2.4320 0.2236 0.9747
6.6120 -2.4323 0.2460 0.9722
6.6471 -2.3523 0.2462 0.9722
6.6472 -2.3062 0.2457 0.9722
6.6918 -2.2754 0.2468 0.9721
7.1331 -2.3274 0.2620 0.9704
7.6098 -2.3277 0.2779 0.9687
7.7818 -2.3278 0.2836 0.9680
7.9611 -2.3279 0.2896 0.9673
8.1481 -2.3279 0.2959 0.9667
8.7574 -2.3272 0.3164 0.9644
9.6462 -2.3727 0.3469 0.9610
9.9248 -2.3762 0.3564 0.9600
10.4226 -2.4274 0.3737 0.9581
10.4226 -2.2919 0.3727 0.9582
10.9146 -2.3294 0.3897 0.9563
11.2560 -2.3296 0.4014 0.9550
49.0048 -9.5116 1.7432 0.8189
48.9555 -9.1882 1.7394 0.8193
48.9557 -8.8752 1.7374 0.8194
48.9558 -8.5629 1.7355 0.8196
49.9335 -8.4159 1.7683 0.8165
48.0255 -5.3682 1.6875 0.8241
48.0257 -5.0677 1.6864 0.8242
48.0259 -4.7676 1.6853 0.8243
48.0263 -3.8694 1.6826 0.8246
66.6117 -4.9524 2.3326 0.7654
66.6141 -4.5385 2.3316 0.7655
48.9591 -2.1207 1.7113 0.8219
48.9593 -1.8175 1.7109 0.8219
49.0094 -0.6062 1.7116 0.8219
48.9600 -0.3028 1.7098 0.8220
48.9949 1.2122 1.7115 0.8219
48.9610 1.5144 1.7106 0.8220
48.9611 1.8176 1.7109 0.8219
48.9613 2.1209 1.7114 0.8219
48.9619 3.3359 1.7137 0.8217
48.9621 3.6402 1.7145 0.8216
48.9622 3.9448 1.7153 0.8215
48.9626 4.5551 1.7172 0.8213
48.9629 5.1666 1.7193 0.8211
49.0127 5.7857 1.7234 0.8208
48.9635 6.3949 1.7244 0.8207
48.9637 6.7031 1.7258 0.8205
48.9645 8.2527 1.7340 0.8198
11.3029 1.9770 0.4007 0.9551
9.7829 2.0247 0.3489 0.9608
9.4693 2.0209 0.3381 0.9620
8.6596 1.9604 0.3101 0.9651
8.4949 1.9784 0.3046 0.9657
8.2638 1.9786 0.2967 0.9666
8.0443 1.9787 0.2893 0.9674
7.8354 1.9788 0.2822 0.9682
7.6366 1.9789 0.2755 0.9689
7.4470 1.9790 0.2691 0.9696
6.9276 1.9792 0.2516 0.9716
6.5923 1.9276 0.2398 0.9729
6.5494 1.9591 0.2387 0.9730
6.5254 2.0846 0.2392 0.9730
6.3890 2.0847 0.2347 0.9735
6.0516 2.0577 0.2232 0.9747
5.7778 2.0850 0.2145 0.9757
5.6679 2.0851 0.2109 0.9761
5.4205 2.0322 0.2022 0.9771
5.4205 2.0705 0.2026 0.9770
4.9565 1.9285 0.1857 0.9789
4.8842 1.9702 0.1839 0.9791
4.5031 1.9805 0.1718 0.9805
4.2858 1.9806 0.1649 0.9813
4.0852 1.9807 0.1585 0.9820
3.9935 2.0286 0.1564 0.9822
3.9935 2.0598 0.1569 0.9822
3.9935 2.0911 0.1574 0.9821
3.9936 2.1545 0.1585 0.9820
3.9936 2.1865 0.1590 0.9819
3.9936 2.2187 0.1595 0.9819
3.9936 2.2512 0.1601 0.9818
3.9937 2.2838 0.1607 0.9818
3.9937 2.3167 0.1612 0.9817
3.9937 2.3499 0.1618 0.9816
3.9937 2.3833 0.1624 0.9816
3.9937 2.4169 0.1630 0.9815
3.9937 2.4508 0.1636 0.9814
3.9938 2.5193 0.1649 0.9813
3.9938 2.5540 0.1655 0.9812
3.9938 2.6242 0.1669 0.9811
3.9939 2.6597 0.1676 0.9810
3.9939 2.6955 0.1683 0.9809
3.9939 2.7680 0.1697 0.9807
3.9939 2.8048 0.1704 0.9807
3.9940 2.8792 0.1719 0.9805
3.9940 2.9550 0.1735 0.9803
3.9941 3.1108 0.1768 0.9799
3.9942 3.1910 0.1785 0.9797
3.9942 3.2317 0.1794 0.9796
3.9942 3.2728 0.1803 0.9795
3.9943 3.3563 0.1822 0.9793
3.9943 3.3987 0.1831 0.9792
3.9943 3.4848 0.1851 0.9790
3.9944 3.5285 0.1861 0.9789
3.9944 3.5728 0.1871 0.9788
3.9945 3.7085 0.1903 0.9784
3.9945 3.8016 0.1926 0.9782
3.9427 3.8464 0.1923 0.9782
4.0998 4.0998 0.2025 0.9771
4.0999 4.1509 0.2037 0.9769
4.0999 4.2026 0.2050 0.9768
4.1000 4.2550 0.2063 0.9766
4.0509 4.3633 0.2079 0.9765
4.1002 4.6415 0.2163 0.9755
4.1002 4.6998 0.2178 0.9753
4.1003 4.8189 0.2210 0.9750
4.1003 4.8797 0.2226 0.9748
4.0772 4.9760 0.2246 0.9746
4.0513 5.0072 0.2249 0.9746
4.1005 5.2648 0.2330 0.9736
4.1006 5.3326 0.2349 0.9734
4.1007 5.4714 0.2388 0.9730
3.9977 5.4738 0.2367 0.9732
3.9460 5.4739 0.2356 0.9734
3.9958 5.9204 0.2494 0.9718
3.9960 6.3347 0.2615 0.9705
3.9961 6.4225 0.2641 0.9702
3.9962 6.6966 0.2723 0.9693
3.9963 6.7918 0.2752 0.9690
3.9963 6.8890 0.2781 0.9686
3.9964 6.9883 0.2811 0.9683
3.9965 7.0898 0.2842 0.9680
3.9966 7.4082 0.2939 0.9669
3.9967 7.5192 0.2974 0.9665
3.9968 7.6329 0.3009 0.9661
3.9969 7.8684 0.3082 0.9653
3.9974 8.6499 0.3328 0.9626
3.9460 9.2819 0.3522 0.9604
4.0760 9.7548 0.3692 0.9586
4.1033 9.9937 0.3773 0.9577
4.1034 10.1725 0.3830 0.9570
4.0545 10.4209 0.3904 0.9562
4.1038 10.7437 0.4016 0.9550
4.0803 10.8837 0.4059 0.9545
3.9990 11.3002 0.4186 0.9532
3.9992 11.7615 0.4338 0.9515
3.9995 12.2577 0.4503 0.9497
3.9997 12.5202 0.4590 0.9488
3.9998 12.7931 0.4681 0.9478
4.0000 13.0771 0.4775 0.9467
4.0002 13.3728 0.4874 0.9457
4.0006 14.0026 0.5085 0.9434
4.0008 14.3384 0.5198 0.9422
4.0010 14.6895 0.5317 0.9409
3.7939 15.0227 0.5411 0.9399
3.6952 15.0227 0.5402 0.9400
3.5969 15.0228 0.5394 0.9400
3.4009 15.0229 0.5379 0.9402
3.3034 15.0229 0.5371 0.9403
3.2062 15.0230 0.5364 0.9404
3.1092 15.0230 0.5357 0.9404
2.7142 14.9714 0.5313 0.9409
2.6461 15.1284 0.5363 0.9404
2.4537 15.1285 0.5352 0.9405
2.3578 15.1286 0.5347 0.9406
2.1665 15.1287 0.5337 0.9407
2.0711 15.1287 0.5332 0.9407
1.6911 15.1289 0.5316 0.9409
1.5019 15.1290 0.5309 0.9410
1.4074 15.1291 0.5306 0.9410
1.2189 15.1292 0.5300 0.9411
1.1131 14.9722 0.5243 0.9417
0.8371 15.0242 0.5255 0.9416
0.7439 15.0243 0.5253 0.9416
0.6508 15.0243 0.5252 0.9416
0.5577 15.0244 0.5250 0.9416
0.4647 15.0244 0.5249 0.9416
0.3717 15.0244 0.5248 0.9416
0.1858 15.0245 0.5247 0.9416
0.0929 15.0246 0.5247 0.9416
0.0000 15.0246 0.5247 0.9416
-0.0929 15.0247 0.5247 0.9416
-0.1858 15.0247 0.5247 0.9416
-0.2788 15.0248 0.5248 0.9416
-0.3717 15.0248 0.5248 0.9416
-0.5578 15.0249 0.5250 0.9416
-0.7440 15.0250 0.5253 0.9416
-0.8371 15.0251 0.5255 0.9415
-0.9304 15.0251 0.5257 0.9415
-1.2106 15.0253 0.5264 0.9415
-1.3041 15.0253 0.5267 0.9414
-1.3978 15.0254 0.5270 0.9414
-1.4916 15.0254 0.5273 0.9414
-1.5855 15.0254 0.5276 0.9413
-1.7737 15.0255 0.5283 0.9412
-1.8680 15.0256 0.5287 0.9412
-1.9624 15.0256 0.5292 0.9412
-2.0570 15.0257 0.5296 0.9411
-2.1518 15.0257 0.5301 0.9411
-2.2467 15.0258 0.5305 0.9410
-2.3418 15.0258 0.5310 0.9409
-2.4371 15.0259 0.5316 0.9409
-2.5325 15.0259 0.5321 0.9408
-2.6191 14.9742 0.5308 0.9410
-2.7431 15.1312 0.5370 0.9403
-2.9369 15.1313 0.5383 0.9402
-3.0342 15.1313 0.5389 0.9401
-3.1316 15.1314 0.5396 0.9400
-3.2007 14.9974 0.5355 0.9405
-3.2958 14.9884 0.5359 0.9404
-3.4907 14.9885 0.5374 0.9403
-3.6868 14.9886 0.5390 0.9401
-3.8841 14.9887 0.5407 0.9399
-3.9831 14.9887 0.5416 0.9398
-4.1823 14.9888 0.5434 0.9396
-4.2804 14.9819 0.5441 0.9395
-4.3829 14.9890 0.5453 0.9394
-4.4837 14.9890 0.5463 0.9393
-4.5849 14.9891 0.5474 0.9392
-4.6864 14.9891 0.5484 0.9391
-4.8908 14.9892 0.5506 0.9388
-5.0792 14.9375 0.5510 0.9388
-5.5281 15.0275 0.5592 0.9379
-5.7401 15.0276 0.5618 0.9376
-5.8469 15.0276 0.5631 0.9375
-6.0620 15.0277 0.5659 0.9372
-6.8153 14.9902 0.5750 0.9362
-7.0403 14.9904 0.5783 0.9359
-7.2680 14.9904 0.5818 0.9355
-7.3829 14.9905 0.5835 0.9353
-7.4985 14.9906 0.5853 0.9351
-7.7318 14.9907 0.5890 0.9347
-8.4503 14.9911 0.6009 0.9334
-8.5729 14.9911 0.6031 0.9332
-8.6964 14.9912 0.6052 0.9330
-8.8208 14.9913 0.6074 0.9328
-9.1995 14.9915 0.6142 0.9320
-9.3277 14.9915 0.6166 0.9318
-9.4568 14.9916 0.6190 0.9315
-9.8504 14.9918 0.6264 0.9307
-9.9838 14.9919 0.6290 0.9304
-10.3905 14.9921 0.6370 0.9296
-11.4618 15.0978 0.6619 0.9269
-11.6055 15.0923 0.6648 0.9266
-11.7591 15.0979 0.6683 0.9263
-11.9099 15.0980 0.6715 0.9259
-12.2851 14.9930 0.6769 0.9254
-12.5983 14.9932 0.6839 0.9246
-12.9182 14.9934 0.6911 0.9238
-13.0807 14.9934 0.6948 0.9235
-13.2450 14.9935 0.6986 0.9230
-13.5212 14.9299 0.7034 0.9225
-13.5208 14.7452 0.6986 0.9230
-13.5700 14.6163 0.6965 0.9233
-13.4132 14.2695 0.6839 0.9246
-13.4651 14.1483 0.6821 0.9248
-13.4652 13.9743 0.6777 0.9253
-13.4653 13.8026 0.6734 0.9257
-13.4657 13.1366 0.6569 0.9275
-13.4659 12.8156 0.6492 0.9283
-13.6545 12.3662 0.6433 0.9289
-13.4665 11.7485 0.6241 0.9310
-13.4668 11.1744 0.6111 0.9324
-13.4669 11.0346 0.6080 0.9327
-13.4670 10.8961 0.6049 0.9330
-13.4671 10.7591 0.6019 0.9333
-13.4671 10.6234 0.5990 0.9337
-13.4155 10.3160 0.5910 0.9345
-13.5726 10.0417 0.5896 0.9347
-13.5727 9.9125 0.5869 0.9349
-13.5288 9.7527 0.5824 0.9354
-13.5728 9.6575 0.5817 0.9355
-13.5729 9.5317 0.5792 0.9358
-13.5730 9.4069 0.5767 0.9360
-13.5730 9.2832 0.5742 0.9363
-13.5733 8.9183 0.5671 0.9371
-13.4255 8.5854 0.5565 0.9382
-13.4683 8.4959 0.5561 0.9383
-13.4685 8.2650 0.5518 0.9387
-13.4686 8.0374 0.5477 0.9392
-13.4687 7.9249 0.5457 0.9394
-13.4687 7.8132 0.5437 0.9396
-13.4688 7.7023 0.5418 0.9398
-13.4688 7.5922 0.5399 0.9400
-13.4689 7.4829 0.5381 0.9402
-13.4690 7.2664 0.5344 0.9406
-13.4691 7.1593 0.5327 0.9408
-13.4691 7.0528 0.5309 0.9410
-13.4696 6.3261 0.5197 0.9422
-13.4698 5.9241 0.5139 0.9428
-13.4700 5.4336 0.5072 0.9435
-13.4701 5.3370 0.5060 0.9437
-13.5756 4.7100 0.5018 0.9441
-13.5756 4.6161 0.5007 0.9442
-13.5757 4.5227 0.4997 0.9443
-13.5757 4.4296 0.4987 0.9444
-13.5758 4.3369 0.4977 0.9446
-13.5759 4.0610 0.4948 0.9449
-13.5762 3.6078 0.4905 0.9453
-13.5763 3.4286 0.4890 0.9455
-13.5763 3.3394 0.4882 0.9456
-13.4713 3.1374 0.4830 0.9461
-13.4714 2.9623 0.4817 0.9463
-13.4715 2.7881 0.4804 0.9464
-13.4716 2.6148 0.4792 0.9466
-13.4717 2.4423 0.4781 0.9467
-13.4717 2.3563 0.4776 0.9467
-13.4720 1.8443 0.4748 0.9470
-13.4720 1.7595 0.4744 0.9471
-13.4721 1.5903 0.4737 0.9472
-13.4722 1.5059 0.4734 0.9472
-13.4722 1.4216 0.4731 0.9472
-14.3628 1.3362 0.5037 0.9439
-16.0277 1.3912 0.5618 0.9376
-16.0999 1.2971 0.5640 0.9374
-18.1376 1.3485 0.6351 0.9298
-19.8025 1.3492 0.6931 0.9236
-59.5136 3.3158 2.0815 0.7878
-59.5140 2.9467 2.0808 0.7878
-59.5144 2.5779 2.0802 0.7879
-59.5152 1.8408 2.0793 0.7880
-59.5159 1.1043 2.0787 0.7880
-59.5163 0.7361 2.0785 0.7880
-59.5167 0.3680 2.0784 0.7880
-13.4733 -0.0833 0.3704 0.9475
-13.4733 -0.1667 0.3704 0.9475
-13.4734 -0.4167 0.3705 0.9475
-13.4735 -0.5001 0.3706 0.9475
-13.4735 -0.5836 0.3707 0.9475
-13.4736 -0.7507 0.3709 0.9474
-13.4736 -0.8343 0.3711 0.9474
-13.4737 -1.0017 0.3714 0.9474
-13.4738 -1.0856 0.3716 0.9473
-13.4738 -1.2535 0.3720 0.9473
-13.4739 -1.3376 0.3722 0.9473
-13.4740 -1.5061 0.3727 0.9472
-13.4741 -1.6751 0.3732 0.9471
-13.4741 -1.7598 0.3735 0.9471
-13.4224 -1.9221 0.3727 0.9472
-13.5375 -2.1098 0.3766 0.9467
-13.5365 -2.1955 0.3770 0.9466
-13.5345 -2.3673 0.3777 0.9465
-13.5324 -2.5398 0.3785 0.9464
-13.5303 -2.7131 0.3793 0.9463
-13.5283 -2.8872 0.3803 0.9462
-13.5272 -2.9745 0.3807 0.9461
-13.5251 -3.1499 0.3817 0.9459
-13.5241 -3.2380 0.3823 0.9459
-13.5230 -3.3263 0.3828 0.9458
-13.5220 -3.4149 0.3834 0.9457
-13.4751 -3.7599 0.3846 0.9456
-13.4751 -3.8499 0.3852 0.9455
-13.4752 -3.9402 0.3859 0.9454
-13.4752 -4.0308 0.3866 0.9453
-13.4754 -4.3048 0.3889 0.9450
-13.4754 -4.3968 0.3896 0.9449
-13.4755 -4.4893 0.3904 0.9447
-13.4756 -4.6752 0.3921 0.9445
-13.4758 -5.1474 0.3965 0.9439
-13.4759 -5.3393 0.3985 0.9436
-13.4760 -5.5332 0.4005 0.9434
-13.4760 -5.6308 0.4015 0.9432
-13.4761 -5.7290 0.4025 0.9431
-13.4762 -5.9269 0.4047 0.9428
-13.4763 -6.1269 0.4069 0.9425
-13.4763 -6.2278 0.4081 0.9423
-13.4764 -6.4313 0.4105 0.9420
-13.4765 -6.5340 0.4117 0.9418
-13.4765 -6.6372 0.4129 0.9417
-13.4766 -6.7412 0.4142 0.9415
-13.4766 -6.8457 0.4155 0.9413
-13.4767 -7.0568 0.4182 0.9409
-13.4768 -7.1633 0.4195 0.9408
-13.5821 -7.5458 0.4271 0.9397
-13.5822 -7.7672 0.4301 0.9393
-13.5431 -7.8564 0.4304 0.9393
-13.5823 -7.9918 0.4332 0.9389
-13.5824 -8.1053 0.4348 0.9387
-13.5824 -8.2197 0.4364 0.9384
-13.5825 -8.4510 0.4397 0.9380
-13.5826 -8.5680 0.4414 0.9378
-13.5827 -8.6859 0.4432 0.9375
-13.5828 -8.9246 0.4468 0.9370
-13.4778 -9.3410 0.4508 0.9365
-13.4780 -9.7161 0.4567 0.9357
-13.4782 -10.2323 0.4652 0.9345
-13.4783 -10.3643 0.4674 0.9342
-13.4784 -10.4977 0.4696 0.9339
-13.4784 -10.6323 0.4719 0.9336
-13.4785 -10.7682 0.4742 0.9333
-15.3241 -12.3987 0.5419 0.9242
-14.3878 -12.2423 0.5193 0.9272
-14.2690 -12.2941 0.5177 0.9274
-14.0920 -12.2942 0.5141 0.9279
-13.5754 -12.2945 0.5035 0.9293
-13.4794 -12.6706 0.5085 0.9286
-13.4795 -12.8285 0.5115 0.9282
-13.4796 -13.1502 0.5177 0.9274
-13.4797 -13.3140 0.5208 0.9270
-13.4798 -13.4798 0.5240 0.9266
-13.4799 -13.6476 0.5273 0.9261
-13.4799 -13.8176 0.5306 0.9257
-13.4800 -13.9897 0.5340 0.9252
-13.5854 -14.4526 0.5453 0.9237
-13.5855 -14.6330 0.5489 0.9232
-13.5856 -14.8158 0.5526 0.9227
-13.5859 -15.5725 0.5681 0.9206
-13.4333 -15.7876 0.5698 0.9204
-13.4811 -16.4527 0.5847 0.9184
-13.4812 -16.6620 0.5892 0.9178
-13.4813 -16.8745 0.5937 0.9172
-13.4817 -17.5322 0.6080 0.9153
-13.4818 -17.7585 0.6129 0.9146
-13.4819 -17.9886 0.6179 0.9140
-13.4821 -18.4602 0.6284 0.9126
-13.4824 -19.1987 0.6449 0.9104
-13.4825 -19.4535 0.6506 0.9096
-10.9846 -17.4135 0.5660 0.9209
-10.6859 -17.4137 0.5616 0.9215
-10.3918 -17.4138 0.5574 0.9221
-10.2463 -17.4139 0.5554 0.9223
-10.1019 -17.4140 0.5534 0.9226
-9.9585 -17.4140 0.5514 0.9229
-9.8162 -17.4141 0.5495 0.9231
-9.6748 -17.4142 0.5476 0.9234
-9.5343 -17.4143 0.5458 0.9236
-9.3949 -17.4143 0.5439 0.9239
-9.2563 -17.4144 0.5421 0.9241
-9.1187 -17.4145 0.5404 0.9244
-8.9820 -17.4146 0.5386 0.9246
-8.7110 -17.4147 0.5353 0.9250
-8.5769 -17.4148 0.5336 0.9253
-8.1791 -17.4150 0.5289 0.9259
-7.9177 -17.4151 0.5259 0.9263
-7.7882 -17.4152 0.5244 0.9265
-7.4037 -17.4154 0.5202 0.9271
-7.2769 -17.4154 0.5188 0.9273
-7.1507 -17.4155 0.5175 0.9274
-6.7761 -17.4157 0.5137 0.9279
-6.6524 -17.4158 0.5125 0.9281
-6.5292 -17.4158 0.5113 0.9283
-6.0424 -17.4161 0.5067 0.9289
-5.9220 -17.4161 0.5057 0.9290
-5.8021 -17.4162 0.5046 0.9292
-5.6827 -17.4163 0.5036 0.9293
-5.2098 -17.4165 0.4997 0.9298
-4.8597 -17.4167 0.4971 0.9302
-4.7439 -17.4167 0.4962 0.9303
-4.2841 -17.4170 0.4930 0.9307
-3.8299 -17.4172 0.4902 0.9311
-3.7172 -17.4173 0.4896 0.9312
-3.4925 -17.4174 0.4883 0.9314
-3.3806 -17.4174 0.4877 0.9315
-3.1576 -17.4176 0.4866 0.9316
-3.0465 -17.4176 0.4861 0.9317
-2.9356 -17.4177 0.4855 0.9318
-2.8250 -17.4177 0.4851 0.9318
-2.4943 -17.4179 0.4837 0.9320
-2.2748 -17.4180 0.4829 0.9321
-1.6204 -17.4184 0.4809 0.9324
-1.5119 -17.4184 0.4806 0.9324
-1.4034 -17.4185 0.4804 0.9325
-1.1867 -17.4186 0.4799 0.9325
-0.6466 -17.4189 0.4792 0.9326
-0.4310 -17.4190 0.4790 0.9327
-0.1077 -17.4191 0.4788 0.9327
0.1078 -17.4193 0.4788 0.9327
0.3232 -17.4194 0.4789 0.9327
0.7546 -17.4196 0.4793 0.9326
0.9706 -17.4197 0.4796 0.9326
1.2951 -17.4199 0.4802 0.9325
1.7293 -17.4201 0.4812 0.9323
1.9472 -17.4202 0.4818 0.9323
2.0564 -17.4203 0.4822 0.9322
2.2752 -17.4204 0.4829 0.9321
2.4947 -17.4205 0.4838 0.9320
2.7150 -17.4206 0.4847 0.9319
2.8255 -17.4207 0.4851 0.9318
2.9362 -17.4207 0.4856 0.9317
3.4933 -17.4210 0.4884 0.9314
3.7180 -17.4211 0.4897 0.9312
3.8308 -17.4212 0.4903 0.9311
4.0573 -17.4213 0.4917 0.9309
4.0549 -16.4852 0.4667 0.9343
4.1632 -16.4853 0.4674 0.9342
4.1902 -15.7680 0.4485 0.9368
4.0366 -14.8202 0.4222 0.9404
4.0860 -13.6595 0.3919 0.9445
4.0861 -13.3585 0.3840 0.9456
4.0862 -13.0695 0.3764 0.9467
4.0867 -12.2668 0.3554 0.9496
4.0869 -11.7796 0.3427 0.9513
4.0870 -11.5487 0.3368 0.9522
4.0520 -11.2287 0.3281 0.9534
4.1926 -10.5815 0.3129 0.9555
4.1926 -10.3936 0.3081 0.9561
4.1470 -10.1000 0.3001 0.9573
4.1928 -10.0344 0.2989 0.9574
4.0880 -9.2950 0.2791 0.9602
4.0880 -9.1413 0.2753 0.9607
4.0881 -8.9918 0.2715 0.9612
4.0883 -8.5667 0.2609 0.9627
4.0884 -8.4323 0.2576 0.9632
4.0884 -8.3013 0.2544 0.9636
4.0886 -7.9271 0.2452 0.9649
4.0887 -7.8083 0.2423 0.9653
4.0888 -7.5789 0.2367 0.9661
4.0888 -7.4681 0.2340 0.9665
4.0888 -7.3597 0.2314 0.9669
4.0889 -7.2538 0.2289 0.9672
4.0890 -7.0487 0.2240 0.9679
4.0891 -6.7570 0.2171 0.9689
4.0892 -6.5722 0.2128 0.9695
4.0893 -6.3946 0.2087 0.9701
4.0894 -6.2238 0.2047 0.9706
4.0894 -6.1407 0.2028 0.9709
4.1948 -5.6697 0.1939 0.9722
4.1948 -5.5971 0.1923 0.9724
4.1948 -5.5255 0.1907 0.9726
4.1458 -5.3230 0.1855 0.9734
4.1950 -5.2508 0.1847 0.9735
4.1950 -5.1197 0.1819 0.9739
4.1951 -4.9304 0.1780 0.9744
4.1951 -4.8690 0.1767 0.9746
4.1952 -4.8086 0.1754 0.9748
4.1461 -4.6935 0.1721 0.9753
4.1953 -4.5752 0.1706 0.9755
4.1953 -4.4082 0.1673 0.9759
4.0904 -4.0904 0.1590 0.9771
4.0904 -4.0401 0.1580 0.9773
4.0904 -3.9904 0.1571 0.9774
4.0904 -3.9414 0.1561 0.9775
4.0904 -3.8929 0.1552 0.9777
4.0905 -3.8450 0.1543 0.9778
4.0905 -3.7977 0.1534 0.9779
4.0905 -3.7508 0.1526 0.9780
4.0906 -3.6588 0.1509 0.9783
4.0907 -3.3519 0.1454 0.9791
4.0907 -3.2682 0.1439 0.9793
4.0908 -3.1861 0.1425 0.9795
4.0908 -3.1457 0.1419 0.9796
4.0908 -3.1056 0.1412 0.9797
4.0908 -3.0266 0.1399 0.9798
4.0909 -2.9108 0.1380 0.9801
4.0909 -2.8729 0.1374 0.9802
4.0910 -2.7610 0.1357 0.9804
4.0910 -2.7244 0.1351 0.9805
4.0910 -2.5807 0.1330 0.9808
4.0911 -2.5454 0.1324 0.9809
4.0911 -2.4414 0.1310 0.9811
4.0911 -2.4072 0.1305 0.9812
4.1262 -2.3259 0.1302 0.9812
4.2483 -2.3260 0.1331 0.9808
4.4422 -2.3261 0.1378 0.9801
4.5099 -2.3261 0.1395 0.9799
4.5793 -2.3261 0.1412 0.9797
4.7232 -2.3262 0.1447 0.9792
4.7979 -2.3262 0.1466 0.9789
4.8746 -2.3263 0.1485 0.9786
4.9532 -2.3263 0.1504 0.9783
5.0029 -2.2746 0.1511 0.9782
5.5292 -2.4318 0.1660 0.9761
5.7204 -2.4319 0.1709 0.9754
5.8202 -2.4319 0.1734 0.9751
5.9230 -2.4320 0.1760 0.9747
6.0290 -2.4320 0.1787 0.9743
6.1383 -2.4321 0.1815 0.9739
6.3675 -2.4322 0.1874 0.9731
6.6120 -2.4323 0.1937 0.9722
6.6470 -2.3986 0.1943 0.9721
6.6470 -2.3523 0.1938 0.9722
6.6471 -2.3061 0.1934 0.9722
6.6919 -2.2754 0.1943 0.9721
6.9861 -2.3274 0.2024 0.9710
7.4446 -2.3276 0.2144 0.9693
7.9611 -2.3279 0.2280 0.9674
8.1482 -2.3279 0.2329 0.9667
8.7851 -2.2765 0.2495 0.9643
9.6375 -2.4339 0.2732 0.9610
9.8954 -2.4340 0.2801 0.9600
9.9246 -2.3762 0.2805 0.9600
10.4224 -2.4273 0.2942 0.9581
10.4224 -2.3595 0.2937 0.9581
10.4224 -2.2918 0.2933 0.9582
10.9146 -2.3294 0.3068 0.9563
11.9593 -2.3981 0.3353 0.9524
49.0039 -9.5114 1.3722 0.8189
48.9546 -9.1880 1.3692 0.8193
48.9549 -8.5627 1.3662 0.8197
48.0246 -5.3681 1.3284 0.8242
48.0248 -5.0676 1.3275 0.8243
48.0250 -4.7675 1.3266 0.8244
48.0253 -4.1684 1.3251 0.8246
48.0254 -3.8693 1.3244 0.8246
66.4421 -4.5268 1.8307 0.7661
66.4423 -4.1142 1.8299 0.7661
67.0681 -3.7367 1.8465 0.7643
48.9582 -2.1207 1.3471 0.8219
48.9585 -1.5143 1.3465 0.8220
49.0083 -0.9093 1.3474 0.8219
48.9594 0.3028 1.3459 0.8221
48.9937 0.6060 1.3469 0.8220
48.9938 0.9091 1.3470 0.8219
48.9940 1.2122 1.3472 0.8219
48.9600 1.5144 1.3465 0.8220
48.9602 1.8176 1.3468 0.8220
48.9604 2.1208 1.3471 0.8219
48.9610 3.3358 1.3490 0.8217
48.9612 3.6401 1.3496 0.8216
48.9613 3.9448 1.3503 0.8216
48.9616 4.5550 1.3517 0.8214
48.9620 5.1666 1.3534 0.8212
49.0116 5.4785 1.3557 0.8209
48.9626 6.3947 1.3574 0.8207
48.9628 6.7030 1.3585 0.8206
48.9972 7.3262 1.3619 0.8202
48.9973 7.6363 1.3631 0.8200
9.8268 2.0338 0.2759 0.9606
9.7598 2.0829 0.2743 0.9609
8.4949 1.9784 0.2398 0.9657
7.8354 1.9788 0.2221 0.9682
7.6366 1.9789 0.2169 0.9689
7.4470 1.9790 0.2118 0.9696
7.0930 1.9792 0.2024 0.9710
6.9276 1.9793 0.1981 0.9716
6.5922 1.9276 0.1888 0.9729
6.5492 1.9591 0.1879 0.9730
6.5493 2.0477 0.1886 0.9729
6.5254 2.0846 0.1883 0.9730
6.0776 2.0247 0.1761 0.9747
6.0514 2.0577 0.1757 0.9747
5.8915 2.0849 0.1718 0.9753
5.7778 2.0850 0.1688 0.9757
5.6679 2.0851 0.1660 0.9761
5.4204 2.0321 0.1591 0.9771
4.8230 1.9803 0.1433 0.9794
4.6584 1.9804 0.1391 0.9799
4.5796 1.9804 0.1372 0.9802
4.4287 1.9805 0.1334 0.9808
4.2858 1.9806 0.1298 0.9813
4.2172 1.9806 0.1281 0.9815
4.0852 1.9807 0.1248 0.9820
3.9934 2.0597 0.1235 0.9822
3.9936 2.2838 0.1265 0.9818
3.9936 2.3167 0.1269 0.9817
3.9936 2.3832 0.1278 0.9816
3.9937 2.4849 0.1293 0.9814
3.9937 2.5889 0.1308 0.9811
3.9938 2.6241 0.1314 0.9811
3.9938 2.7316 0.1330 0.9808
3.9939 2.8047 0.1342 0.9807
3.9939 2.8792 0.1353 0.9805
3.9939 2.9169 0.1360 0.9804
3.9940 3.0321 0.1378 0.9801
3.9940 3.1108 0.1392 0.9799
3.9941 3.1910 0.1405 0.9798
3.9942 3.3562 0.1434 0.9793
3.9942 3.3986 0.1442 0.9792
3.9942 3.4414 0.1449 0.9791
3.9942 3.4847 0.1457 0.9790
3.9943 3.5285 0.1465 0.9789
3.9943 3.6174 0.1481 0.9787
3.9943 3.6627 0.1490 0.9785
3.9943 3.7084 0.1498 0.9784
3.9944 3.8015 0.1516 0.9782
4.0997 4.0997 0.1594 0.9771
4.0998 4.2549 0.1624 0.9766
4.0999 4.3079 0.1635 0.9765
4.0843 4.3450 0.1639 0.9764
4.1000 4.5271 0.1679 0.9759
4.1001 4.7587 0.1727 0.9752
4.1001 4.8187 0.1739 0.9750
4.1002 4.8796 0.1752 0.9748
4.0512 5.0070 0.1770 0.9746
4.1003 5.1323 0.1806 0.9741
4.1004 5.1980 0.1820 0.9739
4.1004 5.2647 0.1834 0.9737
4.1004 5.3324 0.1849 0.9734
4.1005 5.4713 0.1879 0.9730
3.9977 5.4738 0.1863 0.9732
3.9956 5.9203 0.1963 0.9718
3.9957 6.0812 0.2000 0.9713
3.9958 6.2485 0.2039 0.9708
3.9959 6.4223 0.2079 0.9702
3.9961 6.6964 0.2144 0.9693
3.9962 6.8888 0.2189 0.9686
3.9964 7.1933 0.2262 0.9676
3.9964 7.2994 0.2288 0.9672
3.9965 7.4079 0.2314 0.9669
3.9965 7.5189 0.2341 0.9665
3.9966 7.6326 0.2368 0.9661
3.9969 8.1154 0.2487 0.9644
3.9971 8.3755 0.2551 0.9635
3.9972 8.6495 0.2619 0.9626
3.9973 8.7920 0.2655 0.9621
3.9974 8.9385 0.2692 0.9616
3.9975 9.0891 0.2729 0.9610
3.9865 9.2186 0.2761 0.9606
3.9458 9.2815 0.2772 0.9604
4.0760 9.7548 0.2906 0.9586
4.1032 10.1720 0.3015 0.9571
4.0543 10.4203 0.3073 0.9562
4.0037 10.8837 0.3188 0.9547
3.9467 10.9370 0.3196 0.9545
3.9987 11.2995 0.3295 0.9532
3.9989 11.5260 0.3354 0.9524
3.9991 12.0043 0.3478 0.9506
3.9998 13.0763 0.3759 0.9468
4.0000 13.3719 0.3837 0.9457
4.0003 14.0016 0.4003 0.9434
4.0005 14.3374 0.4092 0.9422
3.8929 15.0226 0.4266 0.9398
3.4987 15.0228 0.4240 0.9401
3.3034 15.0229 0.4228 0.9403
3.2062 15.0230 0.4223 0.9404
3.1092 15.0230 0.4217 0.9405
2.9159 15.0231 0.4207 0.9406
2.8196 15.0232 0.4202 0.9407
2.7142 14.9714 0.4183 0.9409
2.5498 15.1285 0.4217 0.9405
2.2547 15.0795 0.4191 0.9408
1.8808 15.1288 0.4191 0.9408
1.6911 15.1289 0.4185 0.9409
1.5912 15.0799 0.4168 0.9411
1.5019 15.1290 0.4179 0.9410
1.3131 15.1291 0.4174 0.9410
1.0236 15.0241 0.4140 0.9415
0.9303 15.0242 0.4138 0.9415
0.7439 15.0243 0.4135 0.9416
0.4647 15.0244 0.4132 0.9416
0.3717 15.0244 0.4131 0.9416
0.1858 15.0245 0.4130 0.9416
-0.0000 15.0246 0.4130 0.9417
-0.0929 15.0247 0.4130 0.9416
-0.1858 15.0247 0.4130 0.9416
-0.2788 15.0248 0.4131 0.9416
-0.4647 15.0249 0.4132 0.9416
-0.6508 15.0250 0.4134 0.9416
-0.7439 15.0250 0.4135 0.9416
-0.9304 15.0251 0.4138 0.9415
-1.1171 15.0252 0.4142 0.9415
-1.3042 15.0253 0.4146 0.9414
-1.3978 15.0254 0.4148 0.9414
-1.6795 15.0255 0.4156 0.9413
-1.7737 15.0255 0.4159 0.9413
-2.0570 15.0257 0.4169 0.9411
-2.1518 15.0257 0.4173 0.9411
-2.3418 15.0258 0.4180 0.9410
-2.5325 15.0259 0.4189 0.9408
-2.8399 15.1312 0.4232 0.9403
-2.9369 15.1313 0.4237 0.9402
-3.0341 15.1313 0.4242 0.9401
-3.1316 15.1314 0.4248 0.9400
-3.2010 14.9987 0.4216 0.9405
-3.2958 14.9884 0.4219 0.9404
-3.3932 14.9885 0.4224 0.9404
-3.4907 14.9885 0.4230 0.9403
-3.8840 14.9887 0.4256 0.9399
-3.9831 14.9887 0.4263 0.9398
-4.0826 14.9888 0.4270 0.9397
-4.2807 14.9830 0.4283 0.9396
-4.3829 14.9889 0.4293 0.9394
-4.4837 14.9890 0.4301 0.9393
-4.5849 14.9891 0.4309 0.9392
-4.7884 14.9891 0.4325 0.9390
-4.8908 14.9892 0.4334 0.9389
-5.2136 15.0273 0.4372 0.9383
-5.4228 15.0274 0.4392 0.9381
-5.7401 15.0276 0.4422 0.9377
-5.8469 15.0276 0.4433 0.9375
-5.9542 15.0277 0.4443 0.9374
-6.0620 15.0277 0.4454 0.9372
-6.5279 15.0952 0.4521 0.9363
-6.6390 15.0953 0.4533 0.9361
-6.8153 14.9902 0.4527 0.9362
-7.0403 14.9903 0.4553 0.9359
-7.1538 14.9904 0.4566 0.9357
-7.3829 14.9905 0.4593 0.9353
-7.4985 14.9906 0.4608 0.9351
-7.6147 14.9906 0.4622 0.9349
-7.8496 14.9908 0.4652 0.9345
-8.0874 14.9909 0.4682 0.9341
-8.2076 14.9909 0.4698 0.9339
-8.3285 14.9910 0.4714 0.9337
-8.8208 14.9913 0.4781 0.9328
-9.0724 14.9914 0.4817 0.9323
-9.1995 14.9914 0.4835 0.9320
-9.4568 14.9916 0.4872 0.9315
-9.7182 14.9917 0.4911 0.9310
-9.8504 14.9918 0.4931 0.9307
-10.1182 14.9919 0.4972 0.9302
-10.3904 14.9921 0.5014 0.9296
-10.4919 14.9403 0.5019 0.9296
-10.7423 15.0974 0.5093 0.9285
-10.8836 15.0975 0.5116 0.9282
-11.3152 15.0977 0.5186 0.9273
-11.6058 15.0928 0.5233 0.9266
-11.9099 15.0980 0.5286 0.9259
-12.0621 15.0981 0.5312 0.9256
-12.2851 14.9930 0.5328 0.9254
-12.5983 14.9932 0.5383 0.9246
-12.9182 14.9934 0.5440 0.9239
-13.0807 14.9934 0.5470 0.9235
-13.4110 14.9936 0.5530 0.9227
-13.5704 14.6167 0.5483 0.9233
-13.4136 14.2699 0.5384 0.9246
-13.4655 14.1487 0.5369 0.9248
-13.4656 13.9747 0.5335 0.9253
-13.4657 13.8030 0.5301 0.9257
-13.4658 13.6333 0.5268 0.9262
-13.4658 13.4659 0.5235 0.9266
-13.4661 12.9755 0.5140 0.9279
-13.4662 12.8159 0.5110 0.9283
-13.4663 12.6582 0.5080 0.9287
-13.4858 12.3660 0.5030 0.9294
-13.6545 12.3661 0.5064 0.9289
-13.4667 12.0453 0.4967 0.9303
-13.4668 11.7488 0.4913 0.9310
-13.4669 11.6030 0.4886 0.9313
-13.4671 11.3160 0.4835 0.9320
-13.4671 11.1747 0.4810 0.9324
-13.4672 11.0348 0.4786 0.9327
-13.4674 10.7593 0.4738 0.9333
-13.4675 10.6236 0.4715 0.9337
-13.4675 10.4892 0.4692 0.9340
-13.5729 10.1724 0.4663 0.9344
-13.5729 10.0420 0.4641 0.9347
-13.5730 9.9127 0.4620 0.9350
-13.5732 9.5319 0.4559 0.9358
-13.5735 9.0392 0.4483 0.9368
-13.5736 8.9185 0.4465 0.9371
-13.5736 8.7989 0.4447 0.9373
-13.4688 8.2651 0.4344 0.9387
-13.4688 8.1509 0.4328 0.9389
-13.4690 7.8134 0.4280 0.9396
-13.4692 7.5924 0.4250 0.9400
-13.4693 7.3744 0.4221 0.9404
-13.4694 7.0530 0.4180 0.9410
-13.4695 6.9472 0.4166 0.9412
-13.4697 6.6339 0.4127 0.9417
-13.4697 6.5307 0.4115 0.9419
-13.4698 6.3262 0.4091 0.9422
-13.4702 5.7265 0.4024 0.9431
-13.4702 5.6284 0.4013 0.9433
-13.4703 5.5308 0.4003 0.9434
-13.4704 5.3371 0.3983 0.9437
-13.4704 5.2410 0.3973 0.9438
-13.4705 5.0501 0.3955 0.9441
-13.4188 4.8423 0.3922 0.9445
-13.5164 4.7833 0.3941 0.9442
-13.5176 4.6898 0.3933 0.9444
-13.5188 4.5968 0.3925 0.9445
-13.5200 4.5041 0.3917 0.9446
-13.5212 4.4118 0.3910 0.9447
-13.5224 4.3199 0.3902 0.9448
-13.5248 4.1370 0.3888 0.9450
-13.5272 3.9554 0.3874 0.9452
-13.5283 3.8651 0.3868 0.9453
-13.5295 3.7751 0.3861 0.9453
-13.5307 3.6854 0.3855 0.9454
-13.5353 3.3293 0.3832 0.9458
-13.4715 3.1375 0.3802 0.9462
-13.4716 3.0498 0.3797 0.9462
-13.4716 2.9623 0.3792 0.9463
-13.4717 2.8751 0.3787 0.9464
-13.4717 2.7881 0.3782 0.9464
-13.4719 2.5285 0.3768 0.9466
-13.4720 2.2706 0.3756 0.9468
-13.4721 2.1850 0.3752 0.9469
-13.4721 2.0996 0.3748 0.9469
-13.4722 1.9293 0.3741 0.9470
-13.4723 1.6749 0.3732 0.9471
-13.4724 1.5903 0.3729 0.9472
-16.0280 1.3912 0.4422 0.9377
-19.8029 1.3492 0.5456 0.9236
-59.5144 3.6852 1.6391 0.7877
-59.5148 3.3158 1.6385 0.7878
-59.5155 2.5780 1.6375 0.7879
-59.5159 2.2093 1.6372 0.7880
-59.5163 1.8409 1.6368 0.7880
-59.5170 1.1043 1.6363 0.7880
-59.5178 0.3680 1.6361 0.7881
-13.4735 -0.0833 0.2703 0.9475
-13.4735 -0.1666 0.2703 0.9475
-13.4737 -0.4167 0.2704 0.9475
-13.4737 -0.5002 0.2705 0.9475
-13.4738 -0.5836 0.2705 0.9475
-13.4738 -0.6671 0.2706 0.9475
-13.4738 -0.7507 0.2707 0.9474
-13.4742 -1.5061 0.2720 0.9472
-13.4743 -1.5906 0.2722 0.9472
-13.4743 -1.6751 0.2724 0.9471
-13.4744 -1.7598 0.2726 0.9471
-13.4744 -1.8446 0.2728 0.9470
-13.4226 -1.9222 0.2720 0.9472
-13.5797 -2.1164 0.2757 0.9465
-13.5797 -2.2025 0.2760 0.9464
-13.5798 -2.3753 0.2765 0.9463
-13.5308 -2.4530 0.2759 0.9465
-13.5801 -2.8983 0.2786 0.9460
-13.5801 -2.9862 0.2789 0.9459
-13.5803 -3.2515 0.2801 0.9457
-13.5803 -3.3404 0.2805 0.9456
-13.5804 -3.4296 0.2810 0.9455
-13.4754 -3.7600 0.2806 0.9456
-13.4754 -3.8500 0.2811 0.9455
-13.4754 -3.9403 0.2816 0.9454
-13.4755 -4.0309 0.2822 0.9453
-13.4758 -4.5821 0.2855 0.9446
-13.4758 -4.6754 0.2861 0.9445
-13.4759 -4.7689 0.2868 0.9444
-13.4762 -5.3394 0.2908 0.9437
-13.4763 -5.5333 0.2922 0.9434
-13.4764 -5.9270 0.2953 0.9428
-13.4765 -6.0268 0.2961 0.9426
-13.4766 -6.1271 0.2970 0.9425
-13.4766 -6.2279 0.2978 0.9423
-13.4767 -6.4314 0.2996 0.9420
-13.4768 -6.6374 0.3014 0.9417
-13.4770 -6.9510 0.3042 0.9411
-13.4771 -7.1635 0.3062 0.9408
-13.4254 -7.3504 0.3070 0.9406
-13.5432 -7.8564 0.3141 0.9393
-13.5827 -8.1055 0.3173 0.9387
-13.5827 -8.2199 0.3185 0.9385
-13.5829 -8.4512 0.3209 0.9380
-13.5829 -8.5682 0.3222 0.9378
-13.5830 -8.8050 0.3247 0.9373
-13.5831 -8.9248 0.3260 0.9370
-13.4924 -8.9852 0.3252 0.9372
-13.4262 -9.0615 0.3249 0.9373
-13.4781 -9.3412 0.3290 0.9365
-13.4783 -9.5902 0.3318 0.9360
-13.4785 -10.1017 0.3379 0.9348
-13.4787 -10.4979 0.3427 0.9339
-13.4787 -10.6325 0.3444 0.9336
-13.4788 -10.7685 0.3461 0.9333
-15.0541 -12.3351 0.3904 0.9251
-14.8629 -12.3329 0.3874 0.9256
-14.6746 -12.3306 0.3845 0.9262
-14.2690 -12.2941 0.3778 0.9274
-13.7452 -12.2944 0.3699 0.9289
-13.5754 -12.2945 0.3674 0.9293
-13.4797 -12.5147 0.3690 0.9291
-13.4797 -12.6708 0.3711 0.9287
-13.4798 -12.8289 0.3733 0.9283
-13.4799 -12.9887 0.3755 0.9278
-13.4800 -13.1505 0.3778 0.9274
-13.4800 -13.3143 0.3801 0.9270
-13.4802 -13.6480 0.3848 0.9261
-13.4803 -13.8179 0.3872 0.9257
-13.4804 -13.9901 0.3897 0.9252
-13.4406 -14.1226 0.3911 0.9250
-13.5407 -14.5847 0.3992 0.9235
-13.5385 -14.7645 0.4018 0.9230
-13.5363 -14.9466 0.4045 0.9225
-13.5341 -15.1312 0.4072 0.9220
-13.4816 -16.4532 0.4267 0.9184
-13.4816 -16.6625 0.4300 0.9178
-13.4819 -17.0908 0.4367 0.9166
-13.4821 -17.5327 0.4437 0.9153
-13.4822 -17.7591 0.4473 0.9147
-13.4823 -17.9891 0.4510 0.9140
-13.4824 -18.2230 0.4547 0.9133
-13.4826 -18.7028 0.4625 0.9119
-11.2880 -17.4134 0.4163 0.9203
-11.1357 -17.4134 0.4146 0.9206
-10.8347 -17.4136 0.4114 0.9212
-10.6860 -17.4137 0.4098 0.9215
-10.1019 -17.4140 0.4038 0.9226
-9.8162 -17.4141 0.4010 0.9231
-9.6748 -17.4142 0.3996 0.9234
-9.3949 -17.4144 0.3969 0.9239
-9.2564 -17.4144 0.3956 0.9241
-8.8461 -17.4146 0.3918 0.9248
-8.7111 -17.4147 0.3906 0.9251
-8.5769 -17.4148 0.3894 0.9253
-8.3109 -17.4149 0.3871 0.9257
-8.1791 -17.4150 0.3860 0.9259
-8.0480 -17.4150 0.3848 0.9261
-7.9177 -17.4151 0.3838 0.9263
-7.2769 -17.4155 0.3786 0.9273
-7.0252 -17.4156 0.3767 0.9276
-6.9003 -17.4157 0.3758 0.9278
-6.7761 -17.4157 0.3749 0.9280
-6.6524 -17.4158 0.3740 0.9281
-6.5293 -17.4158 0.3731 0.9283
-6.2847 -17.4160 0.3714 0.9286
-6.1633 -17.4160 0.3706 0.9288
-5.6827 -17.4163 0.3675 0.9293
-5.5638 -17.4163 0.3668 0.9295
-4.8597 -17.4167 0.3627 0.9302
-4.6284 -17.4168 0.3615 0.9304
-4.5133 -17.4169 0.3609 0.9305
-4.3985 -17.4169 0.3604 0.9307
-4.1701 -17.4171 0.3593 0.9309
-4.0564 -17.4171 0.3587 0.9310
-3.9430 -17.4172 0.3582 0.9310
-3.8299 -17.4172 0.3577 0.9311
-3.6047 -17.4173 0.3568 0.9313
-3.4925 -17.4174 0.3564 0.9314
-3.3806 -17.4175 0.3559 0.9315
-3.0465 -17.4176 0.3547 0.9317
-2.4943 -17.4179 0.3530 0.9320
-2.2748 -17.4180 0.3524 0.9321
-2.1654 -17.4181 0.3521 0.9322
-1.9470 -17.4182 0.3516 0.9323
-1.8380 -17.4183 0.3514 0.9323
-1.6205 -17.4184 0.3509 0.9324
-1.4034 -17.4185 0.3506 0.9325
-1.2950 -17.4186 0.3504 0.9325
-1.0786 -17.4187 0.3501 0.9326
-0.7545 -17.4188 0.3498 0.9326
-0.5388 -17.4189 0.3496 0.9327
-0.2154 -17.4191 0.3495 0.9327
0.0000 -17.4192 0.3494 0.9327
0.1078 -17.4193 0.3494 0.9327
0.5388 -17.4195 0.3496 0.9326
0.6467 -17.4195 0.3497 0.9326
0.7546 -17.4196 0.3498 0.9326
0.8625 -17.4196 0.3499 0.9326
1.0787 -17.4198 0.3501 0.9326
1.6206 -17.4200 0.3510 0.9324
2.0564 -17.4203 0.3519 0.9322
2.2752 -17.4204 0.3524 0.9321
2.3848 -17.4204 0.3527 0.9321
2.4947 -17.4205 0.3530 0.9320
2.7150 -17.4206 0.3537 0.9319
2.9362 -17.4207 0.3544 0.9318
3.1583 -17.4208 0.3552 0.9316
3.2697 -17.4209 0.3556 0.9315
3.4933 -17.4210 0.3564 0.9314
3.6055 -17.4211 0.3569 0.9313
3.7180 -17.4211 0.3573 0.9312
3.8308 -17.4212 0.3578 0.9311
4.1411 -15.5831 0.3234 0.9375
4.0366 -14.8202 0.3081 0.9404
4.0863 -12.5235 0.2643 0.9487
4.0520 -11.2287 0.2395 0.9534
4.1307 -11.2288 0.2400 0.9533
4.1921 -11.1817 0.2396 0.9533
4.1921 -10.9750 0.2357 0.9541
4.1923 -10.5810 0.2283 0.9555
4.1470 -10.1000 0.2190 0.9573
4.1926 -10.0339 0.2181 0.9574
4.0658 -9.5637 0.2085 0.9593
4.0879 -9.1409 0.2009 0.9607
4.0879 -8.9914 0.1981 0.9613
4.0880 -8.8459 0.1955 0.9618
4.0880 -8.7043 0.1929 0.9623
4.0884 -7.9268 0.1789 0.9649
4.0885 -7.8080 0.1768 0.9654
4.0887 -7.3595 0.1689 0.9669
4.0887 -7.2535 0.1670 0.9672
4.0889 -7.0485 0.1635 0.9679
4.0889 -6.9492 0.1617 0.9683
4.0889 -6.8520 0.1601 0.9686
4.0890 -6.7567 0.1584 0.9689
4.0891 -6.4823 0.1537 0.9698
4.0892 -6.3944 0.1523 0.9701
4.0892 -6.3082 0.1508 0.9704
4.0893 -6.1405 0.1480 0.9709
4.0864 -5.8189 0.1426 0.9720
4.1404 -5.8190 0.1433 0.9718
4.1946 -5.7434 0.1427 0.9719
4.1946 -5.6696 0.1415 0.9722
4.1947 -5.5254 0.1392 0.9726
4.1947 -5.4551 0.1380 0.9728
4.1948 -5.3177 0.1359 0.9733
4.1948 -5.2506 0.1348 0.9735
4.1949 -5.1196 0.1328 0.9739
4.1949 -5.0555 0.1318 0.9741
4.1950 -4.9302 0.1299 0.9744
4.1950 -4.8689 0.1289 0.9746
4.1950 -4.8085 0.1280 0.9748
4.1460 -4.6934 0.1256 0.9753
4.1951 -4.6322 0.1254 0.9753
4.1952 -4.5751 0.1245 0.9755
4.1952 -4.5187 0.1237 0.9756
4.1952 -4.4630 0.1229 0.9758
4.1952 -4.4081 0.1221 0.9759
4.0384 -4.1911 0.1167 0.9770
4.0903 -4.0400 0.1153 0.9773
4.0903 -3.9413 0.1139 0.9775
4.0903 -3.8928 0.1133 0.9777
4.0904 -3.6587 0.1101 0.9783
4.0904 -3.6134 0.1095 0.9784
4.0905 -3.3943 0.1066 0.9790
4.0906 -3.3518 0.1061 0.9791
4.0906 -3.3097 0.1056 0.9792
4.0906 -3.2269 0.1045 0.9794
4.0907 -3.1456 0.1035 0.9796
4.0907 -3.0266 0.1021 0.9798
4.0908 -2.9107 0.1007 0.9801
4.0908 -2.8352 0.0998 0.9803
4.0909 -2.7979 0.0994 0.9804
4.0909 -2.7243 0.0986 0.9805
4.0909 -2.6161 0.0974 0.9808
4.0910 -2.5105 0.0963 0.9810
4.0910 -2.4758 0.0959 0.9811
4.0910 -2.4072 0.0952 0.9812
4.0911 -2.3396 0.0945 0.9813
4.1262 -2.3259 0.0950 0.9812
4.3115 -2.3260 0.0983 0.9806
4.3761 -2.3260 0.0994 0.9804
4.5099 -2.3261 0.1018 0.9799
4.7232 -2.3262 0.1056 0.9792
4.7979 -2.3262 0.1070 0.9789
4.9532 -2.3263 0.1098 0.9783
4.9818 -2.3022 0.1101 0.9783
5.0029 -2.2745 0.1102 0.9783
5.7204 -2.4319 0.1247 0.9754
5.8202 -2.4319 0.1265 0.9751
6.0290 -2.4320 0.1304 0.9743
6.1384 -2.4321 0.1324 0.9739
6.1490 -2.3924 0.1324 0.9739
6.3675 -2.4322 0.1367 0.9731
6.6120 -2.4323 0.1413 0.9722
6.6469 -2.3986 0.1418 0.9721
6.6469 -2.3061 0.1411 0.9722
6.9861 -2.3273 0.1477 0.9710
7.1331 -2.3274 0.1505 0.9704
7.7818 -2.3278 0.1629 0.9680
7.9611 -2.3279 0.1664 0.9674
8.3435 -2.3281 0.1738 0.9659
9.8954 -2.4340 0.2044 0.9601
10.4222 -2.2918 0.2141 0.9582
11.2561 -2.3296 0.2306 0.9551
11.9591 -2.3980 0.2447 0.9524
48.9537 -9.1879 0.9992 0.8193
48.9538 -8.8749 0.9980 0.8195
49.9338 -8.4160 1.0158 0.8166
48.0240 -4.7674 0.9681 0.8244
48.0242 -4.4677 0.9675 0.8245
48.0243 -4.1683 0.9670 0.8246
48.0245 -3.8693 0.9665 0.8247
66.4406 -4.9397 1.3365 0.7660
48.9573 -2.1206 0.9830 0.8220
48.9576 -1.5143 0.9826 0.8220
48.9588 0.9084 0.9823 0.8221
48.9591 1.5144 0.9826 0.8220
48.9593 1.8175 0.9828 0.8220
48.9595 2.1208 0.9831 0.8220
48.9597 2.7278 0.9837 0.8219
44.2509 2.7401 0.8894 0.8375
48.9601 3.3357 0.9844 0.8217
48.9604 3.9447 0.9853 0.8216
48.9613 5.7796 0.9890 0.8210
48.9615 6.0869 0.9897 0.8209
48.9618 6.7029 0.9913 0.8206
48.9620 7.0116 0.9922 0.8205
48.9621 7.3209 0.9931 0.8203
48.9626 8.2524 0.9961 0.8198
11.3029 1.9770 0.2302 0.9551
10.9062 1.9772 0.2223 0.9566
9.8266 2.0338 0.2013 0.9606
9.7598 2.0829 0.2002 0.9609
8.6593 1.9604 0.1781 0.9651
8.2638 1.9785 0.1705 0.9666
8.0442 1.9787 0.1662 0.9674
7.6366 1.9789 0.1583 0.9689
7.4470 1.9790 0.1546 0.9696
7.2660 1.9791 0.1511 0.9703
7.0930 1.9792 0.1477 0.9710
6.9276 1.9792 0.1445 0.9716
6.5491 1.9591 0.1371 0.9730
6.5491 2.0477 0.1376 0.9729
6.0776 2.0247 0.1285 0.9747
6.0513 2.0576 0.1282 0.9748
6.0092 2.0849 0.1276 0.9749
5.8915 2.0849 0.1254 0.9753
5.7778 2.0850 0.1232 0.9757
5.4203 2.0321 0.1161 0.9771
5.4203 2.0704 0.1164 0.9771
4.9565 1.9284 0.1067 0.9789
4.8230 1.9803 0.1046 0.9794
4.7395 1.9804 0.1030 0.9797
4.5796 1.9804 0.1001 0.9802
4.5031 1.9805 0.0987 0.9805
4.4287 1.9805 0.0973 0.9808
4.2858 1.9806 0.0947 0.9813
4.2172 1.9806 0.0935 0.9815
4.1504 1.9807 0.0923 0.9818
4.0852 1.9807 0.0911 0.9820
4.0217 1.9807 0.0899 0.9822
3.9933 1.9975 0.0896 0.9823
3.9933 2.0285 0.0898 0.9822
3.9934 2.1544 0.0910 0.9820
3.9935 2.3498 0.0929 0.9816
3.9936 2.4168 0.0936 0.9815
3.9936 2.4507 0.0940 0.9814
3.9936 2.4848 0.0944 0.9814
3.9936 2.5192 0.0947 0.9813
3.9936 2.5539 0.0951 0.9812
3.9937 2.6241 0.0959 0.9811
3.9937 2.6954 0.0967 0.9809
3.9937 2.7315 0.0971 0.9808
3.9937 2.7679 0.0975 0.9807
3.9938 2.8417 0.0983 0.9806
3.9938 2.9168 0.0992 0.9804
3.9939 3.0712 0.1011 0.9800
3.9939 3.1107 0.1016 0.9800
3.9940 3.1909 0.1025 0.9798
3.9940 3.2727 0.1036 0.9796
3.9940 3.3142 0.1041 0.9794
3.9941 3.3561 0.1047 0.9793
3.9941 3.4413 0.1058 0.9791
3.9941 3.4846 0.1063 0.9790
3.9942 3.5726 0.1075 0.9788
3.9942 3.6173 0.1081 0.9787
3.9942 3.6626 0.1087 0.9786
3.9943 3.7083 0.1093 0.9784
3.9943 3.8015 0.1106 0.9782
3.9528 3.8088 0.1101 0.9783
3.9426 3.8941 0.1112 0.9781
4.0996 4.0996 0.1163 0.9771
4.0996 4.1507 0.1170 0.9769
4.0842 4.3450 0.1196 0.9764
4.0507 4.3630 0.1194 0.9765
4.0998 4.4711 0.1217 0.9760
4.0999 4.5837 0.1234 0.9757
4.1000 4.7586 0.1260 0.9752
4.1001 4.8795 0.1278 0.9748
4.1001 4.9412 0.1288 0.9746
4.0510 5.0069 0.1292 0.9746
4.1002 5.1322 0.1318 0.9741
4.1003 5.1978 0.1328 0.9739
4.1003 5.2645 0.1339 0.9737
4.1003 5.3322 0.1349 0.9734
4.1004 5.4011 0.1360 0.9732
4.1004 5.4711 0.1372 0.9730
4.0498 5.4738 0.1366 0.9731
3.9977 5.4738 0.1360 0.9732
3.9435 5.5422 0.1364 0.9732
3.9954 5.7648 0.1407 0.9723
3.9954 5.8418 0.1420 0.9721
3.9955 5.9201 0.1433 0.9718
3.9955 5.9998 0.1446 0.9716
3.9956 6.0811 0.1460 0.9713
3.9957 6.2482 0.1488 0.9708
3.9957 6.3343 0.1502 0.9705
3.9959 6.6961 0.1564 0.9693
3.9960 6.7913 0.1581 0.9690
3.9961 6.9878 0.1615 0.9683
3.9962 7.1930 0.1651 0.9676
3.9963 7.4076 0.1688 0.9669
3.9964 7.5186 0.1708 0.9665
3.9965 7.6322 0.1728 0.9661
3.9965 7.7486 0.1749 0.9657
3.9966 7.8678 0.1770 0.9653
3.9967 7.9899 0.1792 0.9649
3.9967 8.1151 0.1815 0.9645
3.9968 8.2435 0.1838 0.9640
3.9970 8.6491 0.1911 0.9626
3.9972 8.9381 0.1964 0.9616
3.9973 9.0887 0.1992 0.9611
4.0759 9.7548 0.2121 0.9586
4.1029 9.9927 0.2167 0.9577
4.0541 10.4198 0.2243 0.9563
4.1033 10.7425 0.2307 0.9550
4.0803 10.8836 0.2332 0.9546
4.0037 10.8837 0.2326 0.9547
3.9465 10.9364 0.2332 0.9545
3.9985 11.2989 0.2404 0.9532
3.9986 11.5254 0.2447 0.9524
3.9988 11.7601 0.2492 0.9515
3.9989 12.0035 0.2538 0.9506
3.9990 12.2562 0.2586 0.9497
3.9992 12.5187 0.2636 0.9488
3.9993 12.7915 0.2688 0.9478
3.9995 13.0754 0.2743 0.9468
4.0002 14.3364 0.2986 0.9422
4.0004 14.6873 0.3054 0.9409
3.9487 14.8593 0.3084 0.9403
3.6952 15.0227 0.3103 0.9400
3.4009 15.0229 0.3090 0.9402
3.3034 15.0229 0.3086 0.9403
3.0124 15.0230 0.3074 0.9405
2.9159 15.0231 0.3070 0.9406
2.5498 15.1285 0.3078 0.9405
2.4537 15.1285 0.3074 0.9405
2.3578 15.1286 0.3071 0.9406
2.2547 15.0795 0.3059 0.9408
2.1665 15.1287 0.3066 0.9407
2.0711 15.1287 0.3063 0.9407
1.9759 15.1287 0.3061 0.9408
1.5019 15.1290 0.3050 0.9410
1.4075 15.1290 0.3048 0.9410
1.3131 15.1291 0.3046 0.9411
1.2189 15.1291 0.3045 0.9411
1.1131 14.9722 0.3012 0.9417
0.5577 15.0243 0.3016 0.9416
0.2788 15.0245 0.3014 0.9417
0.1858 15.0245 0.3014 0.9417
0.0929 15.0246 0.3014 0.9417
0.0000 15.0246 0.3014 0.9417
-0.1858 15.0247 0.3014 0.9417
-0.3717 15.0248 0.3015 0.9416
-0.4647 15.0248 0.3015 0.9416
-0.5578 15.0249 0.3016 0.9416
-0.8371 15.0251 0.3019 0.9416
-0.9304 15.0251 0.3020 0.9416
-1.0237 15.0252 0.3021 0.9415
-1.2106 15.0253 0.3024 0.9415
-1.3041 15.0253 0.3025 0.9414
-1.3978 15.0253 0.3027 0.9414
-1.4916 15.0254 0.3029 0.9414
-1.5855 15.0254 0.3031 0.9413
-1.7737 15.0255 0.3035 0.9413
-1.9624 15.0256 0.3040 0.9412
-2.3418 15.0258 0.3051 0.9410
-2.4371 15.0258 0.3054 0.9409
-2.6191 14.9741 0.3049 0.9410
-2.7431 15.1312 0.3085 0.9403
-2.8399 15.1312 0.3088 0.9403
-2.9369 15.1312 0.3092 0.9402
-3.3932 14.9884 0.3083 0.9404
-3.5886 14.9885 0.3092 0.9402
-3.6868 14.9886 0.3096 0.9401
-3.7853 14.9886 0.3101 0.9400
-3.8840 14.9887 0.3106 0.9399
-4.2810 14.9840 0.3126 0.9396
-4.3829 14.9889 0.3133 0.9394
-4.4837 14.9890 0.3138 0.9393
-4.5849 14.9890 0.3144 0.9392
-4.7884 14.9892 0.3157 0.9390
-4.9936 14.9893 0.3169 0.9387
-5.0792 14.9375 0.3165 0.9388
-5.6338 15.0275 0.3219 0.9378
-5.7401 15.0276 0.3227 0.9377
-5.9542 15.0277 0.3243 0.9374
-6.1703 15.0278 0.3259 0.9371
-6.3073 15.0951 0.3282 0.9366
-6.4173 15.0952 0.3290 0.9365
-6.5279 15.0952 0.3299 0.9363
-6.6943 14.9693 0.3289 0.9365
-6.9275 14.9903 0.3313 0.9361
-7.0403 14.9903 0.3322 0.9359
-7.1538 14.9904 0.3332 0.9357
-7.3829 14.9905 0.3352 0.9353
-7.4985 14.9905 0.3362 0.9351
-8.5729 14.9911 0.3464 0.9332
-8.9461 14.9913 0.3502 0.9325
-9.1995 14.9914 0.3528 0.9320
-9.3277 14.9915 0.3542 0.9318
-9.5870 14.9916 0.3570 0.9313
-9.8504 14.9917 0.3598 0.9307
-10.1182 14.9919 0.3628 0.9302
-10.2537 14.9920 0.3644 0.9299
-10.4919 14.9403 0.3662 0.9296
-10.7010 15.0394 0.3703 0.9288
-10.8431 15.0412 0.3720 0.9285
-11.2771 15.0469 0.3772 0.9275
-11.4246 15.0488 0.3790 0.9272
-11.5735 15.0507 0.3809 0.9269
-11.7238 15.0527 0.3827 0.9265
-12.2851 14.9930 0.3888 0.9254
-12.4409 14.9931 0.3908 0.9250
-12.5983 14.9932 0.3928 0.9246
-13.0807 14.9934 0.3991 0.9235
-13.2450 14.9935 0.4013 0.9231
-13.4110 14.9936 0.4035 0.9227
-13.5216 14.7460 0.4013 0.9231
-13.4140 14.2703 0.3929 0.9246
-13.4659 13.9751 0.3893 0.9253
-13.4661 13.6337 0.3844 0.9262
-13.4662 13.4662 0.3820 0.9266
-13.4663 13.3007 0.3797 0.9271
-13.4664 13.1373 0.3774 0.9275
-13.4665 12.9759 0.3751 0.9279
-13.4668 12.5027 0.3686 0.9291
-13.6545 12.3661 0.3695 0.9289
-13.4671 11.8965 0.3605 0.9306
-13.4672 11.7491 0.3585 0.9310
-13.4672 11.6033 0.3566 0.9313
-13.4673 11.4590 0.3547 0.9317
-13.4674 11.3163 0.3529 0.9320
-13.4675 11.1750 0.3511 0.9324
-13.4676 11.0351 0.3493 0.9327
-13.4678 10.6239 0.3441 0.9337
-13.4679 10.4895 0.3424 0.9340
-13.4161 10.3165 0.3395 0.9345
-13.5287 9.7527 0.3345 0.9355
-13.5735 9.6579 0.3342 0.9355
-13.5737 9.2837 0.3299 0.9363
-13.5739 8.9187 0.3258 0.9371
-13.5739 8.7991 0.3245 0.9373
-13.4254 8.5854 0.3197 0.9382
-13.4690 8.3804 0.3182 0.9385
-13.4691 8.2653 0.3170 0.9387
-13.4691 8.1511 0.3158 0.9390
-13.4692 8.0378 0.3146 0.9392
-13.4692 7.9253 0.3135 0.9394
-13.4694 7.7027 0.3113 0.9398
-13.4694 7.5926 0.3102 0.9400
-13.4695 7.4832 0.3091 0.9402
-13.4696 7.3746 0.3080 0.9404
-13.4696 7.2667 0.3070 0.9406
-13.4697 7.0531 0.3050 0.9410
-13.4698 6.9473 0.3040 0.9412
-13.4698 6.8423 0.3031 0.9413
-13.4699 6.6340 0.3012 0.9417
-13.4700 6.5308 0.3003 0.9419
-13.4701 6.3263 0.2985 0.9422
-13.4702 6.1242 0.2968 0.9425
-13.4703 5.9243 0.2952 0.9428
-13.4704 5.7266 0.2936 0.9431
-13.4705 5.6285 0.2929 0.9433
-13.4705 5.5310 0.2921 0.9434
-13.4706 5.3373 0.2907 0.9437
-13.4708 5.1455 0.2893 0.9439
-13.4191 4.8424 0.2862 0.9445
-13.5761 4.7101 0.2883 0.9441
-13.5764 4.2447 0.2853 0.9447
-13.5766 3.7883 0.2828 0.9452
-13.5768 3.5182 0.2813 0.9454
-13.5769 3.3395 0.2805 0.9456
-13.4719 2.9624 0.2767 0.9463
-13.4721 2.5285 0.2750 0.9466
-13.4724 2.0144 0.2733 0.9470
-13.4726 1.6749 0.2723 0.9471
-13.4727 1.4217 0.2718 0.9472
-13.5750 1.3476 0.2737 0.9469
-14.3633 1.3362 0.2894 0.9439
-18.1383 1.3485 0.3649 0.9298
-59.4553 0.7354 1.1928 0.7883
-59.4568 0.0000 0.7512 0.7883
-13.4738 -0.1666 0.1702 0.9475
-13.4739 -0.3334 0.1703 0.9475
-13.4740 -0.5836 0.1704 0.9475
-13.4741 -0.6671 0.1704 0.9475
-13.4741 -0.7507 0.1705 0.9474
-13.4741 -0.8343 0.1706 0.9474
-13.4742 -0.9180 0.1706 0.9474
-13.4742 -1.0018 0.1707 0.9474
-13.4743 -1.1695 0.1709 0.9473
-13.4744 -1.2535 0.1710 0.9473
-13.4744 -1.3376 0.1711 0.9473
-13.4744 -1.4218 0.1712 0.9472
-13.4745 -1.5061 0.1713 0.9472
-13.4746 -1.7598 0.1717 0.9471
-13.5799 -2.1164 0.1736 0.9465
-13.5800 -2.2025 0.1738 0.9465
-13.5801 -2.3753 0.1742 0.9463
-13.5802 -2.5488 0.1746 0.9462
-13.5802 -2.6359 0.1748 0.9462
-13.5803 -2.7231 0.1750 0.9461
-13.5803 -2.8106 0.1752 0.9460
-13.5804 -2.8983 0.1754 0.9460
-13.5804 -3.0744 0.1759 0.9458
-13.5805 -3.1628 0.1762 0.9457
-13.5805 -3.2515 0.1764 0.9457
-13.5806 -3.3404 0.1767 0.9456
-13.4238 -3.6563 0.1758 0.9459
-13.4756 -3.7601 0.1767 0.9456
-13.4758 -4.0310 0.1777 0.9453
-13.4759 -4.2133 0.1784 0.9451
-13.4759 -4.3050 0.1787 0.9450
-13.4759 -4.3970 0.1791 0.9449
-13.4760 -4.4895 0.1794 0.9448
-13.4761 -4.5822 0.1798 0.9447
-13.4761 -4.7690 0.1806 0.9444
-13.4763 -5.0523 0.1818 0.9441
-13.4763 -5.1476 0.1822 0.9439
-13.4764 -5.2433 0.1827 0.9438
-13.4765 -5.4362 0.1836 0.9435
-13.4765 -5.5334 0.1840 0.9434
-13.4766 -5.7292 0.1850 0.9431
-13.4767 -5.8279 0.1855 0.9430
-13.4767 -5.9271 0.1860 0.9428
-13.4768 -6.0269 0.1865 0.9427
-13.4769 -6.2281 0.1876 0.9423
-13.4770 -6.4316 0.1887 0.9420
-13.4770 -6.5342 0.1892 0.9418
-13.4771 -6.7414 0.1904 0.9415
-13.4773 -7.0571 0.1922 0.9410
-13.4774 -7.1637 0.1928 0.9408
-13.4256 -7.3506 0.1934 0.9406
-13.5827 -7.5461 0.1963 0.9397
-13.5828 -7.7675 0.1977 0.9393
-13.5432 -7.8564 0.1978 0.9393
-13.5829 -7.9921 0.1991 0.9389
-13.5830 -8.1057 0.1998 0.9387
-13.5830 -8.2201 0.2006 0.9385
-13.5831 -8.4514 0.2021 0.9380
-13.5832 -8.5684 0.2029 0.9378
-13.5833 -8.6863 0.2037 0.9375
-13.5833 -8.8052 0.2045 0.9373
-13.5834 -8.9250 0.2053 0.9371
-13.4924 -8.9852 0.2048 0.9372
-13.4265 -9.0617 0.2046 0.9373
-13.4784 -9.2185 0.2063 0.9368
-13.4784 -9.3414 0.2072 0.9365
-13.4785 -9.4654 0.2081 0.9362
-13.4786 -9.5904 0.2090 0.9360
-13.4786 -9.7166 0.2099 0.9357
-13.4787 -9.8439 0.2109 0.9354
-13.4787 -9.9723 0.2118 0.9351
-13.4789 -10.2328 0.2138 0.9345
-13.4789 -10.3648 0.2148 0.9342
-13.4790 -10.4982 0.2158 0.9339
-13.4791 -10.6328 0.2169 0.9336
-15.1319 -12.3989 0.2471 0.9247
-14.9068 -12.3693 0.2447 0.9254
-14.7560 -12.3990 0.2435 0.9258
-14.3879 -12.2423 0.2387 0.9272
-14.2691 -12.2942 0.2379 0.9274
-13.9174 -12.2943 0.2346 0.9284
-13.7452 -12.2944 0.2330 0.9289
-13.4799 -12.3606 0.2311 0.9294
-13.4800 -12.5150 0.2324 0.9291
-13.4801 -12.6712 0.2337 0.9287
-13.4802 -12.8292 0.2351 0.9283
-13.4803 -12.9891 0.2365 0.9278
-13.4803 -13.1509 0.2379 0.9274
-13.4805 -13.4805 0.2408 0.9266
-13.4806 -13.6483 0.2424 0.9261
-13.4807 -13.8183 0.2439 0.9257
-13.4406 -14.1226 0.2463 0.9250
-13.5862 -14.6338 0.2523 0.9232
-13.5864 -15.0019 0.2557 0.9222
-13.5865 -15.1898 0.2575 0.9217
-13.5868 -15.7693 0.2630 0.9201
-13.4333 -15.7876 0.2619 0.9204
-13.4819 -16.2476 0.2667 0.9190
-13.4822 -16.8755 0.2729 0.9172
-13.4825 -17.5333 0.2794 0.9153
-13.4826 -17.7596 0.2817 0.9147
-13.4827 -17.9897 0.2840 0.9140
-13.4828 -18.2236 0.2864 0.9133
-13.4831 -18.7034 0.2913 0.9119
-13.4833 -19.1999 0.2964 0.9104
-10.8347 -17.4136 0.2591 0.9212
-10.6859 -17.4137 0.2581 0.9215
-10.5383 -17.4138 0.2571 0.9218
