ply
format ascii 1.0
element vertex 1550
property float32 x
property float32 y
property float32 z
property float32 I
end_header
-4.7765 9.8517 -0.0243 0.9572
-4.8464 9.8404 -0.0243 0.9571
-4.9166 9.8291 -0.0244 0.9570
-5.0578 9.8063 -0.0245 0.9568
-5.1288 9.7948 -0.0245 0.9567
-5.1302 9.6517 -0.0242 0.9572
-5.1293 9.3686 -0.0237 0.9582
-5.1285 9.0981 -0.0231 0.9591
-5.0865 8.7682 -0.0225 0.9603
-5.1352 8.7274 -0.0224 0.9603
-5.1833 8.5649 -0.0222 0.9607
-5.1829 8.4460 -0.0220 0.9611
-5.1815 7.9933 -0.0211 0.9626
-5.0817 7.7340 -0.0205 0.9637
-5.0863 7.6377 -0.0203 0.9640
-5.1236 7.4913 -0.0201 0.9643
-5.0817 7.0493 -0.0193 0.9658
-5.1785 6.9994 -0.0193 0.9658
-5.1777 6.7334 -0.0188 0.9666
-5.1774 6.6475 -0.0187 0.9669
-5.1772 6.5631 -0.0185 0.9671
-5.1769 6.4799 -0.0184 0.9674
-5.1762 6.2381 -0.0180 0.9681
-5.0782 5.9683 -0.0174 0.9691
-5.0816 5.8979 -0.0173 0.9693
-5.1185 5.7942 -0.0171 0.9695
-3.6729 3.8117 -0.0117 0.9790
-3.7522 3.7989 -0.0118 0.9789
-3.7622 3.6702 -0.0116 0.9792
-3.7621 3.6250 -0.0116 0.9793
-3.7619 3.5802 -0.0115 0.9794
-3.7618 3.5360 -0.0114 0.9796
-3.7352 3.4678 -0.0113 0.9798
-3.7459 3.4349 -0.0113 0.9799
-3.7614 3.4065 -0.0112 0.9799
-3.7610 3.2812 -0.0111 0.9802
-3.6367 3.0944 -0.0106 0.9811
-3.6420 3.0603 -0.0105 0.9812
-3.7044 2.9973 -0.0106 0.9811
-3.7180 2.9704 -0.0105 0.9811
-3.7451 2.9169 -0.0105 0.9812
-3.7586 2.8902 -0.0105 0.9812
-3.7720 2.8636 -0.0105 0.9812
-3.7855 2.8371 -0.0105 0.9813
-3.8255 2.7578 -0.0105 0.9813
-3.8388 2.7315 -0.0104 0.9813
-3.8654 2.6790 -0.0104 0.9814
-3.9050 2.6005 -0.0104 0.9814
-3.8899 2.5559 -0.0104 0.9816
-3.9173 2.5051 -0.0103 0.9816
-4.0734 2.5345 -0.0106 0.9810
-4.0993 2.5155 -0.0107 0.9809
-4.1253 2.4965 -0.0107 0.9809
-4.1778 2.4582 -0.0107 0.9808
-4.2575 2.3999 -0.0108 0.9806
-4.2997 2.3197 -0.0108 0.9806
-4.3934 2.3005 -0.0110 0.9804
-4.4770 2.2394 -0.0111 0.9802
-4.5052 2.2188 -0.0111 0.9801
-4.5621 2.1772 -0.0112 0.9800
-4.5726 2.1131 -0.0112 0.9801
-4.5496 2.0685 -0.0111 0.9802
-4.5495 2.0346 -0.0110 0.9803
-4.5849 2.0164 -0.0111 0.9802
-4.6206 1.9981 -0.0112 0.9801
-4.8133 2.0112 -0.0116 0.9793
-4.9365 1.9913 -0.0118 0.9789
-5.0648 1.9706 -0.0120 0.9785
-5.2308 1.9610 -0.0124 0.9779
-5.4327 1.9604 -0.0128 0.9772
-5.5388 1.9601 -0.0130 0.9768
-5.6487 1.9598 -0.0133 0.9764
-6.0030 1.9587 -0.0140 0.9751
-6.1067 1.9093 -0.0142 0.9747
-6.6916 2.0017 -0.0155 0.9724
-7.2109 2.0602 -0.0166 0.9704
-7.7466 2.0586 -0.0178 0.9684
-7.7718 1.9117 -0.0177 0.9685
-8.6172 1.9508 -0.0196 0.9653
-8.8681 1.9500 -0.0201 0.9643
-9.1334 1.9492 -0.0207 0.9633
-9.7122 1.9475 -0.0220 0.9612
-11.5472 2.0197 -0.0260 0.9542
-11.5470 1.9462 -0.0260 0.9542
-11.9654 1.9407 -0.0269 0.9527
-12.4429 1.9392 -0.0279 0.9509
-30.1039 4.3110 -0.0674 0.8855
-30.1033 4.1211 -0.0673 0.8856
-30.1016 3.5533 -0.0672 0.8858
-30.1010 3.3646 -0.0671 0.8859
-29.9924 2.2299 -0.0667 0.8867
-29.9919 2.0434 -0.0666 0.8867
-29.9913 1.8571 -0.0666 0.8867
-29.9907 1.6709 -0.0666 0.8868
-29.9902 1.4849 -0.0665 0.8868
-29.9896 1.2991 -0.0665 0.8869
-30.1209 -0.1863 -0.2904 0.8865
-29.9837 -0.7419 -0.2892 0.8869
-29.9826 -1.1130 -0.2893 0.8869
-29.9820 -1.2987 -0.2893 0.8869
-29.9804 -1.8564 -0.2896 0.8868
-29.9280 -2.0390 -0.2892 0.8869
-30.0838 -2.4238 -0.2910 0.8863
-30.0832 -2.6111 -0.2911 0.8862
-30.0815 -3.1742 -0.2916 0.8860
-30.0810 -3.3624 -0.2918 0.8860
-29.9229 -3.7200 -0.2907 0.8864
-29.9730 -4.2923 -0.2919 0.8859
-29.9724 -4.4815 -0.2922 0.8858
-29.9719 -4.6711 -0.2924 0.8857
-29.9701 -5.2421 -0.2933 0.8854
-12.1930 -2.3666 -0.1197 0.9515
-11.7963 -2.3654 -0.1160 0.9530
-11.4339 -2.4402 -0.1127 0.9543
-10.9502 -2.4079 -0.1081 0.9561
-9.5893 -2.3587 -0.0952 0.9613
-9.3369 -2.3580 -0.0928 0.9622
-8.2416 -2.3547 -0.0826 0.9663
-7.6929 -2.3012 -0.0774 0.9684
-7.6588 -2.3946 -0.0774 0.9684
-7.6587 -2.4467 -0.0775 0.9684
-7.5322 -2.4577 -0.0764 0.9688
-7.1937 -2.3965 -0.0731 0.9701
-7.0798 -2.4563 -0.0722 0.9705
-6.5300 -2.4022 -0.0671 0.9726
-6.0112 -2.2961 -0.0620 0.9746
-5.6163 -2.3467 -0.0587 0.9759
-5.5194 -2.3464 -0.0578 0.9763
-5.3339 -2.3459 -0.0562 0.9770
-5.1586 -2.3453 -0.0546 0.9776
-5.0745 -2.3451 -0.0539 0.9779
-4.9968 -2.3468 -0.0532 0.9782
-4.9370 -2.3561 -0.0527 0.9784
-4.8782 -2.3652 -0.0523 0.9785
-4.7638 -2.3829 -0.0514 0.9789
-4.5995 -2.4084 -0.0501 0.9794
-4.4566 -2.4043 -0.0488 0.9799
-4.4585 -2.5496 -0.0495 0.9797
-4.4303 -2.5700 -0.0494 0.9797
-4.4022 -2.5902 -0.0492 0.9798
-4.3466 -2.6304 -0.0490 0.9799
-4.3190 -2.6503 -0.0489 0.9799
-4.2915 -2.6702 -0.0487 0.9800
-4.2370 -2.7095 -0.0485 0.9801
-4.1830 -2.7485 -0.0483 0.9802
-4.1562 -2.7678 -0.0481 0.9802
-4.0503 -2.8443 -0.0477 0.9804
-3.9979 -2.8821 -0.0475 0.9805
-3.9719 -2.9008 -0.0474 0.9805
-3.8409 -2.8417 -0.0461 0.9811
-3.7840 -2.9850 -0.0465 0.9809
-3.7701 -3.0120 -0.0465 0.9809
-3.7422 -3.0663 -0.0466 0.9808
-3.7142 -3.1209 -0.0468 0.9808
-3.6719 -3.2034 -0.0470 0.9807
-3.6577 -3.2311 -0.0471 0.9807
-3.6434 -3.2588 -0.0471 0.9806
-3.6291 -3.2867 -0.0472 0.9806
-3.6148 -3.3146 -0.0473 0.9806
-3.5860 -3.3708 -0.0474 0.9805
-3.5356 -3.3649 -0.0471 0.9807
-3.5281 -3.3996 -0.0472 0.9806
-3.6401 -3.6401 -0.0496 0.9796
-3.6400 -3.6853 -0.0499 0.9795
-3.6398 -3.7310 -0.0503 0.9794
-3.6260 -3.8100 -0.0507 0.9792
-3.6391 -3.9687 -0.0519 0.9787
-3.6387 -4.1191 -0.0530 0.9783
-3.6385 -4.1706 -0.0534 0.9781
-3.5213 -4.1907 -0.0528 0.9783
-3.5216 -4.2441 -0.0532 0.9782
-5.0376 -6.5512 -0.0797 0.9675
-5.0409 -6.6400 -0.0804 0.9672
-5.0403 -6.7251 -0.0810 0.9669
-5.0396 -6.8116 -0.0817 0.9667
-5.0366 -6.8963 -0.0823 0.9664
-5.0376 -7.0799 -0.0838 0.9658
-5.0355 -7.2655 -0.0852 0.9653
-5.0352 -7.3619 -0.0860 0.9650
-4.9830 -7.3832 -0.0859 0.9650
-4.9371 -7.4137 -0.0859 0.9650
-5.0312 -8.6730 -0.0967 0.9607
-5.0308 -8.7972 -0.0977 0.9603
-4.9319 -9.1418 -0.1001 0.9593
-4.9724 -9.4960 -0.1033 0.9580
-4.9719 -9.6398 -0.1046 0.9575
-4.9715 -9.7870 -0.1058 0.9570
-4.9710 -9.9379 -0.1071 0.9565
-4.9705 -10.0924 -0.1085 0.9560
-4.8650 -10.1943 -0.1089 0.9558
-4.7931 -10.2054 -0.1087 0.9559
-4.7214 -10.2166 -0.1085 0.9560
-4.6500 -10.2277 -0.1083 0.9561
-4.4889 -10.2067 -0.1075 0.9564
-4.4273 -10.2379 -0.1075 0.9564
-4.3016 -10.4766 -0.1092 0.9557
-4.1692 -10.5226 -0.1091 0.9557
-4.1256 -10.6036 -0.1097 0.9555
-4.0666 -10.6462 -0.1099 0.9554
-4.0073 -10.6890 -0.1101 0.9554
-3.9479 -10.7319 -0.1102 0.9553
-3.8690 -10.7218 -0.1099 0.9554
-3.7873 -10.7022 -0.1095 0.9556
-3.7556 -10.8249 -0.1105 0.9552
-3.7106 -10.9126 -0.1111 0.9549
-3.6651 -11.0014 -0.1118 0.9547
-3.6189 -11.0912 -0.1125 0.9544
-3.5723 -11.1822 -0.1132 0.9541
-3.6155 -11.8199 -0.1192 0.9518
-3.5916 -12.0069 -0.1208 0.9511
-3.7777 -13.5388 -0.1355 0.9453
-3.7299 -13.6940 -0.1368 0.9448
-3.6701 -13.8106 -0.1378 0.9444
-3.6069 -14.6638 -0.1456 0.9414
-4.6626 -20.0201 -0.1982 0.9211
-4.5322 -20.0197 -0.1979 0.9212
-4.4021 -20.0194 -0.1976 0.9213
-4.2433 -21.1616 -0.2081 0.9173
-3.7402 -21.3834 -0.2093 0.9168
-3.6472 -21.6397 -0.2116 0.9160
-3.5342 -22.6770 -0.2213 0.9123
-8.5301 -59.5657 -0.5801 0.7861
-8.1529 -59.5541 -0.5795 0.7863
-7.7765 -59.5426 -0.5789 0.7865
-7.0260 -59.5196 -0.5778 0.7868
-0.8792 -8.8561 -0.0858 0.9650
-0.8725 -10.0525 -0.0973 0.9604
-0.5790 -7.7877 -0.0753 0.9692
-0.4771 -7.7055 -0.0744 0.9696
-0.4291 -7.7010 -0.0744 0.9696
-0.3817 -7.7096 -0.0744 0.9696
-0.3353 -7.7410 -0.0747 0.9695
-0.2906 -7.8279 -0.0755 0.9692
-1.8361 -59.3600 -0.5726 0.7885
-1.4684 -59.3487 -0.5724 0.7886
-1.1010 -59.3375 -0.5722 0.7887
-0.7338 -59.3262 -0.5720 0.7887
-0.0000 -65.0130 -0.6268 0.7710
0.3667 -59.2927 -0.5717 0.7888
0.7333 -59.2814 -0.5716 0.7889
0.3286 -8.8524 -0.0854 0.9652
0.3835 -8.8522 -0.0854 0.9652
2.9320 -59.2140 -0.5716 0.7889
3.2986 -59.2028 -0.5717 0.7888
3.6653 -59.1916 -0.5718 0.7888
4.6954 -54.0959 -0.5235 0.8048
5.8694 -59.1241 -0.5728 0.7885
6.2377 -59.1128 -0.5731 0.7884
7.6239 -58.3743 -0.5676 0.7902
2.0641 -12.2468 -0.1197 0.9515
2.0551 -11.7494 -0.1150 0.9534
2.0468 -11.2898 -0.1106 0.9551
2.0382 -10.8595 -0.1065 0.9568
2.0117 -9.7203 -0.0957 0.9611
2.0041 -9.3903 -0.0926 0.9623
1.9902 -8.7910 -0.0869 0.9646
1.9838 -8.5180 -0.0843 0.9656
1.9618 -7.5708 -0.0754 0.9692
1.9571 -7.3644 -0.0735 0.9700
1.9525 -7.1684 -0.0716 0.9707
1.9482 -6.9819 -0.0699 0.9714
1.9413 -6.6391 -0.0667 0.9727
1.9316 -6.1779 -0.0624 0.9744
1.9283 -6.0361 -0.0611 0.9750
1.9251 -5.9001 -0.0598 0.9755
1.9192 -5.6442 -0.0575 0.9764
2.0113 -5.3650 -0.0552 0.9773
2.1247 -5.3626 -0.0556 0.9772
2.2397 -5.3601 -0.0560 0.9770
2.2784 -5.3593 -0.0561 0.9770
2.3956 -5.3568 -0.0566 0.9768
2.4351 -5.3560 -0.0567 0.9767
2.6358 -5.3517 -0.0575 0.9764
2.6766 -5.3509 -0.0577 0.9764
2.7177 -5.3500 -0.0579 0.9763
2.8005 -5.3482 -0.0582 0.9761
2.9693 -5.3446 -0.0589 0.9758
3.0122 -5.3437 -0.0591 0.9758
3.0554 -5.3428 -0.0593 0.9757
3.4118 -5.3351 -0.0611 0.9750
3.4578 -5.3341 -0.0613 0.9749
3.5042 -5.3331 -0.0615 0.9748
3.5980 -5.3311 -0.0620 0.9746
3.6934 -5.3291 -0.0625 0.9744
3.9388 -5.3238 -0.0638 0.9739
4.0400 -5.3216 -0.0644 0.9736
4.0912 -5.3205 -0.0647 0.9735
4.1952 -5.3182 -0.0653 0.9733
4.2479 -5.3170 -0.0656 0.9731
4.3011 -5.3159 -0.0659 0.9730
4.4090 -5.3135 -0.0666 0.9728
4.4638 -5.3123 -0.0669 0.9726
4.5750 -5.3099 -0.0676 0.9724
4.6314 -5.3087 -0.0679 0.9722
4.6885 -5.3074 -0.0683 0.9721
4.7461 -5.3062 -0.0686 0.9719
4.9227 -5.3023 -0.0698 0.9715
31.9420 -33.5627 -0.4467 0.8308
31.9407 -33.1485 -0.4438 0.8318
31.9395 -32.7396 -0.4410 0.8328
31.9371 -31.9371 -0.4355 0.8347
31.9359 -31.5433 -0.4328 0.8356
31.9336 -30.7701 -0.4276 0.8375
31.9313 -30.0152 -0.4225 0.8392
31.9302 -29.6444 -0.4201 0.8401
31.7628 -29.1253 -0.4155 0.8417
32.0536 -28.6704 -0.4146 0.8420
31.5966 -27.9117 -0.4065 0.8448
31.5955 -27.5648 -0.4043 0.8456
31.5945 -27.2216 -0.4021 0.8463
31.6145 -26.2329 -0.3961 0.8485
36.7926 -28.6560 -0.4496 0.8298
37.2639 -28.6546 -0.4532 0.8286
37.7427 -28.6532 -0.4569 0.8273
53.3580 -38.9689 -0.6370 0.7677
53.2783 -38.4076 -0.6332 0.7690
53.2722 -37.9049 -0.6304 0.7699
53.3560 -36.9790 -0.6259 0.7713
53.3540 -36.4913 -0.6232 0.7722
31.0351 -20.9459 -0.3610 0.8609
53.3502 -35.5282 -0.6180 0.7738
32.5060 -20.5051 -0.3705 0.8575
28.2336 -17.3256 -0.3194 0.8759
28.2054 -17.0691 -0.3179 0.8764
32.4875 -19.1156 -0.3634 0.8600
32.4987 -18.0552 -0.3584 0.8618
32.4979 -17.7926 -0.3572 0.8623
32.4971 -17.5319 -0.3560 0.8627
32.4955 -17.0155 -0.3536 0.8635
32.4947 -16.7599 -0.3525 0.8639
32.4949 -16.2543 -0.3503 0.8647
32.4592 -15.7376 -0.3478 0.8656
32.6171 -14.8293 -0.3454 0.8665
33.1562 -14.8277 -0.3502 0.8648
32.4526 -13.5600 -0.3391 0.8688
32.4859 -13.3385 -0.3386 0.8689
32.4851 -13.1041 -0.3377 0.8693
32.4816 -12.4071 -0.3352 0.8702
32.4809 -12.1772 -0.3344 0.8704
32.4227 -11.9272 -0.3331 0.8709
32.4788 -11.4938 -0.3322 0.8713
32.4782 -11.2680 -0.3314 0.8715
32.4761 -10.5966 -0.3294 0.8723
32.4187 -10.1359 -0.3275 0.8730
32.5237 -9.9484 -0.3279 0.8728
32.5230 -9.7286 -0.3273 0.8730
32.4161 -9.2614 -0.3250 0.8738
32.4708 -8.8442 -0.3245 0.8740
32.8537 -8.2969 -0.3267 0.8732
34.6311 -8.2915 -0.3433 0.8672
35.5895 -8.2886 -0.3523 0.8640
36.3865 -8.2374 -0.3597 0.8614
37.6654 -8.2824 -0.3718 0.8570
53.2601 -11.3667 -0.5251 0.8042
53.2594 -11.0226 -0.5244 0.8045
53.2588 -10.6794 -0.5237 0.8047
53.2581 -10.3371 -0.5231 0.8049
53.2574 -9.9957 -0.5224 0.8051
53.2567 -9.6550 -0.5218 0.8053
53.2554 -8.9759 -0.5207 0.8057
31.5266 -4.7139 -0.3073 0.8803
31.5254 -4.3158 -0.3068 0.8805
31.5242 -3.9191 -0.3063 0.8807
49.9429 -4.9579 -0.4839 0.8181
49.9419 -4.6461 -0.4836 0.8182
49.9400 -4.0236 -0.4830 0.8184
49.9391 -3.7129 -0.4828 0.8185
32.4502 -2.0093 -0.3135 0.8780
32.4477 -1.2045 -0.3131 0.8782
32.4966 -1.0051 -0.3135 0.8780
32.4960 -0.8040 -0.3134 0.8781
32.3887 -0.2003 -0.3123 0.8785
32.4423 0.6020 -0.3128 0.8783
32.4417 0.8027 -0.3129 0.8783
32.4386 1.8073 -0.3132 0.8781
32.4374 2.2100 -0.3135 0.8780
32.4368 2.4116 -0.3136 0.8780
32.4379 2.6135 -0.3138 0.8779
32.4373 2.8154 -0.3139 0.8779
32.4367 3.0176 -0.3141 0.8778
27.7600 2.7558 -0.2690 0.8944
30.9596 4.0435 -0.3010 0.8826
32.4402 4.4410 -0.3157 0.8772
32.4300 4.6442 -0.3159 0.8772
32.4294 4.8489 -0.3161 0.8771
32.4290 5.4657 -0.3171 0.8767
32.4278 5.8789 -0.3177 0.8765
32.4257 6.0858 -0.3181 0.8764
32.4244 6.5018 -0.3188 0.8761
32.4232 6.9197 -0.3196 0.8758
32.4212 7.5508 -0.3209 0.8753
30.9494 7.4101 -0.3068 0.8805
32.4193 8.1873 -0.3224 0.8748
32.4180 8.6148 -0.3234 0.8744
32.4668 8.8431 -0.3244 0.8741
32.4655 9.2756 -0.3255 0.8737
32.4141 9.9149 -0.3268 0.8732
32.4121 10.5757 -0.3287 0.8725
53.0948 17.6882 -0.5396 0.7994
30.9400 10.5205 -0.3151 0.8775
49.8735 17.9974 -0.5112 0.8089
53.1697 20.6870 -0.5501 0.7959
53.1676 21.4471 -0.5527 0.7951
53.1642 22.6013 -0.5570 0.7937
53.0836 22.9557 -0.5576 0.7935
53.0787 23.3443 -0.5591 0.7930
53.1623 24.5680 -0.5646 0.7911
53.1611 24.9675 -0.5663 0.7906
53.1599 25.3694 -0.5679 0.7901
53.1587 25.7737 -0.5696 0.7895
53.1550 27.0011 -0.5748 0.7878
53.0921 27.8005 -0.5778 0.7868
32.7176 17.3904 -0.3572 0.8622
32.2323 17.3890 -0.3531 0.8637
31.4594 17.4778 -0.3470 0.8659
31.4587 17.7329 -0.3482 0.8655
31.4579 17.9897 -0.3494 0.8651
31.4571 18.2483 -0.3506 0.8646
31.4555 18.7712 -0.3532 0.8637
31.4547 19.0354 -0.3545 0.8632
32.3822 20.4270 -0.3691 0.8580
32.3814 20.7075 -0.3706 0.8575
32.3805 20.9902 -0.3720 0.8570
30.9168 20.3140 -0.3567 0.8624
32.4282 21.5954 -0.3756 0.8557
32.4273 21.8855 -0.3772 0.8551
32.3761 22.4387 -0.3798 0.8542
32.3752 22.7358 -0.3814 0.8536
32.3743 23.0354 -0.3831 0.8530
32.3725 23.6426 -0.3865 0.8518
32.3142 23.9078 -0.3876 0.8515
32.3706 24.2608 -0.3900 0.8506
30.9345 23.4846 -0.3745 0.8561
32.3719 24.8929 -0.3937 0.8493
32.3709 25.2122 -0.3956 0.8486
32.3533 25.5215 -0.3972 0.8480
32.3658 25.8577 -0.3994 0.8473
30.9440 26.3296 -0.3917 0.8500
32.3631 27.8839 -0.4119 0.8429
30.8902 26.9495 -0.3952 0.8488
32.3575 28.5839 -0.4163 0.8414
32.3564 28.9412 -0.4185 0.8406
32.3553 29.3024 -0.4209 0.8398
32.3542 29.6677 -0.4232 0.8390
32.2965 30.3585 -0.4274 0.8375
32.3508 30.7886 -0.4306 0.8364
32.3881 31.9899 -0.4389 0.8335
32.3461 32.3461 -0.4410 0.8328
30.9012 32.8739 -0.4350 0.8349
31.9190 35.6856 -0.4616 0.8257
31.5233 35.6849 -0.4591 0.8266
30.7447 35.6834 -0.4541 0.8283
30.3616 35.6827 -0.4517 0.8291
28.5048 35.6792 -0.4403 0.8330
28.1446 35.6785 -0.4381 0.8338
27.7878 35.6779 -0.4360 0.8345
27.0846 35.6765 -0.4319 0.8360
26.9164 35.9141 -0.4327 0.8357
26.6963 36.5538 -0.4364 0.8344
26.6682 37.4801 -0.4435 0.8319
26.6093 39.4265 -0.4586 0.8267
26.5624 40.9764 -0.4708 0.8226
26.4799 43.7561 -0.4931 0.8150
26.4612 44.3419 -0.4978 0.8134
26.4421 44.9392 -0.5027 0.8117
26.3429 48.1148 -0.5289 0.8030
26.3226 48.7916 -0.5345 0.8011
26.2589 50.9119 -0.5523 0.7952
26.1847 53.1665 -0.5714 0.7889
26.0858 56.4468 -0.5995 0.7798
26.0595 57.3181 -0.6070 0.7773
26.0289 58.2034 -0.6147 0.7749
25.9733 60.0616 -0.6309 0.7697
25.9147 62.0207 -0.6481 0.7642
-2.4047 55.5138 -0.5357 0.8007
-0.9615 12.9323 -0.1250 0.9494
-1.0388 12.8940 -0.1247 0.9496
-1.1192 12.8948 -0.1248 0.9495
-5.6985 57.4031 -0.5561 0.7939
-6.0571 57.4020 -0.5565 0.7938
-6.7757 57.3999 -0.5572 0.7936
-7.1358 57.3988 -0.5576 0.7934
-7.8576 57.3966 -0.5585 0.7932
-8.2193 57.3955 -0.5590 0.7930
-8.9447 57.3933 -0.5600 0.7927
-3.8101 22.6057 -0.2210 0.9124
-3.8004 21.7274 -0.2127 0.9155
-3.9024 21.5256 -0.2109 0.9162
-4.1408 21.3338 -0.2095 0.9167
-4.2603 21.2464 -0.2089 0.9170
-4.3868 19.9498 -0.1969 0.9215
-4.7762 19.9486 -0.1978 0.9212
-3.9004 13.6518 -0.1369 0.9448
-3.9439 13.4879 -0.1355 0.9453
-4.0325 13.4806 -0.1357 0.9453
-4.1279 13.4951 -0.1361 0.9451
-4.2023 13.4407 -0.1358 0.9452
-3.7182 11.6390 -0.1178 0.9523
-3.7590 11.2834 -0.1147 0.9535
-3.7892 10.7074 -0.1095 0.9556
-3.8328 10.6213 -0.1089 0.9558
-3.8759 10.5361 -0.1082 0.9561
-4.1621 10.3178 -0.1073 0.9565
-4.2193 10.2760 -0.1071 0.9565
-4.3899 10.1512 -0.1066 0.9567
-4.5028 10.0687 -0.1063 0.9568
-4.5590 10.0276 -0.1062 0.9569
-4.8465 9.8404 -0.1058 0.9571
-5.1303 9.6519 -0.1054 0.9572
-5.1290 9.2320 -0.1018 0.9586
-5.0866 8.7684 -0.0977 0.9603
-5.1352 8.7275 -0.0976 0.9603
-5.1837 8.6865 -0.0975 0.9603
-5.1830 8.4462 -0.0955 0.9611
-5.0864 7.6378 -0.0885 0.9640
-5.1171 7.5819 -0.0882 0.9641
-5.1237 7.4914 -0.0875 0.9643
-5.1234 7.3924 -0.0867 0.9647
-5.1231 7.2952 -0.0859 0.9650
-5.1786 6.9995 -0.0839 0.9658
-5.1783 6.9093 -0.0832 0.9661
-5.1773 6.5632 -0.0806 0.9671
-5.1792 6.4011 -0.0794 0.9676
-5.0783 5.9683 -0.0756 0.9691
-5.0817 5.8980 -0.0751 0.9693
-3.8486 4.1971 -0.0549 0.9775
-3.7891 4.0813 -0.0537 0.9780
-3.7124 3.8054 -0.0513 0.9790
-3.7523 3.7989 -0.0515 0.9789
-3.7622 3.6703 -0.0507 0.9792
-3.7620 3.5803 -0.0501 0.9794
-3.7618 3.5361 -0.0498 0.9796
-3.7352 3.4679 -0.0491 0.9798
-3.7459 3.4349 -0.0490 0.9799
-3.7614 3.4065 -0.0489 0.9799
-3.7609 3.2404 -0.0479 0.9803
-3.6420 3.0603 -0.0459 0.9812
-3.6473 3.0264 -0.0457 0.9812
-3.7045 2.9973 -0.0459 0.9811
-3.7586 2.8903 -0.0457 0.9812
-3.7721 2.8636 -0.0457 0.9812
-3.7855 2.8371 -0.0456 0.9813
-3.7989 2.8106 -0.0456 0.9813
-3.8122 2.7842 -0.0455 0.9813
-3.8256 2.7578 -0.0455 0.9813
-3.8919 2.6267 -0.0453 0.9814
-3.9051 2.6006 -0.0452 0.9814
-3.8966 2.5259 -0.0448 0.9816
-3.9173 2.5051 -0.0448 0.9816
-3.9381 2.4842 -0.0449 0.9815
-4.0993 2.5156 -0.0464 0.9809
-4.1515 2.4774 -0.0466 0.9808
-4.1778 2.4582 -0.0467 0.9808
-4.2042 2.4389 -0.0469 0.9807
-4.2844 2.3803 -0.0473 0.9806
-4.2807 2.3437 -0.0471 0.9807
-4.2997 2.3197 -0.0471 0.9806
-4.3934 2.3005 -0.0478 0.9804
-4.4211 2.2803 -0.0480 0.9803
-4.4490 2.2600 -0.0481 0.9802
-4.5052 2.2188 -0.0484 0.9801
-4.5336 2.1981 -0.0486 0.9800
-4.5726 2.1132 -0.0486 0.9801
-4.5849 2.0165 -0.0483 0.9802
-4.8134 2.0112 -0.0503 0.9793
-4.8743 2.0014 -0.0508 0.9791
-5.3301 1.9607 -0.0548 0.9775
-5.8806 1.9591 -0.0598 0.9755
-6.0030 1.9587 -0.0609 0.9751
-6.1068 1.9093 -0.0617 0.9747
-6.6916 2.0017 -0.0673 0.9724
-7.0474 2.0607 -0.0708 0.9711
-7.2110 2.0602 -0.0723 0.9704
-7.2744 2.0298 -0.0728 0.9702
-7.7466 2.0586 -0.0773 0.9684
-7.7720 1.9628 -0.0773 0.9684
-8.3794 1.9515 -0.0829 0.9662
-8.6172 1.9508 -0.0852 0.9653
-8.8682 1.9500 -0.0875 0.9643
-9.1335 1.9492 -0.0900 0.9633
-9.4144 1.9484 -0.0927 0.9623
-9.7123 1.9475 -0.0955 0.9612
-9.8820 1.9180 -0.0970 0.9605
-10.9172 2.0490 -0.1071 0.9565
-11.0495 2.0032 -0.1083 0.9561
-11.5474 2.0198 -0.1130 0.9542
-11.5471 1.9462 -0.1129 0.9542
-12.4431 1.9392 -0.1214 0.9509
-30.1048 4.5013 -0.2935 0.8854
-30.1036 4.1211 -0.2929 0.8856
-30.1030 3.9316 -0.2927 0.8856
-30.1025 3.7423 -0.2925 0.8857
-29.9437 3.1597 -0.2903 0.8865
-29.9950 2.9777 -0.2906 0.8864
-29.9938 2.6034 -0.2903 0.8865
-29.9933 2.4165 -0.2901 0.8866
-29.9910 1.6710 -0.2896 0.8868
-29.9905 1.4849 -0.2895 0.8868
-29.9852 -0.3709 -0.5118 0.8869
-29.9841 -0.7419 -0.5119 0.8869
-29.9829 -1.1130 -0.5121 0.8869
-29.9812 -1.6704 -0.5125 0.8868
-29.9790 -2.4154 -0.5133 0.8866
-29.9784 -2.6020 -0.5136 0.8866
-29.9779 -2.7889 -0.5138 0.8865
-29.9773 -2.9759 -0.5141 0.8865
-29.9750 -3.7265 -0.5155 0.8862
-29.9739 -4.1034 -0.5163 0.8860
-29.9727 -4.4816 -0.5172 0.8858
-29.9716 -4.8611 -0.5182 0.8856
-29.9710 -5.0514 -0.5187 0.8855
-29.9704 -5.2422 -0.5193 0.8854
-11.4340 -2.4403 -0.1995 0.9543
-10.3308 -2.4060 -0.1810 0.9585
-9.5893 -2.3587 -0.1685 0.9613
-9.0966 -2.3572 -0.1604 0.9631
-8.6494 -2.3559 -0.1530 0.9648
-8.4409 -2.3553 -0.1496 0.9655
-8.2415 -2.3546 -0.1463 0.9663
-7.6591 -2.3428 -0.1367 0.9685
-7.6589 -2.3946 -0.1370 0.9684
-7.6588 -2.4467 -0.1372 0.9683
-7.1936 -2.3965 -0.1294 0.9701
-7.0798 -2.4563 -0.1279 0.9705
-6.8044 -2.4554 -0.1235 0.9715
-6.5301 -2.4022 -0.1188 0.9725
-5.9940 -2.3321 -0.1098 0.9746
-5.9252 -2.3477 -0.1088 0.9748
-5.8190 -2.3473 -0.1071 0.9752
-5.6163 -2.3467 -0.1039 0.9759
-5.5194 -2.3464 -0.1024 0.9763
-5.4253 -2.3461 -0.1009 0.9766
-5.1586 -2.3453 -0.0967 0.9776
-4.9370 -2.3561 -0.0934 0.9784
-4.5995 -2.4085 -0.0886 0.9794
-4.4908 -2.3870 -0.0868 0.9799
-4.4566 -2.4043 -0.0864 0.9799
-4.4227 -2.4214 -0.0861 0.9800
-4.4729 -2.5213 -0.0876 0.9797
-4.4585 -2.5496 -0.0877 0.9797
-4.4303 -2.5700 -0.0874 0.9797
-4.4022 -2.5903 -0.0872 0.9798
-4.3466 -2.6304 -0.0867 0.9799
-4.2915 -2.6702 -0.0863 0.9800
-4.2642 -2.6899 -0.0860 0.9800
-4.2370 -2.7095 -0.0858 0.9801
-4.1739 -2.7057 -0.0849 0.9803
-4.1562 -2.7678 -0.0852 0.9802
-4.1030 -2.8063 -0.0848 0.9803
-4.0766 -2.8254 -0.0847 0.9804
-4.0241 -2.8633 -0.0843 0.9804
-3.8409 -2.8417 -0.0815 0.9811
-3.8197 -2.8628 -0.0815 0.9811
-3.7986 -2.8838 -0.0814 0.9811
-3.7840 -2.9850 -0.0823 0.9809
-3.7562 -3.0392 -0.0825 0.9809
-3.7283 -3.0936 -0.0827 0.9808
-3.7142 -3.1210 -0.0828 0.9808
-3.6861 -3.1759 -0.0830 0.9807
-3.6577 -3.2311 -0.0833 0.9807
-3.6292 -3.2867 -0.0836 0.9806
-3.5860 -3.3708 -0.0840 0.9805
-3.5163 -3.4730 -0.0843 0.9804
-3.6400 -3.6854 -0.0884 0.9795
-3.6399 -3.7311 -0.0890 0.9794
-3.6260 -3.8100 -0.0898 0.9792
-3.6132 -3.8439 -0.0900 0.9791
-3.6392 -3.9687 -0.0919 0.9787
-3.6387 -4.1191 -0.0938 0.9783
-3.6386 -4.1706 -0.0945 0.9781
-3.6002 -4.1785 -0.0941 0.9782
-3.5213 -4.1907 -0.0934 0.9783
-3.5217 -4.2441 -0.0941 0.9782
-3.6821 -4.4938 -0.0992 0.9770
-3.7592 -4.6461 -0.1020 0.9764
-4.9456 -6.2695 -0.1363 0.9686
-5.0369 -6.8080 -0.1445 0.9667
-5.0367 -6.8964 -0.1457 0.9664
-5.0364 -6.9864 -0.1470 0.9661
-5.0358 -7.1709 -0.1496 0.9656
-5.0353 -7.3621 -0.1522 0.9649
-4.9830 -7.3832 -0.1520 0.9650
-4.9424 -7.5221 -0.1536 0.9646
-4.9779 -7.6792 -0.1562 0.9641
-4.9776 -7.7838 -0.1577 0.9637
-4.9773 -7.8904 -0.1592 0.9634
-4.9555 -7.9645 -0.1601 0.9632
-4.9377 -8.0465 -0.1611 0.9629
-5.0324 -8.3156 -0.1659 0.9619
-5.0320 -8.4324 -0.1676 0.9615
-5.0317 -8.5515 -0.1693 0.9611
-5.0313 -8.6732 -0.1711 0.9607
-5.0309 -8.7974 -0.1730 0.9603
-5.0301 -9.0541 -0.1768 0.9594
-4.9884 -9.1112 -0.1773 0.9593
-4.9320 -9.1420 -0.1773 0.9593
-4.9729 -9.3557 -0.1808 0.9585
-4.9716 -9.7872 -0.1874 0.9570
-4.9707 -10.0927 -0.1920 0.9560
-4.7931 -10.2055 -0.1924 0.9559
-4.7214 -10.2166 -0.1921 0.9560
-4.6500 -10.2277 -0.1917 0.9560
-4.5788 -10.2387 -0.1914 0.9561
-4.4890 -10.2067 -0.1903 0.9564
-4.3600 -10.4345 -0.1930 0.9558
-4.1256 -10.6037 -0.1942 0.9555
-4.0073 -10.6890 -0.1948 0.9554
-3.7557 -10.8251 -0.1956 0.9552
-3.7106 -10.9128 -0.1967 0.9549
-3.6651 -11.0015 -0.1979 0.9547
-3.5723 -11.1823 -0.2003 0.9541
-3.5069 -11.2163 -0.2006 0.9541
-3.6156 -11.8203 -0.2110 0.9518
-3.5916 -12.0069 -0.2139 0.9511
-3.5144 -12.0188 -0.2137 0.9511
-3.8785 -13.5752 -0.2410 0.9451
-3.6701 -13.8108 -0.2439 0.9444
-3.6094 -13.9289 -0.2456 0.9441
-3.5452 -14.0379 -0.2471 0.9437
-3.6071 -14.6644 -0.2577 0.9414
-3.5547 -14.8468 -0.2606 0.9408
-4.6330 -19.8932 -0.3486 0.9215
-4.1891 -18.5043 -0.3238 0.9269
-3.9490 -18.5036 -0.3229 0.9271
-4.1165 -19.8903 -0.3467 0.9220
-3.7255 -24.9158 -0.4300 0.9041
-8.5301 -59.5656 -1.0270 0.7861
-7.7765 -59.5425 -1.0248 0.7864
-7.4009 -59.5310 -1.0238 0.7866
-0.9900 -8.8564 -0.1521 0.9650
-0.7682 -8.8508 -0.1516 0.9651
-0.7131 -8.8507 -0.1515 0.9651
-0.5789 -7.7871 -0.1333 0.9692
-0.5266 -7.7286 -0.1322 0.9695
-0.4771 -7.7053 -0.1318 0.9696
-0.4290 -7.7008 -0.1316 0.9696
-0.3353 -7.7408 -0.1322 0.9695
-0.2738 -8.8504 -0.1511 0.9652
-0.2190 -8.8503 -0.1511 0.9652
-0.1642 -8.8503 -0.1511 0.9652
-0.1095 -8.8502 -0.1511 0.9652
0.0000 -8.8500 -0.1510 0.9652
0.1095 -8.8498 -0.1511 0.9652
0.1642 -8.8497 -0.1511 0.9652
0.2189 -8.8496 -0.1511 0.9652
1.8327 -59.2476 -1.0117 0.7889
0.3835 -8.8522 -0.1512 0.9652
4.3991 -59.1689 -1.0126 0.7887
4.7663 -59.1577 -1.0129 0.7887
4.6951 -54.0930 -0.9267 0.8048
5.5014 -59.1353 -1.0136 0.7885
6.6063 -59.1014 -1.0150 0.7883
6.9752 -59.0901 -1.0155 0.7882
7.3447 -59.0788 -1.0161 0.7881
2.1154 -14.7721 -0.2547 0.9420
2.0829 -13.3645 -0.2308 0.9473
2.0501 -11.7206 -0.2031 0.9535
2.0416 -11.2616 -0.1953 0.9552
2.0140 -10.0438 -0.1748 0.9598
1.9986 -9.3644 -0.1634 0.9624
1.9788 -8.4967 -0.1489 0.9657
1.9730 -8.2407 -0.1446 0.9667
1.9675 -7.9990 -0.1406 0.9676
1.9623 -7.7703 -0.1368 0.9684
1.9574 -7.5538 -0.1332 0.9693
1.9441 -6.9674 -0.1235 0.9715
1.9310 -6.3131 -0.1127 0.9739
1.9277 -6.1656 -0.1103 0.9745
1.9245 -6.0243 -0.1079 0.9750
1.9157 -5.6338 -0.1016 0.9765
1.9129 -5.5137 -0.0996 0.9769
1.9103 -5.3981 -0.0977 0.9774
1.9323 -5.3547 -0.0972 0.9775
2.0069 -5.3531 -0.0976 0.9774
2.0444 -5.3523 -0.0978 0.9773
2.1200 -5.3506 -0.0982 0.9772
2.1580 -5.3498 -0.0985 0.9772
2.2347 -5.3481 -0.0989 0.9771
2.2733 -5.3473 -0.0992 0.9770
2.3902 -5.3447 -0.0999 0.9768
2.4296 -5.3438 -0.1002 0.9768
2.4692 -5.3430 -0.1005 0.9767
2.5490 -5.3412 -0.1010 0.9766
2.5892 -5.3403 -0.1013 0.9765
2.7113 -5.3376 -0.1022 0.9763
2.7940 -5.3358 -0.1028 0.9762
2.8776 -5.3339 -0.1034 0.9760
2.9198 -5.3330 -0.1038 0.9760
2.9623 -5.3320 -0.1041 0.9759
3.0481 -5.3301 -0.1048 0.9757
3.0914 -5.3291 -0.1051 0.9757
3.1351 -5.3282 -0.1055 0.9756
3.2678 -5.3252 -0.1066 0.9753
3.3127 -5.3242 -0.1070 0.9752
3.3579 -5.3231 -0.1074 0.9751
3.4955 -5.3200 -0.1086 0.9749
3.6364 -5.3168 -0.1099 0.9746
3.7807 -5.3135 -0.1113 0.9742
3.8790 -5.3113 -0.1122 0.9740
4.0296 -5.3078 -0.1137 0.9737
4.1322 -5.3055 -0.1148 0.9735
4.1842 -5.3043 -0.1153 0.9733
4.2367 -5.3031 -0.1158 0.9732
4.3432 -5.3006 -0.1170 0.9730
4.5070 -5.2968 -0.1187 0.9726
4.6189 -5.2942 -0.1199 0.9723
4.7330 -5.2916 -0.1212 0.9720
4.7911 -5.2903 -0.1218 0.9719
5.0295 -5.2847 -0.1245 0.9712
31.9390 -32.7391 -0.7806 0.8328
31.9366 -31.9366 -0.7708 0.8347
31.7624 -29.1249 -0.7355 0.8416
31.7947 -28.7947 -0.7322 0.8423
31.5941 -27.2213 -0.7118 0.8463
31.5921 -26.5459 -0.7043 0.8478
32.0160 -26.2334 -0.7064 0.8474
36.3286 -28.6574 -0.7897 0.8310
36.7925 -28.6559 -0.7959 0.8298
37.2638 -28.6545 -0.8023 0.8286
37.7426 -28.6531 -0.8088 0.8273
53.3586 -39.4776 -1.1328 0.7668
53.2770 -38.4067 -1.1209 0.7689
53.2718 -37.9045 -1.1159 0.7698
32.5065 -20.7875 -0.6585 0.8570
28.2349 -17.3264 -0.5654 0.8759
32.5519 -19.4254 -0.6470 0.8593
32.4991 -18.3193 -0.6367 0.8614
32.4983 -18.0550 -0.6345 0.8618
32.4967 -17.5317 -0.6302 0.8627
32.4959 -17.2727 -0.6281 0.8631
32.4944 -16.7597 -0.6240 0.8639
32.4940 -16.5059 -0.6220 0.8643
32.4993 -16.0061 -0.6183 0.8651
32.4588 -15.7374 -0.6157 0.8656
32.6170 -14.8292 -0.6115 0.8665
32.4869 -14.2879 -0.6057 0.8676
32.4862 -14.0485 -0.6041 0.8680
32.4523 -13.5599 -0.6003 0.8687
32.4902 -13.1061 -0.5979 0.8692
32.4893 -12.8727 -0.5964 0.8695
32.4813 -12.4070 -0.5934 0.8701
32.4785 -11.4937 -0.5880 0.8712
32.4778 -11.2679 -0.5867 0.8715
32.4765 -10.8193 -0.5842 0.8720
32.4758 -10.5965 -0.5830 0.8723
32.4184 -10.1358 -0.5797 0.8729
32.5233 -9.9483 -0.5805 0.8728
32.5227 -9.7285 -0.5794 0.8730
32.4157 -9.2613 -0.5754 0.8738
32.4712 -9.0604 -0.5754 0.8738
32.8534 -8.2969 -0.5783 0.8732
33.5239 -8.2460 -0.5892 0.8710
34.6308 -8.2915 -0.6078 0.8672
35.5892 -8.2886 -0.6237 0.8640
36.3863 -8.2373 -0.6367 0.8614
53.2601 -11.3667 -0.9295 0.8042
53.2580 -10.3372 -0.9259 0.8049
53.2574 -9.9957 -0.9248 0.8051
53.2554 -8.9759 -0.9217 0.8057
31.5269 -4.9135 -0.5446 0.8802
31.5256 -4.5146 -0.5435 0.8804
31.5233 -3.7212 -0.5417 0.8807
31.9180 -3.5678 -0.5481 0.8794
49.9433 -5.2701 -0.8571 0.8180
49.9424 -4.9579 -0.8566 0.8181
49.9405 -4.3347 -0.8555 0.8183
49.9395 -4.0236 -0.8551 0.8184
53.2450 -3.6276 -0.9108 0.8077
32.4493 -1.8079 -0.5547 0.8781
32.4487 -1.6067 -0.5545 0.8781
32.4480 -1.4055 -0.5543 0.8782
32.4474 -1.2045 -0.5542 0.8782
32.4963 -1.0051 -0.5549 0.8780
32.4951 -0.6029 -0.5547 0.8781
32.4438 0.0000 -0.5537 0.8783
32.4426 0.4013 -0.5537 0.8783
32.4413 0.8027 -0.5539 0.8783
32.4407 1.0034 -0.5539 0.8782
30.9681 1.1496 -0.5289 0.8834
32.4389 1.6062 -0.5543 0.8782
32.4371 2.2100 -0.5549 0.8780
32.4413 3.0180 -0.5561 0.8778
27.7586 2.7557 -0.4761 0.8944
27.7325 2.9264 -0.4759 0.8944
32.4322 3.8284 -0.5574 0.8775
30.9593 4.0434 -0.5329 0.8826
32.4407 4.4411 -0.5588 0.8772
32.4297 4.6441 -0.5591 0.8772
32.4291 4.8488 -0.5596 0.8771
32.4337 5.4665 -0.5614 0.8767
32.4331 5.6729 -0.5619 0.8766
32.3923 6.2872 -0.5632 0.8763
32.4228 6.9196 -0.5658 0.8758
32.4078 7.9714 -0.5696 0.8750
32.4177 8.6147 -0.5725 0.8744
32.4665 8.8430 -0.5743 0.8741
32.4659 9.0589 -0.5753 0.8739
32.4652 9.2755 -0.5763 0.8736
32.4645 9.4928 -0.5773 0.8734
32.4138 9.9148 -0.5785 0.8732
32.4118 10.5756 -0.5819 0.8725
53.0950 17.6883 -0.9551 0.7994
50.0984 17.3813 -0.9050 0.8088
49.8719 18.3462 -0.9069 0.8085
49.8709 18.6967 -0.9090 0.8081
49.8698 19.0489 -0.9111 0.8077
53.1699 20.6871 -0.9737 0.7959
53.1688 21.0662 -0.9761 0.7955
53.1655 22.2147 -0.9834 0.7941
53.0823 22.9552 -0.9871 0.7934
53.0788 23.3443 -0.9896 0.7930
53.1586 25.3688 -1.0053 0.7901
53.1562 26.1797 -1.0113 0.7890
53.1537 27.0004 -1.0175 0.7878
53.0925 27.8008 -1.0228 0.7868
32.7146 17.3889 -0.6323 0.8622
31.4591 17.4776 -0.6142 0.8659
31.4583 17.7327 -0.6163 0.8655
31.4567 18.2481 -0.6207 0.8646
31.4560 18.5086 -0.6229 0.8641
31.4552 18.7710 -0.6252 0.8637
31.4544 19.0353 -0.6275 0.8632
32.6221 20.2974 -0.6557 0.8575
32.3819 20.4268 -0.6534 0.8580
32.3810 20.7073 -0.6560 0.8575
30.9169 20.3141 -0.6314 0.8624
32.4269 21.8852 -0.6677 0.8551
32.3721 23.6423 -0.6842 0.8518
32.3138 23.9075 -0.6860 0.8515
32.3703 24.2604 -0.6904 0.8506
32.3768 25.2167 -0.7004 0.8486
32.3534 25.5216 -0.7033 0.8480
32.3654 25.8573 -0.7070 0.8473
27.3881 22.7260 -0.6074 0.8673
30.9441 26.3296 -0.6935 0.8500
30.8898 26.9492 -0.6996 0.8487
32.3560 28.9408 -0.7409 0.8406
32.3549 29.3020 -0.7450 0.8398
32.3538 29.6673 -0.7492 0.8389
32.2966 30.3586 -0.7566 0.8375
32.3504 30.7882 -0.7622 0.8364
30.8813 29.7562 -0.7320 0.8423
32.3974 31.6057 -0.7725 0.8344
32.3882 31.9900 -0.7769 0.8335
25.8199 26.1413 -0.6271 0.8633
34.8280 35.7004 -0.8512 0.8191
34.3986 35.6993 -0.8461 0.8201
33.9743 35.6982 -0.8411 0.8211
33.1406 35.6960 -0.8313 0.8229
31.5238 35.6855 -0.8127 0.8266
31.1324 35.6848 -0.8082 0.8274
30.3621 35.6833 -0.7996 0.8291
29.9831 35.6826 -0.7955 0.8299
29.6079 35.6819 -0.7913 0.8307
29.2367 35.6812 -0.7873 0.8315
28.5053 35.6798 -0.7794 0.8330
28.1451 35.6792 -0.7756 0.8338
27.7883 35.6785 -0.7718 0.8345
26.6960 36.5535 -0.7725 0.8344
26.6390 38.4366 -0.7982 0.8294
26.6241 38.9271 -0.8049 0.8281
26.6090 39.4261 -0.8118 0.8267
26.5780 40.4502 -0.8261 0.8240
26.5621 40.9759 -0.8334 0.8225
26.5340 42.0635 -0.8488 0.8196
26.4799 43.7561 -0.8729 0.8150
26.4225 45.5481 -0.8987 0.8100
26.3824 46.8032 -0.9170 0.8066
26.3621 47.4507 -0.9264 0.8048
26.3421 48.1134 -0.9362 0.8030
26.3218 48.7901 -0.9462 0.8011
26.2581 50.9103 -0.9777 0.7952
26.2359 51.6489 -0.9887 0.7931
26.2080 52.3938 -0.9998 0.7911
26.1847 53.1664 -1.0115 0.7889
26.1364 54.7671 -1.0357 0.7845
26.0858 56.4468 -1.0613 0.7798
26.0288 58.2033 -1.0882 0.7749
25.9732 60.0615 -1.1168 0.7697
25.8842 63.0408 -1.1631 0.7614
25.8455 64.0716 -1.1791 0.7585
-0.6952 56.2018 -0.9593 0.7986
-2.4047 55.5139 -0.9483 0.8007
-3.9125 57.4254 -0.9824 0.7943
-0.9614 12.9319 -0.2213 0.9494
-1.0388 12.8937 -0.2208 0.9496
-1.2069 12.9732 -0.2224 0.9492
-6.0572 57.4021 -0.9851 0.7938
-6.4162 57.4011 -0.9858 0.7937
-7.0270 53.8038 -0.9261 0.8049
-8.5817 57.3945 -0.9904 0.7928
-3.8004 21.7278 -0.3765 0.9155
-3.9959 21.2906 -0.3697 0.9170
-4.1101 21.1757 -0.3682 0.9173
-4.1737 18.4361 -0.3226 0.9272
-4.4139 18.4354 -0.3235 0.9270
-3.7335 14.7835 -0.2602 0.9408
-3.7957 14.6478 -0.2583 0.9413
-4.2024 13.4408 -0.2403 0.9452
-3.7864 11.6046 -0.2083 0.9523
-3.7591 11.2837 -0.2030 0.9535
-3.8328 10.6214 -0.1927 0.9558
-4.0200 10.3323 -0.1892 0.9566
-4.1047 10.3598 -0.1902 0.9564
-4.1621 10.3179 -0.1899 0.9565
-4.5028 10.0688 -0.1882 0.9568
-4.5619 9.8713 -0.1856 0.9574
-4.6217 9.8406 -0.1856 0.9574
-4.9871 9.8178 -0.1879 0.9569
-5.1289 9.7949 -0.1887 0.9567
-5.1304 9.6521 -0.1866 0.9572
-5.1291 9.2322 -0.1803 0.9586
-5.1287 9.0985 -0.1783 0.9591
-5.1283 8.9677 -0.1763 0.9595
-5.0867 8.7686 -0.1730 0.9603
-5.1353 8.7277 -0.1728 0.9603
-5.1838 8.6867 -0.1726 0.9603
-5.1834 8.5653 -0.1709 0.9607
-5.1831 8.4463 -0.1691 0.9611
-5.1827 8.3297 -0.1674 0.9615
-5.1824 8.2154 -0.1658 0.9619
-5.1817 7.9936 -0.1626 0.9626
-5.0818 7.7342 -0.1579 0.9637
-5.0865 7.6379 -0.1566 0.9640
-5.1235 7.3925 -0.1535 0.9647
-5.1232 7.2953 -0.1522 0.9650
-5.0873 7.1498 -0.1498 0.9655
-5.0819 7.0495 -0.1483 0.9658
-5.1123 7.0000 -0.1479 0.9659
-5.1786 6.9995 -0.1486 0.9658
-5.1784 6.9094 -0.1474 0.9660
-5.1781 6.8208 -0.1462 0.9663
-5.1779 6.7336 -0.1450 0.9666
-5.1771 6.4801 -0.1416 0.9674
-5.0784 5.9684 -0.1337 0.9691
-3.9109 4.3183 -0.0994 0.9770
-3.8487 4.1972 -0.0972 0.9775
-3.7892 4.0814 -0.0950 0.9780
-3.6480 3.8809 -0.0909 0.9789
-3.6387 3.8234 -0.0901 0.9791
-3.7124 3.8054 -0.0907 0.9790
-3.7626 3.7626 -0.0908 0.9789
-3.7624 3.7162 -0.0903 0.9791
-3.7621 3.6251 -0.0892 0.9793
-3.7620 3.5803 -0.0886 0.9794
-3.7353 3.4679 -0.0870 0.9798
-3.7615 3.4066 -0.0866 0.9799
-3.7610 3.2404 -0.0847 0.9803
-3.6368 3.0944 -0.0815 0.9811
-3.6473 3.0265 -0.0809 0.9812
-3.7181 2.9704 -0.0812 0.9811
-3.7316 2.9437 -0.0811 0.9812
-3.7587 2.8903 -0.0809 0.9812
-3.7721 2.8637 -0.0808 0.9812
-3.7989 2.8106 -0.0807 0.9813
-3.8123 2.7842 -0.0806 0.9813
-3.8256 2.7578 -0.0805 0.9813
-3.8389 2.7315 -0.0804 0.9813
-3.8522 2.7052 -0.0803 0.9813
-3.8655 2.6790 -0.0803 0.9814
-3.8787 2.6528 -0.0802 0.9814
-3.8920 2.6267 -0.0801 0.9814
-3.9051 2.6006 -0.0801 0.9814
-3.9381 2.4842 -0.0795 0.9815
-4.0994 2.5156 -0.0821 0.9809
-4.1254 2.4965 -0.0823 0.9809
-4.1515 2.4774 -0.0825 0.9808
-4.1778 2.4582 -0.0827 0.9808
-4.2575 2.3999 -0.0834 0.9806
-4.2844 2.3803 -0.0836 0.9806
-4.2808 2.3437 -0.0833 0.9807
-4.5052 2.2189 -0.0857 0.9801
-4.5727 2.1132 -0.0860 0.9800
-4.5498 2.0685 -0.0853 0.9802
-4.5496 2.0346 -0.0851 0.9803
-4.5849 2.0165 -0.0855 0.9802
-4.6206 1.9981 -0.0859 0.9801
-4.9365 1.9913 -0.0908 0.9789
-5.0000 1.9811 -0.0918 0.9787
-5.0649 1.9706 -0.0928 0.9785
-5.2308 1.9611 -0.0953 0.9779
-5.4327 1.9605 -0.0986 0.9772
-5.6488 1.9598 -0.1020 0.9764
-5.7626 1.9595 -0.1039 0.9759
-6.1068 1.9093 -0.1092 0.9747
-6.6435 2.0321 -0.1186 0.9726
-6.6916 2.0017 -0.1192 0.9724
-7.2745 2.0298 -0.1289 0.9702
-7.5601 2.0592 -0.1337 0.9691
-7.7467 2.0586 -0.1368 0.9684
-7.7721 1.9628 -0.1368 0.9684
-8.3795 1.9516 -0.1468 0.9662
-8.6173 1.9508 -0.1508 0.9653
-8.8683 1.9501 -0.1550 0.9643
-9.4144 1.9484 -0.1641 0.9623
-9.7123 1.9475 -0.1691 0.9611
-9.8821 1.9180 -0.1718 0.9605
-10.9173 2.0490 -0.1896 0.9565
-11.0496 2.0032 -0.1917 0.9561
-11.5473 1.9462 -0.1999 0.9542
-11.9656 1.9407 -0.2069 0.9527
-29.9999 4.4856 -0.5177 0.8857
-29.9993 4.2960 -0.5172 0.8858
-29.9987 4.1068 -0.5168 0.8859
-29.9982 3.9179 -0.5163 0.8860
-29.9976 3.7293 -0.5159 0.8861
-29.9964 3.3529 -0.5151 0.8863
-29.9947 2.7904 -0.5141 0.8865
-29.9942 2.6034 -0.5138 0.8865
-29.9936 2.4165 -0.5136 0.8866
-29.9930 2.2299 -0.5133 0.8866
-29.9925 2.0434 -0.5131 0.8867
-29.9914 1.6710 -0.5127 0.8868
-29.9908 1.4850 -0.5125 0.8868
-33.2480 1.2342 -0.5678 0.8754
-29.9855 -0.3709 -0.7345 0.8869
-29.9832 -1.1130 -0.7349 0.8869
-29.9827 -1.2987 -0.7351 0.8869
-29.9821 -1.4845 -0.7353 0.8868
-29.9793 -2.4154 -0.7367 0.8866
-29.9787 -2.6020 -0.7371 0.8866
-29.9781 -2.7889 -0.7375 0.8865
-29.9776 -2.9759 -0.7379 0.8864
-29.9770 -3.1632 -0.7384 0.8864
-29.9764 -3.3507 -0.7388 0.8863
-29.9759 -3.5385 -0.7394 0.8862
-29.9747 -3.9148 -0.7405 0.8861
-29.9742 -4.1034 -0.7411 0.8860
-29.9725 -4.6712 -0.7430 0.8857
-29.9719 -4.8612 -0.7437 0.8856
-29.9696 -5.6249 -0.7469 0.8851
-12.1927 -2.3666 -0.3042 0.9515
-11.7961 -2.3654 -0.2947 0.9530
-10.9500 -2.4079 -0.2746 0.9561
-10.3307 -2.4060 -0.2598 0.9584
-9.5892 -2.3587 -0.2419 0.9613
-8.8677 -2.3565 -0.2248 0.9640
-8.4408 -2.3553 -0.2147 0.9655
-7.6591 -2.3428 -0.1962 0.9685
-7.6590 -2.3946 -0.1966 0.9684
-7.6588 -2.4467 -0.1969 0.9683
-7.5321 -2.4576 -0.1941 0.9688
-7.1611 -2.4350 -0.1853 0.9702
-6.9396 -2.4559 -0.1803 0.9710
-6.5475 -2.4547 -0.1713 0.9724
-5.9252 -2.3476 -0.1561 0.9748
-5.8190 -2.3473 -0.1537 0.9752
-5.4253 -2.3461 -0.1448 0.9766
-5.1585 -2.3453 -0.1388 0.9776
-5.0745 -2.3451 -0.1369 0.9779
-4.9968 -2.3468 -0.1352 0.9782
-4.9370 -2.3561 -0.1340 0.9783
-4.7081 -2.3916 -0.1294 0.9791
-4.6534 -2.4001 -0.1283 0.9793
-4.4908 -2.3870 -0.1246 0.9799
-4.4227 -2.4214 -0.1235 0.9800
-4.4474 -2.4708 -0.1246 0.9798
-4.4585 -2.5497 -0.1258 0.9797
-4.4303 -2.5700 -0.1255 0.9797
-4.4022 -2.5903 -0.1251 0.9798
-4.3466 -2.6304 -0.1244 0.9799
-4.3190 -2.6504 -0.1241 0.9799
-4.2915 -2.6702 -0.1238 0.9800
-4.2642 -2.6899 -0.1235 0.9800
-4.1739 -2.7057 -0.1218 0.9803
-4.1563 -2.7679 -0.1223 0.9802
-4.1296 -2.7871 -0.1220 0.9803
-4.1030 -2.8062 -0.1218 0.9803
-4.0503 -2.8443 -0.1212 0.9804
-3.8409 -2.8417 -0.1170 0.9811
-3.8197 -2.8628 -0.1169 0.9811
-3.7986 -2.8838 -0.1168 0.9811
-3.7775 -2.9048 -0.1167 0.9811
-3.7979 -2.9580 -0.1179 0.9809
-3.7562 -3.0392 -0.1184 0.9809
-3.7423 -3.0664 -0.1185 0.9808
-3.6861 -3.1759 -0.1192 0.9807
-3.6577 -3.2312 -0.1195 0.9807
-3.6292 -3.2867 -0.1199 0.9806
-3.6148 -3.3147 -0.1201 0.9806
-3.5860 -3.3708 -0.1206 0.9805
-3.5282 -3.3996 -0.1200 0.9806
-3.5223 -3.4362 -0.1205 0.9805
-3.6401 -3.6854 -0.1269 0.9795
-3.6392 -3.9688 -0.1319 0.9787
-3.6389 -4.0683 -0.1337 0.9784
-3.5217 -4.2442 -0.1351 0.9782
-3.6823 -4.4940 -0.1423 0.9770
-3.7593 -4.6463 -0.1464 0.9764
-5.0373 -6.7212 -0.2057 0.9670
-5.0370 -6.8081 -0.2074 0.9667
-5.0368 -6.8966 -0.2092 0.9664
-5.0365 -6.9865 -0.2110 0.9661
-5.0362 -7.0780 -0.2128 0.9658
-4.8099 -7.6249 -0.2208 0.9646
-4.5497 -7.6241 -0.2175 0.9651
-4.4859 -7.6239 -0.2167 0.9652
-4.3596 -7.6236 -0.2151 0.9655
-4.2352 -7.6232 -0.2136 0.9657
-4.1736 -7.6230 -0.2129 0.9658
-4.1124 -7.6229 -0.2122 0.9659
-4.0517 -7.6227 -0.2115 0.9660
-3.9913 -7.6225 -0.2108 0.9662
-4.0423 -7.8375 -0.2160 0.9653
-3.9811 -7.8373 -0.2153 0.9654
-4.9713 -9.9383 -0.2722 0.9565
-4.9708 -10.0929 -0.2756 0.9560
-4.7214 -10.2166 -0.2757 0.9560
-4.6500 -10.2277 -0.2752 0.9560
-4.4273 -10.2379 -0.2732 0.9564
-3.9756 -9.3517 -0.2489 0.9602
-4.3016 -10.4766 -0.2774 0.9557
-4.2431 -10.5189 -0.2778 0.9556
-4.0073 -10.6891 -0.2796 0.9554
-3.9479 -10.7320 -0.2801 0.9553
-3.7874 -10.7023 -0.2781 0.9556
-3.7557 -10.8252 -0.2807 0.9552
-3.7107 -10.9129 -0.2823 0.9549
-3.6651 -11.0017 -0.2840 0.9547
-3.5069 -11.2166 -0.2879 0.9541
-3.6157 -11.8206 -0.3028 0.9517
-3.5144 -12.0188 -0.3067 0.9511
-3.6701 -13.8109 -0.3500 0.9444
-3.6095 -13.9291 -0.3525 0.9441
-3.4818 -14.1552 -0.3571 0.9433
-3.4445 -14.3864 -0.3624 0.9425
-4.2396 -18.2039 -0.4578 0.9279
-4.1210 -18.2032 -0.4572 0.9280
-4.1245 -19.9287 -0.4985 0.9218
-4.0876 -21.0598 -0.5255 0.9177
-3.9705 -21.1548 -0.5272 0.9175
-3.8558 -21.2688 -0.5295 0.9171
-3.6473 -21.6403 -0.5376 0.9159
-3.5429 -21.8438 -0.5421 0.9153
-3.4422 -22.0863 -0.5475 0.9144
-3.7342 -24.9743 -0.6185 0.9039
-8.1529 -59.5539 -1.4724 0.7862
-7.0259 -59.5194 -1.4680 0.7868
-0.9900 -8.8564 -0.2183 0.9650
-0.7682 -8.8507 -0.2176 0.9651
-0.7134 -8.8547 -0.2176 0.9651
-0.5266 -7.7282 -0.1897 0.9695
-0.3817 -7.7092 -0.1891 0.9696
-0.2905 -7.8263 -0.1918 0.9691
-0.2738 -8.8521 -0.2169 0.9652
-0.2190 -8.8519 -0.2169 0.9652
-0.1642 -8.8516 -0.2169 0.9652
-0.1095 -8.8513 -0.2168 0.9652
0.0000 -8.8508 -0.2168 0.9652
0.0547 -8.8506 -0.2168 0.9652
0.1095 -8.8504 -0.2168 0.9652
0.1642 -8.8501 -0.2168 0.9652
0.3835 -8.8522 -0.2170 0.9652
5.5014 -59.1352 -1.4548 0.7885
6.6062 -59.1013 -1.4567 0.7882
6.9753 -59.0900 -1.4574 0.7881
2.0931 -13.9989 -0.3467 0.9449
2.0779 -13.3328 -0.3305 0.9474
2.0349 -11.2246 -0.2794 0.9554
1.9931 -9.3387 -0.2339 0.9625
1.9578 -7.7525 -0.1959 0.9685
1.9364 -6.7777 -0.1727 0.9722
1.9305 -6.4538 -0.1650 0.9734
1.9271 -6.3002 -0.1614 0.9740
1.9239 -6.1533 -0.1579 0.9745
1.9149 -5.7480 -0.1484 0.9760
1.9121 -5.6235 -0.1455 0.9765
1.9070 -5.3886 -0.1400 0.9774
1.9280 -5.3429 -0.1391 0.9775
1.9652 -5.3421 -0.1394 0.9775
2.0399 -5.3404 -0.1400 0.9774
2.0775 -5.3396 -0.1403 0.9773
2.1532 -5.3379 -0.1410 0.9772
2.1914 -5.3370 -0.1413 0.9772
2.2296 -5.3362 -0.1417 0.9771
2.3069 -5.3344 -0.1424 0.9770
2.3848 -5.3327 -0.1431 0.9769
2.4241 -5.3317 -0.1435 0.9768
2.5032 -5.3299 -0.1442 0.9767
2.5431 -5.3290 -0.1446 0.9767
2.6237 -5.3271 -0.1455 0.9765
2.7875 -5.3234 -0.1472 0.9762
2.8290 -5.3224 -0.1476 0.9762
2.8709 -5.3214 -0.1481 0.9761
2.9130 -5.3205 -0.1486 0.9760
2.9980 -5.3185 -0.1495 0.9759
3.0841 -5.3165 -0.1506 0.9757
3.1276 -5.3154 -0.1511 0.9756
3.1714 -5.3144 -0.1516 0.9755
3.2599 -5.3123 -0.1527 0.9754
3.3046 -5.3113 -0.1532 0.9753
3.3497 -5.3102 -0.1538 0.9752
3.3951 -5.3091 -0.1544 0.9751
3.4409 -5.3080 -0.1549 0.9750
3.4870 -5.3070 -0.1555 0.9749
3.6274 -5.3036 -0.1574 0.9746
3.7229 -5.3013 -0.1587 0.9744
3.9187 -5.2966 -0.1614 0.9740
3.9688 -5.2954 -0.1621 0.9739
4.0192 -5.2942 -0.1628 0.9738
4.1215 -5.2917 -0.1643 0.9735
4.1733 -5.2904 -0.1651 0.9734
4.2785 -5.2879 -0.1666 0.9732
4.3318 -5.2866 -0.1674 0.9730
4.3856 -5.2853 -0.1682 0.9729
4.4949 -5.2826 -0.1699 0.9726
4.5503 -5.2813 -0.1708 0.9725
4.6063 -5.2799 -0.1716 0.9724
4.7779 -5.2757 -0.1743 0.9719
4.8363 -5.2742 -0.1753 0.9718
4.9550 -5.2713 -0.1772 0.9715
5.0153 -5.2698 -0.1782 0.9713
31.9398 -33.1476 -1.1275 0.8318
31.9386 -32.7387 -1.1203 0.8328
31.9374 -32.3349 -1.1133 0.8337
31.9350 -31.5424 -1.0995 0.8356
31.7945 -28.7945 -1.0507 0.8423
32.0535 -28.6702 -1.0534 0.8419
31.5937 -27.2210 -1.0215 0.8463
31.5927 -26.8815 -1.0161 0.8471
31.5917 -26.5456 -1.0108 0.8478
31.6187 -26.2363 -1.0064 0.8484
32.0181 -26.2352 -1.0139 0.8474
32.4237 -26.2340 -1.0216 0.8463
53.3593 -39.9910 -1.6334 0.7658
31.3109 -22.8672 -0.9497 0.8563
31.4312 -22.6584 -0.9491 0.8564
31.5514 -22.4498 -0.9485 0.8565
31.7934 -22.0348 -0.9475 0.8566
31.9143 -21.8277 -0.9471 0.8567
31.0344 -20.9454 -0.9171 0.8609
53.3457 -35.0510 -1.5635 0.7746
53.3438 -34.5793 -1.5572 0.7754
32.5053 -20.5046 -0.9414 0.8575
32.5045 -20.2242 -0.9377 0.8580
32.5532 -19.9763 -0.9356 0.8583
28.2029 -17.0676 -0.8075 0.8764
32.4873 -19.1154 -0.9233 0.8600
32.5003 -18.8535 -0.9204 0.8604
32.4987 -18.3192 -0.9138 0.8613
32.4971 -17.7922 -0.9075 0.8622
32.4956 -17.2725 -0.9014 0.8631
32.4948 -17.0152 -0.8985 0.8635
32.4940 -16.7595 -0.8956 0.8639
32.4990 -16.5084 -0.8929 0.8643
32.4895 -15.2589 -0.8792 0.8662
33.1560 -14.8276 -0.8897 0.8647
32.4859 -14.0483 -0.8670 0.8680
32.4519 -13.5597 -0.8615 0.8687
32.4959 -13.3427 -0.8605 0.8689
32.4816 -12.6378 -0.8537 0.8698
32.4782 -11.4936 -0.8439 0.8712
32.4768 -11.0431 -0.8402 0.8717
32.4761 -10.8192 -0.8385 0.8720
32.4754 -10.5963 -0.8368 0.8722
32.4748 -10.3744 -0.8351 0.8725
32.4180 -10.1357 -0.8320 0.8729
32.4702 -8.8440 -0.8243 0.8740
32.4695 -8.6285 -0.8229 0.8742
32.4689 -8.4137 -0.8216 0.8744
32.8532 -8.2968 -0.8300 0.8732
35.5890 -8.2885 -0.8951 0.8640
23.9968 -4.6577 -0.5988 0.9068
23.9418 -4.4935 -0.5967 0.9071
23.8788 -4.1767 -0.5938 0.9076
23.8571 -4.0210 -0.5926 0.9077
23.8492 -3.8681 -0.5918 0.9079
23.8357 -3.5639 -0.5903 0.9081
23.8229 -3.1114 -0.5885 0.9083
23.8191 -2.8117 -0.5875 0.9085
23.8143 -2.5129 -0.5866 0.9086
23.8098 -2.3637 -0.5861 0.9087
23.7997 -2.0657 -0.5852 0.9088
32.4483 -1.6067 -0.7958 0.8781
32.4477 -1.4055 -0.7956 0.8781
32.4960 -1.0051 -0.7964 0.8780
32.4954 -0.8040 -0.7962 0.8780
32.4948 -0.6029 -0.7961 0.8781
32.4942 -0.4019 -0.7960 0.8781
32.4429 0.2006 -0.7947 0.8783
32.4422 0.4013 -0.7947 0.8783
32.4417 0.6020 -0.7948 0.8782
32.4410 0.8026 -0.7949 0.8782
30.9678 1.1496 -0.7591 0.8834
32.4386 1.6062 -0.7956 0.8781
32.4380 1.8073 -0.7958 0.8781
32.4374 2.0086 -0.7961 0.8781
32.4472 2.6142 -0.7974 0.8779
32.4460 3.0185 -0.7982 0.8778
32.4319 3.8284 -0.7999 0.8775
32.4282 5.0539 -0.8039 0.8769
32.4276 5.2594 -0.8047 0.8768
32.4372 5.8806 -0.8075 0.8764
32.4225 6.9196 -0.8121 0.8758
32.4206 7.5506 -0.8154 0.8753
32.4187 8.1871 -0.8190 0.8748
32.4180 8.4005 -0.8203 0.8746
32.4174 8.6146 -0.8216 0.8744
32.4662 8.8429 -0.8242 0.8740
32.4649 9.2754 -0.8270 0.8736
32.3581 9.6793 -0.8273 0.8736
32.4128 10.1341 -0.8319 0.8729
50.0919 17.3790 -1.2987 0.8088
49.8714 18.3460 -1.3016 0.8085
49.8703 18.6965 -1.3046 0.8081
49.8693 19.0487 -1.3076 0.8077
53.1679 21.4472 -1.4043 0.7950
53.1668 21.8300 -1.4078 0.7946
53.1646 22.6015 -1.4151 0.7936
53.0811 22.9546 -1.4166 0.7934
53.0790 23.3444 -1.4204 0.7929
32.7971 14.9111 -0.8825 0.8658
32.4541 14.9980 -0.8757 0.8667
32.3269 15.1826 -0.8748 0.8668
31.9464 15.7337 -0.8723 0.8672
31.8199 15.9167 -0.8715 0.8673
31.6935 16.0993 -0.8707 0.8674
53.1512 27.4140 -1.4649 0.7872
53.0929 27.8009 -1.4680 0.7868
32.7116 17.3873 -0.9074 0.8622
31.3216 17.1486 -0.8747 0.8669
31.1248 17.2919 -0.8722 0.8672
31.0833 18.2893 -0.8834 0.8656
32.3815 20.4266 -0.9378 0.8580
32.3807 20.7071 -0.9415 0.8575
32.3798 20.9897 -0.9452 0.8569
30.9170 20.3142 -0.9062 0.8624
32.3336 22.1145 -0.9595 0.8549
32.3754 22.4382 -0.9649 0.8542
32.3745 22.7353 -0.9690 0.8536
32.3736 23.0348 -0.9732 0.8530
32.3727 23.3371 -0.9775 0.8524
32.3699 24.2602 -0.9909 0.8506
30.9346 23.4846 -0.9514 0.8561
32.3835 24.9018 -1.0006 0.8492
32.3826 25.2213 -1.0054 0.8485
32.3650 25.8570 -1.0147 0.8473
32.1324 26.3288 -1.0176 0.8469
27.1589 22.8209 -0.8689 0.8677
32.3722 27.8917 -1.0467 0.8428
30.8895 26.9488 -1.0041 0.8487
32.3580 28.5844 -1.0576 0.8413
32.3545 29.3017 -1.0692 0.8397
32.2950 29.9831 -1.0794 0.8383
32.2938 30.3560 -1.0856 0.8375
30.8482 29.7243 -1.0493 0.8425
30.8831 30.5034 -1.0633 0.8406
30.8819 30.8819 -1.0698 0.8397
25.8199 26.1413 -0.9000 0.8633
30.8784 32.0460 -1.0901 0.8369
30.8771 32.4438 -1.0971 0.8359
30.9014 32.8740 -1.1051 0.8348
32.7315 35.6955 -1.1863 0.8238
29.9836 35.6833 -1.1417 0.8299
29.2372 35.6818 -1.1300 0.8315
28.5058 35.6804 -1.1187 0.8330
27.7888 35.6791 -1.1078 0.8345
27.4355 35.6784 -1.1025 0.8352
27.0855 35.6778 -1.0972 0.8359
26.7094 36.1009 -1.1000 0.8355
26.6957 36.5531 -1.1087 0.8343
26.6818 37.0124 -1.1176 0.8331
26.6533 37.9538 -1.1360 0.8306
26.6387 38.4362 -1.1455 0.8293
26.6087 39.4256 -1.1651 0.8267
26.5618 40.9754 -1.1961 0.8225
26.5513 41.5197 -1.2072 0.8210
26.4982 43.1812 -1.2410 0.8165
26.4798 43.7559 -1.2528 0.8149
26.3823 46.8031 -1.3160 0.8066
26.3414 48.1120 -1.3436 0.8029
26.2791 50.1866 -1.3877 0.7972
26.2573 50.9088 -1.4031 0.7952
26.2351 51.6473 -1.4190 0.7931
26.1847 53.1665 -1.4517 0.7889
26.1608 53.9574 -1.4688 0.7867
26.1114 55.5968 -1.5046 0.7821
26.0858 56.4467 -1.5232 0.7797
26.0595 57.3181 -1.5423 0.7773
26.0014 59.1203 -1.5820 0.7723
25.9732 60.0615 -1.6029 0.7696
25.9444 61.0279 -1.6243 0.7669
25.9147 62.0206 -1.6465 0.7642
25.8842 63.0407 -1.6693 0.7613
25.8455 64.0714 -1.6923 0.7585
-2.3953 64.5244 -1.5816 0.7723
-2.4047 55.5140 -1.3611 0.8007
-2.8145 56.8409 -1.3940 0.7964
-3.1669 56.8405 -1.3945 0.7963
-3.5196 56.8402 -1.3950 0.7962
-1.0388 12.8933 -0.3168 0.9496
-1.1191 12.8940 -0.3170 0.9495
-1.2068 12.9721 -0.3191 0.9492
-6.0572 57.4022 -1.4139 0.7938
-6.4162 57.4011 -1.4148 0.7937
-6.7758 57.4000 -1.4158 0.7935
-6.9996 53.5942 -1.3239 0.8055
-7.8576 57.3968 -1.4190 0.7931
-8.2193 57.3957 -1.4202 0.7930
-8.5817 57.3946 -1.4215 0.7928
-3.8005 21.7281 -0.5403 0.9155
-3.9025 21.5263 -0.5359 0.9162
-4.1102 21.1759 -0.5284 0.9173
-4.2234 21.0620 -0.5262 0.9176
-4.3416 20.9778 -0.5247 0.9179
-4.2304 19.8218 -0.4965 0.9221
-4.3419 18.1348 -0.4568 0.9281
-4.4607 18.1347 -0.4574 0.9280
-3.6258 14.3572 -0.3627 0.9425
-3.7822 13.8862 -0.3525 0.9440
-3.8418 13.7684 -0.3501 0.9444
-3.9005 13.6522 -0.3478 0.9448
-3.9440 13.4882 -0.3442 0.9453
-4.0138 13.4180 -0.3431 0.9455
-4.1518 13.2791 -0.3408 0.9459
-3.7452 10.7949 -0.2799 0.9553
-3.7893 10.7077 -0.2782 0.9556
-3.8760 10.5364 -0.2750 0.9561
-3.9186 10.4521 -0.2734 0.9563
-3.9462 10.3310 -0.2709 0.9567
-4.0200 10.3321 -0.2716 0.9566
-4.1047 10.3599 -0.2730 0.9564
-4.1621 10.3179 -0.2725 0.9565
-4.3172 10.1552 -0.2703 0.9568
-4.3899 10.1514 -0.2709 0.9567
-4.4465 10.1101 -0.2705 0.9568
-4.5028 10.0689 -0.2702 0.9568
-4.5591 10.0277 -0.2698 0.9569
-4.5619 9.8713 -0.2664 0.9574
-4.7069 9.8630 -0.2677 0.9572
-4.9167 9.8292 -0.2692 0.9570
-5.1300 9.5090 -0.2647 0.9577
-4.1064 7.5003 -0.2095 0.9664
-4.1432 7.2450 -0.2044 0.9672
-4.2628 7.2447 -0.2059 0.9669
-4.3232 7.2445 -0.2066 0.9668
-4.4454 7.2441 -0.2082 0.9666
-4.6954 7.2434 -0.2114 0.9661
-4.7592 7.2432 -0.2123 0.9659
-4.8882 7.2428 -0.2140 0.9656
-4.9536 7.2426 -0.2149 0.9655
-5.0195 7.2424 -0.2158 0.9654
-5.0859 7.2422 -0.2168 0.9652
-5.1123 7.0000 -0.2123 0.9659
-5.1787 6.9996 -0.2133 0.9658
-5.1777 6.6478 -0.2064 0.9668
-5.1774 6.5634 -0.2048 0.9671
-5.1769 6.3984 -0.2016 0.9676
-5.1762 6.1602 -0.1971 0.9683
-5.0819 5.8982 -0.1907 0.9693
