ply
format ascii 1.0
element vertex 1598
property float32 x
property float32 y
property float32 z
property float32 I
end_header
-1.7679 -2.3287 -0.9496 0.9878
-1.7454 -2.3287 -0.9452 0.9878
-1.7008 -2.3288 -0.9366 0.9879
-1.6788 -2.3288 -0.9324 0.9880
-1.5928 -2.3288 -0.9164 0.9882
-1.5302 -2.3289 -0.9051 0.9883
-1.3898 -2.3289 -0.8809 0.9887
-1.3704 -2.3290 -0.8777 0.9887
-1.3319 -2.3290 -0.8714 0.9888
-1.2939 -2.3290 -0.8654 0.9889
-1.2565 -2.3290 -0.8595 0.9889
-1.2196 -2.3290 -0.8539 0.9890
-1.1831 -2.3290 -0.8485 0.9891
-1.1650 -2.3291 -0.8458 0.9891
-1.1293 -2.3291 -0.8407 0.9892
-1.0416 -2.3291 -0.8287 0.9893
-1.0244 -2.3292 -0.8264 0.9894
-0.9902 -2.3292 -0.8220 0.9894
-0.9564 -2.3292 -0.8178 0.9895
-0.9396 -2.3292 -0.8158 0.9895
-0.9229 -2.3292 -0.8137 0.9895
-0.8569 -2.3292 -0.8061 0.9896
-0.8243 -2.3293 -0.8025 0.9897
-0.8081 -2.3293 -0.8008 0.9897
-0.7533 -2.3088 -0.7888 0.9898
-0.7376 -2.3088 -0.7872 0.9899
-0.7219 -2.3088 -0.7857 0.9899
-0.6811 -2.3293 -0.7882 0.9898
-0.6190 -2.3294 -0.7828 0.9899
-0.6037 -2.3294 -0.7816 0.9899
-0.5730 -2.3294 -0.7791 0.9900
-0.5425 -2.3294 -0.7768 0.9900
-0.5274 -2.3294 -0.7757 0.9900
-0.4821 -2.3295 -0.7726 0.9900
-0.4671 -2.3295 -0.7717 0.9901
-0.4075 -2.3295 -0.7681 0.9901
-0.3778 -2.3295 -0.7665 0.9901
-0.3631 -2.3295 -0.7658 0.9901
-0.3483 -2.3295 -0.7650 0.9901
-0.3189 -2.3295 -0.7637 0.9902
-0.2896 -2.3296 -0.7625 0.9902
-0.2604 -2.3296 -0.7613 0.9902
-0.2458 -2.3296 -0.7608 0.9902
-0.2313 -2.3296 -0.7604 0.9902
-0.2167 -2.3296 -0.7599 0.9902
-0.1877 -2.3296 -0.7591 0.9902
-0.1587 -2.3296 -0.7584 0.9902
-0.1298 -2.3296 -0.7578 0.9902
-0.1154 -2.3296 -0.7576 0.9902
-0.0865 -2.3297 -0.7572 0.9902
-0.0577 -2.3297 -0.7569 0.9902
-0.0432 -2.3297 -0.7568 0.9902
0.0288 -2.3297 -0.7567 0.9902
0.0432 -2.3297 -0.7568 0.9902
0.0576 -2.3297 -0.7569 0.9902
0.0721 -2.3298 -0.7571 0.9902
0.1009 -2.3298 -0.7574 0.9902
0.1154 -2.3298 -0.7576 0.9902
0.1298 -2.3298 -0.7579 0.9902
0.1587 -2.3298 -0.7585 0.9902
0.2022 -2.3298 -0.7596 0.9902
0.2167 -2.3298 -0.7600 0.9902
0.2313 -2.3298 -0.7604 0.9902
0.2604 -2.3298 -0.7614 0.9902
0.3631 -2.3299 -0.7659 0.9901
0.3779 -2.3299 -0.7666 0.9901
0.3927 -2.3299 -0.7674 0.9901
0.4075 -2.3299 -0.7682 0.9901
0.4224 -2.3299 -0.7691 0.9901
0.4373 -2.3299 -0.7700 0.9901
0.4522 -2.3299 -0.7709 0.9901
0.4672 -2.3300 -0.7718 0.9901
0.5426 -2.3300 -0.7770 0.9900
0.5884 -2.3300 -0.7805 0.9899
0.6657 -2.3300 -0.7871 0.9899
0.6813 -2.3301 -0.7885 0.9898
0.7285 -2.3301 -0.7929 0.9898
0.7444 -2.3301 -0.7945 0.9898
0.7603 -2.3301 -0.7961 0.9897
0.7923 -2.3301 -0.7994 0.9897
0.8409 -2.3301 -0.8046 0.9896
0.8736 -2.3302 -0.8083 0.9896
0.8900 -2.3302 -0.8102 0.9896
0.9066 -2.3302 -0.8121 0.9895
0.9568 -2.3302 -0.8182 0.9895
1.0248 -2.3302 -0.8268 0.9894
1.0594 -2.3302 -0.8314 0.9893
1.0769 -2.3303 -0.8338 0.9893
1.1121 -2.3303 -0.8386 0.9892
1.1298 -2.3303 -0.8411 0.9892
1.1481 -2.3312 -0.8440 0.9891
1.1676 -2.3343 -0.8477 0.9891
1.1873 -2.3374 -0.8515 0.9890
1.2272 -2.3438 -0.8593 0.9889
1.2475 -2.3470 -0.8633 0.9889
1.2679 -2.3502 -0.8673 0.9888
1.3304 -2.3601 -0.8800 0.9887
1.3516 -2.3635 -0.8843 0.9886
1.3730 -2.3669 -0.8888 0.9886
1.3947 -2.3704 -0.8933 0.9885
1.4166 -2.3738 -0.8979 0.9884
1.4387 -2.3774 -0.9025 0.9884
1.4836 -2.3845 -0.9122 0.9883
1.5064 -2.3881 -0.9171 0.9882
1.5764 -2.3992 -0.9324 0.9880
1.6003 -2.4030 -0.9377 0.9879
1.6119 -2.3883 -0.9359 0.9880
1.6211 -2.3703 -0.9327 0.9880
1.6373 -2.3624 -0.9336 0.9880
1.7058 -2.3974 -0.9557 0.9877
1.9237 -2.5668 -1.0418 0.9866
2.0061 -2.6088 -1.0689 0.9863
2.0990 -2.6950 -1.1095 0.9857
2.2272 -2.8235 -1.1680 0.9850
4.8339 -5.6104 -2.4053 0.9693
4.9377 -5.5203 -2.4056 0.9693
5.0733 -5.3971 -2.4058 0.9693
5.1067 -5.3658 -2.4059 0.9693
5.1399 -5.3343 -2.4060 0.9693
5.2058 -5.2706 -2.4061 0.9693
5.2384 -5.2384 -2.4062 0.9693
5.2709 -5.2061 -2.4062 0.9693
5.3031 -5.1735 -2.4063 0.9693
5.3671 -5.1078 -2.4064 0.9693
5.3986 -5.0747 -2.4065 0.9693
5.4300 -5.0413 -2.4066 0.9693
5.4612 -5.0078 -2.4066 0.9693
5.5231 -4.9401 -2.4068 0.9693
5.6442 -4.8025 -2.4070 0.9693
5.6739 -4.7676 -2.4071 0.9693
5.7034 -4.7326 -2.4071 0.9693
5.7328 -4.6973 -2.4072 0.9693
5.8478 -4.5545 -2.4074 0.9693
5.8759 -4.5184 -2.4075 0.9693
5.9039 -4.4821 -2.4076 0.9693
5.9317 -4.4456 -2.4076 0.9693
5.9592 -4.4089 -2.4077 0.9693
6.0366 -4.2952 -2.4063 0.9693
6.0895 -4.2204 -2.4064 0.9693
6.1156 -4.1827 -2.4065 0.9693
6.1924 -4.0688 -2.4066 0.9693
6.2176 -4.0305 -2.4066 0.9693
6.3397 -3.8366 -2.4068 0.9693
6.3635 -3.7974 -2.4069 0.9693
6.3869 -3.7581 -2.4069 0.9693
6.4558 -3.6391 -2.4070 0.9693
6.5005 -3.5591 -2.4071 0.9693
6.5225 -3.5188 -2.4071 0.9693
6.5657 -3.4380 -2.4072 0.9693
6.5870 -3.3974 -2.4072 0.9693
6.6079 -3.3566 -2.4072 0.9693
6.6287 -3.3157 -2.4073 0.9693
6.6892 -3.1923 -2.4074 0.9693
6.7284 -3.1094 -2.4074 0.9693
6.7476 -3.0678 -2.4075 0.9693
6.7665 -3.0260 -2.4075 0.9693
6.8036 -2.9422 -2.4075 0.9693
6.8217 -2.9001 -2.4076 0.9693
6.8745 -2.7731 -2.4076 0.9693
6.8916 -2.7306 -2.4077 0.9693
6.9085 -2.6879 -2.4077 0.9693
6.9250 -2.6452 -2.4077 0.9693
6.9413 -2.6023 -2.4077 0.9693
6.9574 -2.5594 -2.4078 0.9693
7.0038 -2.4299 -2.4078 0.9693
7.0188 -2.3866 -2.4079 0.9693
7.0620 -2.2560 -2.4079 0.9693
7.1159 -2.0807 -2.4080 0.9693
7.1287 -2.0367 -2.4080 0.9693
7.1411 -1.9926 -2.4080 0.9693
7.1534 -1.9484 -2.4080 0.9693
7.1654 -1.9041 -2.4081 0.9693
7.1770 -1.8598 -2.4081 0.9693
7.2210 -1.6818 -2.4081 0.9693
7.2313 -1.6371 -2.4081 0.9693
7.2511 -1.5475 -2.4082 0.9693
7.2605 -1.5027 -2.4082 0.9693
7.2786 -1.4128 -2.4082 0.9693
7.2872 -1.3677 -2.4082 0.9693
7.3036 -1.2775 -2.4082 0.9693
7.3114 -1.2323 -2.4082 0.9693
7.3261 -1.1418 -2.4082 0.9693
7.3522 -0.9602 -2.4082 0.9693
7.3635 -0.8692 -2.4083 0.9693
7.3828 -0.6868 -2.4083 0.9693
7.3943 -0.5497 -2.4083 0.9693
7.3975 -0.5040 -2.4083 0.9693
7.4005 -0.4583 -2.4083 0.9693
7.4056 -0.3667 -2.4083 0.9693
7.4077 -0.3209 -2.4083 0.9693
7.4096 -0.2751 -2.4082 0.9693
7.4111 -0.2293 -2.4082 0.9693
7.4123 -0.1834 -2.4082 0.9693
7.4140 -0.0917 -2.4082 0.9693
7.4145 -0.0000 -2.4082 0.9693
7.4139 0.0917 -2.4082 0.9693
7.4132 0.1375 -2.4082 0.9693
7.4093 0.2750 -2.4082 0.9693
7.4074 0.3208 -2.4081 0.9693
7.4052 0.3666 -2.4081 0.9693
7.3937 0.5497 -2.4081 0.9693
7.3863 0.6411 -2.4081 0.9693
7.3513 0.9601 -2.4079 0.9693
7.3320 1.0963 -2.4079 0.9693
7.3024 1.2772 -2.4078 0.9693
7.2943 1.3224 -2.4078 0.9693
7.2859 1.3674 -2.4078 0.9693
7.2496 1.5471 -2.4077 0.9693
7.2297 1.6367 -2.4076 0.9693
7.2087 1.7259 -2.4076 0.9693
7.1753 1.8593 -2.4075 0.9693
7.1267 2.0361 -2.4074 0.9693
7.1139 2.0801 -2.4073 0.9693
7.0874 2.1679 -2.4073 0.9693
7.0738 2.2116 -2.4072 0.9693
7.0599 2.2553 -2.4072 0.9693
7.0312 2.3424 -2.4071 0.9693
6.9389 2.6014 -2.4069 0.9693
6.9060 2.6869 -2.4068 0.9693
6.8546 2.8145 -2.4067 0.9693
6.8190 2.8989 -2.4066 0.9693
6.7638 3.0248 -2.4065 0.9693
6.7449 3.0665 -2.4065 0.9693
6.7061 3.1496 -2.4064 0.9693
6.5840 3.3958 -2.4061 0.9693
6.5412 3.4768 -2.4060 0.9693
6.4974 3.5573 -2.4059 0.9693
6.4752 3.5974 -2.4059 0.9693
6.4527 3.6373 -2.4058 0.9693
6.4069 3.7166 -2.4057 0.9693
6.3837 3.7561 -2.4057 0.9693
6.2883 3.9125 -2.4055 0.9693
6.2639 3.9513 -2.4054 0.9693
6.2392 3.9898 -2.4054 0.9693
6.2142 4.0283 -2.4053 0.9693
6.1891 4.0665 -2.4053 0.9693
6.1122 4.1804 -2.4051 0.9693
6.0597 4.2555 -2.4050 0.9693
5.9793 4.3668 -2.4048 0.9693
5.9520 4.4036 -2.4048 0.9693
5.9245 4.4402 -2.4047 0.9693
5.8689 4.5129 -2.4046 0.9693
5.7838 4.6207 -2.4044 0.9693
5.7614 4.6616 -2.4071 0.9693
5.6735 4.7673 -2.4069 0.9693
5.6438 4.8021 -2.4069 0.9693
5.6138 4.8368 -2.4068 0.9693
5.4919 4.9737 -2.4065 0.9693
5.4609 5.0074 -2.4065 0.9693
5.4297 5.0409 -2.4064 0.9693
5.3666 5.1074 -2.4063 0.9693
5.2705 5.2057 -2.4061 0.9693
5.2380 5.2380 -2.4060 0.9693
5.2054 5.2702 -2.4059 0.9693
5.1726 5.3021 -2.4059 0.9693
5.1063 5.3654 -2.4057 0.9693
5.0729 5.3967 -2.4057 0.9693
5.0054 5.4587 -2.4055 0.9693
4.9714 5.4894 -2.4054 0.9693
4.9029 5.5501 -2.4053 0.9693
1.8789 2.1808 -0.9349 0.9880
1.7976 2.1393 -0.9076 0.9883
1.7210 2.1003 -0.8819 0.9886
1.6842 2.0816 -0.8697 0.9888
1.6510 2.0665 -0.8591 0.9889
1.6137 2.0457 -0.8463 0.9891
1.5469 2.0116 -0.8242 0.9894
1.4954 2.0475 -0.8235 0.9894
1.4520 2.0406 -0.8135 0.9895
1.4097 2.0340 -0.8038 0.9896
1.3480 2.0242 -0.7899 0.9898
1.3280 2.0211 -0.7855 0.9899
1.2498 2.0087 -0.7684 0.9901
1.2120 2.0028 -0.7603 0.9902
1.1934 1.9998 -0.7564 0.9903
1.1750 1.9970 -0.7525 0.9903
1.1387 1.9912 -0.7450 0.9904
1.1031 1.9856 -0.7378 0.9905
1.0856 1.9828 -0.7342 0.9905
1.0682 1.9801 -0.7307 0.9906
1.0349 1.9764 -0.7246 0.9907
1.0194 1.9764 -0.7223 0.9907
1.0040 1.9764 -0.7200 0.9907
0.9734 1.9764 -0.7156 0.9908
0.9582 1.9764 -0.7134 0.9908
0.8986 1.9765 -0.7052 0.9909
0.8403 1.9765 -0.6976 0.9910
0.8259 1.9765 -0.6958 0.9910
0.7973 1.9765 -0.6922 0.9911
0.7831 1.9765 -0.6905 0.9911
0.7550 1.9766 -0.6872 0.9911
0.7271 1.9765 -0.6840 0.9912
0.7133 1.9766 -0.6825 0.9912
0.6858 1.9766 -0.6795 0.9912
0.6721 1.9766 -0.6781 0.9913
0.6314 1.9766 -0.6740 0.9913
0.6180 1.9766 -0.6726 0.9913
0.5913 1.9766 -0.6701 0.9914
0.5647 1.9766 -0.6677 0.9914
0.4733 1.9767 -0.6602 0.9915
0.4604 1.9767 -0.6592 0.9915
0.4346 1.9767 -0.6574 0.9915
0.3458 1.9767 -0.6518 0.9916
0.3332 1.9768 -0.6511 0.9916
0.3206 1.9768 -0.6504 0.9916
0.3081 1.9768 -0.6498 0.9916
0.2831 1.9768 -0.6486 0.9916
0.2333 1.9768 -0.6465 0.9917
0.2210 1.9768 -0.6461 0.9917
0.2086 1.9768 -0.6456 0.9917
0.1962 1.9768 -0.6452 0.9917
0.1593 1.9768 -0.6442 0.9917
0.1470 1.9769 -0.6438 0.9917
0.1347 1.9769 -0.6436 0.9917
0.0734 1.9769 -0.6425 0.9917
0.0611 1.9769 -0.6424 0.9917
0.0367 1.9769 -0.6422 0.9917
-0.0000 1.9769 -0.6421 0.9917
-0.0122 1.9769 -0.6421 0.9917
-0.0367 1.9770 -0.6422 0.9917
-0.0612 1.9770 -0.6424 0.9917
-0.0734 1.9770 -0.6426 0.9917
-0.0856 1.9770 -0.6427 0.9917
-0.0979 1.9770 -0.6429 0.9917
-0.1347 1.9770 -0.6436 0.9917
-0.1716 1.9770 -0.6445 0.9917
-0.1839 1.9770 -0.6449 0.9917
-0.1963 1.9770 -0.6453 0.9917
-0.2210 1.9770 -0.6461 0.9917
-0.2334 1.9771 -0.6466 0.9917
-0.2458 1.9771 -0.6471 0.9917
-0.2582 1.9771 -0.6476 0.9916
-0.2707 1.9771 -0.6481 0.9916
-0.3081 1.9771 -0.6499 0.9916
-0.3207 1.9771 -0.6505 0.9916
-0.3332 1.9771 -0.6512 0.9916
-0.3458 1.9771 -0.6519 0.9916
-0.3584 1.9771 -0.6526 0.9916
-0.4220 1.9771 -0.6566 0.9915
-0.4348 1.9772 -0.6575 0.9915
-0.4476 1.9772 -0.6584 0.9915
-0.4864 1.9772 -0.6613 0.9915
-0.4994 1.9772 -0.6623 0.9915
-0.5124 1.9772 -0.6634 0.9914
-0.5386 1.9772 -0.6656 0.9914
-0.5517 1.9772 -0.6667 0.9914
-0.5649 1.9772 -0.6679 0.9914
-0.5915 1.9772 -0.6703 0.9914
-0.6182 1.9772 -0.6729 0.9913
-0.6317 1.9772 -0.6742 0.9913
-0.6452 1.9773 -0.6755 0.9913
-0.6997 1.9773 -0.6812 0.9912
-0.7274 1.9773 -0.6843 0.9912
-0.7413 1.9773 -0.6859 0.9912
-0.7553 1.9773 -0.6875 0.9911
-0.7835 1.9773 -0.6908 0.9911
-0.8119 1.9773 -0.6943 0.9911
-0.8262 1.9774 -0.6961 0.9910
-0.8406 1.9774 -0.6979 0.9910
-0.8990 1.9774 -0.7055 0.9909
-0.9138 1.9774 -0.7075 0.9909
-0.9437 1.9774 -0.7117 0.9908
-1.0045 1.9775 -0.7204 0.9907
-1.0200 1.9775 -0.7227 0.9907
-1.0511 1.9775 -0.7274 0.9906
-1.0827 1.9775 -0.7323 0.9906
-1.1309 1.9775 -0.7399 0.9905
-1.1472 1.9775 -0.7425 0.9904
-1.1801 1.9776 -0.7480 0.9904
-1.1968 1.9776 -0.7508 0.9903
-1.2136 1.9776 -0.7536 0.9903
-1.2304 1.9776 -0.7565 0.9903
-1.2475 1.9776 -0.7594 0.9902
-1.2820 1.9776 -0.7655 0.9901
-1.3347 1.9776 -0.7749 0.9900
-1.3526 1.9777 -0.7782 0.9900
-1.3888 1.9777 -0.7849 0.9899
-1.4072 1.9777 -0.7884 0.9898
-1.4257 1.9777 -0.7919 0.9898
-1.4823 1.9777 -0.8027 0.9897
-1.5404 1.9778 -0.8142 0.9895
-1.6206 1.9778 -0.8305 0.9893
-1.6412 1.9778 -0.8347 0.9892
-1.6619 1.9778 -0.8391 0.9892
-1.7691 1.9779 -0.8619 0.9889
-1.7913 1.9779 -0.8667 0.9888
-1.8363 1.9779 -0.8766 0.9887
-1.8593 1.9779 -0.8817 0.9886
-1.8824 1.9779 -0.8869 0.9886
-1.9296 1.9780 -0.8975 0.9884
-1.9537 1.9780 -0.9030 0.9884
-1.9780 1.9780 -0.9086 0.9883
-2.0027 1.9780 -0.9142 0.9882
-2.0276 1.9780 -0.9200 0.9882
-2.1306 1.9781 -0.9443 0.9878
-2.1572 1.9781 -0.9506 0.9878
-2.1842 1.9781 -0.9571 0.9877
-2.2393 1.9781 -0.9705 0.9875
-2.3249 1.9782 -0.9915 0.9872
-2.3543 1.9782 -0.9988 0.9872
-2.3841 1.9782 -1.0062 0.9871
-2.4450 1.9783 -1.0215 0.9869
-2.4762 1.9783 -1.0294 0.9868
-2.5079 1.9783 -1.0375 0.9867
-2.5401 1.9783 -1.0457 0.9866
-2.6059 1.9784 -1.0627 0.9863
-2.6740 1.9784 -1.0804 0.9861
-2.7444 1.9784 -1.0989 0.9859
-2.8173 1.9785 -1.1181 0.9856
-2.9316 1.9785 -1.1487 0.9852
-3.0113 1.9786 -1.1703 0.9850
-3.0941 1.9786 -1.1929 0.9847
-3.1801 1.9787 -1.2165 0.9844
-3.2697 1.9787 -1.2413 0.9841
-3.3158 1.9787 -1.2542 0.9839
-3.3630 1.9788 -1.2673 0.9837
-3.5619 1.9789 -1.3235 0.9830
-3.6145 1.9789 -1.3384 0.9828
-3.7163 1.9754 -1.3670 0.9825
-3.7163 1.9460 -1.3625 0.9825
-3.7365 1.9272 -1.3655 0.9825
-3.7940 1.9272 -1.3821 0.9823
-4.2323 2.0844 -1.5323 0.9804
-4.2528 2.0620 -1.5351 0.9803
-4.2529 2.0296 -1.5305 0.9804
-4.4040 2.0684 -1.5803 0.9797
-4.4167 2.0411 -1.5803 0.9797
-4.4538 2.0249 -1.5891 0.9796
-4.7401 2.0847 -1.6819 0.9785
-4.9040 2.0848 -1.7308 0.9778
-4.8842 2.0408 -1.7193 0.9780
-4.9311 2.0247 -1.7313 0.9778
-5.1686 2.0849 -1.8102 0.9768
-5.3590 2.0851 -1.8677 0.9761
-5.3823 2.0559 -1.8713 0.9761
-5.3823 2.0178 -1.8670 0.9761
-5.3823 1.9800 -1.8627 0.9762
-5.7073 1.9801 -1.9621 0.9749
-6.0692 1.9803 -2.0735 0.9735
-7.0123 2.1449 -2.3818 0.9696
-7.0254 2.1015 -2.3817 0.9696
-7.0632 1.9708 -2.3817 0.9696
-7.1097 1.7955 -2.3817 0.9696
-7.1207 1.7515 -2.3817 0.9696
-7.1418 1.6633 -2.3817 0.9696
-7.1808 1.4862 -2.3817 0.9696
-7.1986 1.3972 -2.3817 0.9696
-7.2071 1.3527 -2.3817 0.9696
-7.2310 1.2187 -2.3817 0.9696
-7.2384 1.1740 -2.3817 0.9696
-7.2456 1.1292 -2.3817 0.9696
-7.2524 1.0844 -2.3817 0.9696
-7.2590 1.0395 -2.3818 0.9696
-7.2771 0.9047 -2.3818 0.9696
-7.2826 0.8597 -2.3818 0.9696
-7.2878 0.8146 -2.3818 0.9696
-7.3058 0.6341 -2.3818 0.9696
-7.3131 0.5437 -2.3818 0.9696
-7.3194 0.4532 -2.3819 0.9696
-7.3285 0.2721 -2.3819 0.9696
-7.3324 0.1361 -2.3820 0.9696
-7.3331 0.0907 -2.3820 0.9696
-7.3336 0.0454 -2.3820 0.9696
-7.1534 0.0000 -2.3823 0.9703
-7.1534 -0.0442 -2.3823 0.9703
-7.1523 -0.1327 -2.3823 0.9703
-7.1515 -0.1770 -2.3823 0.9703
-7.1503 -0.2212 -2.3824 0.9703
-7.1471 -0.3096 -2.3824 0.9703
-7.1451 -0.3538 -2.3824 0.9703
-7.1429 -0.3980 -2.3824 0.9703
-7.1403 -0.4421 -2.3825 0.9703
-7.1375 -0.4863 -2.3825 0.9703
-7.1311 -0.5745 -2.3825 0.9703
-7.1274 -0.6186 -2.3825 0.9703
-7.1235 -0.6627 -2.3826 0.9703
-7.1193 -0.7067 -2.3826 0.9703
-7.0945 -0.9266 -2.3827 0.9703
-7.0826 -1.0143 -2.3827 0.9703
-7.0697 -1.1018 -2.3828 0.9703
-7.0628 -1.1455 -2.3828 0.9703
-7.0556 -1.1892 -2.3828 0.9703
-7.0482 -1.2328 -2.3829 0.9703
-7.0405 -1.2764 -2.3829 0.9703
-7.0326 -1.3199 -2.3829 0.9703
-7.0071 -1.4502 -2.3830 0.9703
-6.9981 -1.4935 -2.3830 0.9703
-6.9276 -1.7952 -2.3833 0.9703
-6.9050 -1.8808 -2.3833 0.9703
-6.8934 -1.9235 -2.3834 0.9703
-6.8814 -1.9661 -2.3834 0.9703
-6.8692 -2.0086 -2.3834 0.9703
-6.8568 -2.0511 -2.3835 0.9703
-6.8311 -2.1358 -2.3835 0.9703
-6.7906 -2.2623 -2.3836 0.9703
-6.7478 -2.3879 -2.3837 0.9703
-6.7330 -2.4297 -2.3838 0.9703
-6.7179 -2.4713 -2.3838 0.9703
-6.2049 -2.3262 -2.2068 0.9724
-5.8716 -2.3264 -2.1033 0.9737
-5.7674 -2.3265 -2.0711 0.9741
-5.6663 -2.3265 -2.0399 0.9745
-5.5682 -2.3266 -2.0097 0.9749
-5.2846 -2.3242 -1.9226 0.9760
-5.2791 -2.3608 -1.9258 0.9759
-5.2372 -2.3811 -1.9159 0.9760
-5.0162 -2.4321 -1.8565 0.9768
-4.7866 -2.3943 -1.7824 0.9777
-4.7881 -2.4322 -1.7885 0.9776
-4.7157 -2.4322 -1.7670 0.9779
-4.4427 -2.4324 -1.6868 0.9789
-4.2729 -2.3739 -1.6278 0.9796
-4.2128 -2.3747 -1.6105 0.9798
-4.1538 -2.3754 -1.5936 0.9800
-4.1079 -2.3830 -1.5816 0.9802
-4.0932 -2.4084 -1.5816 0.9802
-4.0197 -2.4326 -1.5647 0.9804
-3.9642 -2.4327 -1.5489 0.9806
-3.6578 -2.2759 -1.4347 0.9820
-3.6187 -2.2827 -1.4248 0.9821
-3.5427 -2.3277 -1.4117 0.9823
-3.4491 -2.3278 -1.3857 0.9826
-3.4035 -2.3278 -1.3732 0.9828
-3.3588 -2.3279 -1.3609 0.9829
-3.1465 -2.3280 -1.3035 0.9836
-2.9891 -2.3281 -1.2617 0.9842
-2.9513 -2.3281 -1.2518 0.9843
-2.9141 -2.3281 -1.2421 0.9844
-2.8774 -2.3281 -1.2326 0.9845
-2.8058 -2.3282 -1.2142 0.9847
-2.7708 -2.3282 -1.2052 0.9849
-2.7362 -2.3282 -1.1965 0.9850
-2.6356 -2.3283 -1.1712 0.9853
-2.6030 -2.3283 -1.1630 0.9854
-2.5709 -2.3283 -1.1551 0.9855
-2.5392 -2.3283 -1.1473 0.9856
-2.4465 -2.3284 -1.1248 0.9859
-2.4164 -2.3284 -1.1175 0.9860
-2.3867 -2.3284 -1.1104 0.9860
-2.3285 -2.3284 -1.0966 0.9862
-2.2998 -2.3284 -1.0899 0.9863
-2.2161 -2.3285 -1.0705 0.9865
-2.1888 -2.3285 -1.0643 0.9866
-2.1352 -2.3285 -1.0521 0.9868
-2.1089 -2.3286 -1.0462 0.9868
-2.0828 -2.3286 -1.0404 0.9869
-2.0571 -2.3286 -1.0347 0.9870
-2.0316 -2.3286 -1.0291 0.9871
-1.9567 -2.3287 -1.0129 0.9873
-1.9323 -2.3287 -1.0077 0.9873
-1.9081 -2.3287 -1.0026 0.9874
-1.8842 -2.3287 -0.9976 0.9875
-1.8605 -2.3287 -0.9926 0.9875
-1.8370 -2.3287 -0.9878 0.9876
-1.8137 -2.3287 -0.9830 0.9876
-1.7907 -2.3287 -0.9783 0.9877
-1.7679 -2.3287 -0.9737 0.9877
-1.7230 -2.3288 -0.9647 0.9879
-1.7008 -2.3288 -0.9604 0.9879
-1.6788 -2.3288 -0.9561 0.9880
-1.6570 -2.3288 -0.9518 0.9880
-1.6354 -2.3288 -0.9477 0.9881
-1.5718 -2.3288 -0.9357 0.9882
-1.5509 -2.3289 -0.9318 0.9883
-1.5302 -2.3289 -0.9280 0.9883
-1.4893 -2.3289 -0.9206 0.9884
-1.4691 -2.3289 -0.9170 0.9885
-1.4491 -2.3289 -0.9135 0.9885
-1.4292 -2.3289 -0.9100 0.9885
-1.4094 -2.3289 -0.9066 0.9886
-1.3704 -2.3290 -0.8999 0.9887
-1.3319 -2.3290 -0.8935 0.9888
-1.2565 -2.3290 -0.8813 0.9889
-1.2196 -2.3290 -0.8755 0.9890
-1.1831 -2.3291 -0.8700 0.9890
-1.1651 -2.3291 -0.8673 0.9891
-1.1293 -2.3291 -0.8620 0.9891
-1.0939 -2.3291 -0.8569 0.9892
-1.0589 -2.3291 -0.8521 0.9893
-1.0416 -2.3291 -0.8497 0.9893
-1.0072 -2.3292 -0.8451 0.9894
-0.9902 -2.3292 -0.8429 0.9894
-0.9732 -2.3292 -0.8407 0.9894
-0.9564 -2.3292 -0.8385 0.9894
-0.9396 -2.3292 -0.8364 0.9895
-0.9229 -2.3292 -0.8344 0.9895
-0.8569 -2.3293 -0.8265 0.9896
-0.8406 -2.3293 -0.8247 0.9896
-0.8243 -2.3293 -0.8228 0.9896
-0.7562 -2.2699 -0.7968 0.9900
-0.7244 -2.2677 -0.7928 0.9900
-0.6999 -2.2883 -0.7969 0.9900
-0.6907 -2.3088 -0.8026 0.9899
-0.6190 -2.3294 -0.8027 0.9899
-0.5883 -2.3294 -0.8001 0.9899
-0.5730 -2.3294 -0.7989 0.9899
-0.4971 -2.3295 -0.7932 0.9900
-0.4821 -2.3295 -0.7922 0.9900
-0.4521 -2.3295 -0.7902 0.9900
-0.4372 -2.3295 -0.7893 0.9901
-0.4075 -2.3295 -0.7876 0.9901
-0.3779 -2.3295 -0.7859 0.9901
-0.3630 -2.3295 -0.7852 0.9901
-0.3483 -2.3295 -0.7844 0.9901
-0.3336 -2.3295 -0.7837 0.9901
-0.3189 -2.3295 -0.7830 0.9901
-0.2459 -2.3296 -0.7801 0.9902
-0.2168 -2.3296 -0.7792 0.9902
-0.2022 -2.3296 -0.7787 0.9902
-0.1877 -2.3296 -0.7783 0.9902
-0.1587 -2.3296 -0.7776 0.9902
-0.1298 -2.3296 -0.7770 0.9902
-0.1154 -2.3296 -0.7768 0.9902
-0.1009 -2.3296 -0.7766 0.9902
-0.0721 -2.3297 -0.7762 0.9902
-0.0576 -2.3297 -0.7761 0.9902
-0.0144 -2.3297 -0.7759 0.9902
-0.0000 -2.3297 -0.7758 0.9902
0.0144 -2.3297 -0.7759 0.9902
0.0432 -2.3297 -0.7760 0.9902
0.0721 -2.3297 -0.7762 0.9902
0.0865 -2.3297 -0.7764 0.9902
0.1298 -2.3298 -0.7771 0.9902
0.1877 -2.3298 -0.7784 0.9902
0.2022 -2.3298 -0.7788 0.9902
0.2168 -2.3298 -0.7792 0.9902
0.2313 -2.3298 -0.7797 0.9902
0.2604 -2.3298 -0.7807 0.9902
0.3336 -2.3299 -0.7838 0.9901
0.3484 -2.3299 -0.7845 0.9901
0.3779 -2.3299 -0.7861 0.9901
0.4224 -2.3299 -0.7886 0.9901
0.4373 -2.3299 -0.7895 0.9901
0.4522 -2.3299 -0.7904 0.9900
0.4672 -2.3299 -0.7914 0.9900
0.4822 -2.3300 -0.7924 0.9900
0.5426 -2.3300 -0.7967 0.9900
0.5731 -2.3300 -0.7991 0.9899
0.5884 -2.3300 -0.8003 0.9899
0.6038 -2.3300 -0.8016 0.9899
0.6346 -2.3300 -0.8042 0.9899
0.6501 -2.3300 -0.8056 0.9899
0.6657 -2.3300 -0.8070 0.9898
0.7127 -2.3301 -0.8115 0.9898
0.7285 -2.3301 -0.8130 0.9898
0.7444 -2.3301 -0.8146 0.9897
0.7603 -2.3301 -0.8162 0.9897
0.7763 -2.3301 -0.8179 0.9897
0.7923 -2.3301 -0.8196 0.9897
0.8572 -2.3301 -0.8268 0.9896
0.8900 -2.3302 -0.8307 0.9895
0.9066 -2.3302 -0.8327 0.9895
0.9232 -2.3302 -0.8347 0.9895
0.9400 -2.3302 -0.8368 0.9895
0.9567 -2.3302 -0.8389 0.9894
0.9737 -2.3302 -0.8410 0.9894
1.0077 -2.3302 -0.8455 0.9894
1.0248 -2.3302 -0.8478 0.9893
1.0421 -2.3302 -0.8501 0.9893
1.0595 -2.3302 -0.8525 0.9893
1.0944 -2.3303 -0.8574 0.9892
1.1121 -2.3303 -0.8599 0.9892
1.1298 -2.3303 -0.8624 0.9891
1.1481 -2.3312 -0.8654 0.9891
1.1676 -2.3343 -0.8692 0.9891
1.2072 -2.3406 -0.8770 0.9890
1.2475 -2.3470 -0.8852 0.9889
1.3094 -2.3568 -0.8979 0.9887
1.3304 -2.3602 -0.9023 0.9886
1.3516 -2.3635 -0.9067 0.9886
1.3947 -2.3704 -0.9159 0.9885
1.4166 -2.3739 -0.9206 0.9884
1.4387 -2.3774 -0.9254 0.9884
1.4836 -2.3845 -0.9353 0.9882
1.5064 -2.3881 -0.9403 0.9882
1.5295 -2.3918 -0.9455 0.9881
1.5764 -2.3992 -0.9560 0.9880
1.6211 -2.3702 -0.9563 0.9880
1.6712 -2.3797 -0.9684 0.9878
1.9237 -2.5668 -1.0682 0.9866
2.0061 -2.6089 -1.0960 0.9862
2.0991 -2.6952 -1.1377 0.9857
2.2414 -2.8055 -1.1959 0.9850
2.2587 -2.7917 -1.1959 0.9850
2.3736 -2.8968 -1.2472 0.9843
4.6457 -5.5288 -2.4049 0.9700
4.7140 -5.4713 -2.4051 0.9700
4.8151 -5.3833 -2.4053 0.9700
4.8485 -5.3536 -2.4054 0.9700
4.9146 -5.2935 -2.4055 0.9700
4.9474 -5.2632 -2.4056 0.9700
5.0123 -5.2019 -2.4057 0.9700
5.0446 -5.1709 -2.4058 0.9700
5.1084 -5.1084 -2.4059 0.9700
5.1401 -5.0769 -2.4060 0.9700
5.1715 -5.0451 -2.4060 0.9700
5.2027 -5.0132 -2.4061 0.9700
5.2646 -4.9487 -2.4062 0.9700
5.2953 -4.9162 -2.4063 0.9700
5.3257 -4.8835 -2.4064 0.9700
5.3560 -4.8506 -2.4064 0.9700
5.3860 -4.8175 -2.4065 0.9700
5.4158 -4.7842 -2.4065 0.9700
5.4454 -4.7507 -2.4066 0.9700
5.5330 -4.6493 -2.4068 0.9700
5.5904 -4.5807 -2.4069 0.9700
5.6188 -4.5462 -2.4070 0.9700
5.6469 -4.5114 -2.4070 0.9700
5.6749 -4.4765 -2.4071 0.9700
5.7844 -4.3352 -2.4073 0.9700
5.8642 -4.2274 -2.4075 0.9700
5.9163 -4.1548 -2.4076 0.9700
5.9420 -4.1182 -2.4076 0.9700
5.9675 -4.0814 -2.4077 0.9700
6.0632 -3.9304 -2.4063 0.9700
6.0875 -3.8929 -2.4064 0.9700
6.1354 -3.8174 -2.4064 0.9700
6.2054 -3.7031 -2.4066 0.9700
6.2733 -3.5875 -2.4067 0.9700
6.3391 -3.4707 -2.4068 0.9700
6.3817 -3.3921 -2.4068 0.9700
6.4234 -3.3130 -2.4069 0.9700
6.4640 -3.2334 -2.4070 0.9700
6.4840 -3.1934 -2.4070 0.9700
6.5037 -3.1533 -2.4070 0.9700
6.5423 -3.0727 -2.4071 0.9700
6.5613 -3.0322 -2.4071 0.9700
6.6167 -2.9100 -2.4072 0.9700
6.6869 -2.7456 -2.4073 0.9700
6.7530 -2.5795 -2.4074 0.9700
6.7689 -2.5377 -2.4074 0.9700
6.7846 -2.4958 -2.4074 0.9700
6.7999 -2.4538 -2.4075 0.9700
6.8150 -2.4117 -2.4075 0.9700
6.8587 -2.2850 -2.4075 0.9700
6.8728 -2.2425 -2.4076 0.9700
6.8866 -2.2000 -2.4076 0.9700
6.9001 -2.1574 -2.4076 0.9700
6.9757 -1.9000 -2.4077 0.9700
6.9987 -1.8136 -2.4077 0.9700
7.0098 -1.7703 -2.4077 0.9700
7.0207 -1.7269 -2.4078 0.9700
7.0416 -1.6400 -2.4078 0.9700
7.0516 -1.5964 -2.4078 0.9700
7.0614 -1.5528 -2.4078 0.9700
7.0709 -1.5091 -2.4078 0.9700
7.0801 -1.4653 -2.4078 0.9700
7.0977 -1.3777 -2.4078 0.9700
7.1144 -1.2898 -2.4079 0.9700
7.1371 -1.1576 -2.4079 0.9700
7.1441 -1.1134 -2.4079 0.9700
7.1574 -1.0250 -2.4079 0.9700
7.1695 -0.9364 -2.4079 0.9700
7.1806 -0.8477 -2.4079 0.9700
7.2034 -0.6252 -2.4079 0.9700
7.2105 -0.5361 -2.4079 0.9700
7.2137 -0.4915 -2.4079 0.9700
7.2166 -0.4469 -2.4079 0.9700
7.2192 -0.4022 -2.4079 0.9700
7.2216 -0.3576 -2.4079 0.9700
7.2254 -0.2682 -2.4079 0.9700
7.2282 -0.1788 -2.4079 0.9700
7.2291 -0.1342 -2.4079 0.9700
7.2302 -0.0447 -2.4079 0.9700
7.2303 -0.0000 -2.4079 0.9700
7.2301 0.0447 -2.4079 0.9700
7.2297 0.0894 -2.4079 0.9700
7.2290 0.1341 -2.4078 0.9700
7.2280 0.1788 -2.4078 0.9700
7.2267 0.2235 -2.4078 0.9700
7.2234 0.3129 -2.4078 0.9700
7.2189 0.4022 -2.4078 0.9700
7.2162 0.4468 -2.4078 0.9700
7.2101 0.5360 -2.4077 0.9700
7.2028 0.6252 -2.4077 0.9700
7.1987 0.6697 -2.4077 0.9700
7.1849 0.8031 -2.4077 0.9700
7.1798 0.8475 -2.4076 0.9700
7.1744 0.8919 -2.4076 0.9700
7.1627 0.9805 -2.4076 0.9700
7.1499 1.0690 -2.4075 0.9700
7.1431 1.1132 -2.4075 0.9700
7.1286 1.2015 -2.4075 0.9700
7.1131 1.2895 -2.4074 0.9700
7.1049 1.3335 -2.4074 0.9700
7.0964 1.3774 -2.4074 0.9700
7.0877 1.4212 -2.4074 0.9700
7.0787 1.4650 -2.4074 0.9700
7.0695 1.5087 -2.4073 0.9700
7.0600 1.5524 -2.4073 0.9700
7.0502 1.5960 -2.4073 0.9700
7.0400 1.6396 -2.4073 0.9700
7.0082 1.7698 -2.4072 0.9700
6.9620 1.9426 -2.4071 0.9700
6.9497 1.9855 -2.4070 0.9700
6.9372 2.0285 -2.4070 0.9700
6.9244 2.0713 -2.4070 0.9700
6.9114 2.1141 -2.4069 0.9700
6.8981 2.1567 -2.4069 0.9700
6.8567 2.2842 -2.4068 0.9700
6.8423 2.3265 -2.4068 0.9700
6.8277 2.3688 -2.4067 0.9700
6.8128 2.4109 -2.4067 0.9700
6.7977 2.4530 -2.4067 0.9700
6.7666 2.5368 -2.4066 0.9700
6.7345 2.6202 -2.4065 0.9700
6.6672 2.7858 -2.4064 0.9700
6.5959 2.9497 -2.4062 0.9700
6.5773 2.9904 -2.4062 0.9700
6.5396 3.0713 -2.4061 0.9700
6.5204 3.1117 -2.4061 0.9700
6.5009 3.1519 -2.4060 0.9700
6.4812 3.1920 -2.4060 0.9700
6.4612 3.2320 -2.4059 0.9700
6.4205 3.3115 -2.4058 0.9700
6.3361 3.4690 -2.4057 0.9700
6.3145 3.5081 -2.4056 0.9700
6.2925 3.5470 -2.4056 0.9700
6.2479 3.6244 -2.4055 0.9700
6.2024 3.7012 -2.4054 0.9700
6.1792 3.7395 -2.4053 0.9700
6.1559 3.7775 -2.4053 0.9700
6.1322 3.8154 -2.4052 0.9700
6.1084 3.8532 -2.4052 0.9700
6.0843 3.8908 -2.4051 0.9700
6.0355 3.9656 -2.4050 0.9700
5.9605 4.0766 -2.4049 0.9700
5.9094 4.1499 -2.4047 0.9700
5.8835 4.1862 -2.4047 0.9700
5.8573 4.2224 -2.4046 0.9700
5.8310 4.2585 -2.4046 0.9700
5.8044 4.2944 -2.4045 0.9700
5.7570 4.3705 -2.4071 0.9700
5.7022 4.4412 -2.4070 0.9700
5.6745 4.4762 -2.4069 0.9700
5.6465 4.5111 -2.4069 0.9700
5.6184 4.5458 -2.4068 0.9700
5.5615 4.6147 -2.4067 0.9700
5.5327 4.6489 -2.4066 0.9700
5.5037 4.6829 -2.4066 0.9700
5.4745 4.7168 -2.4065 0.9700
5.4451 4.7504 -2.4064 0.9700
5.4155 4.7839 -2.4064 0.9700
5.3856 4.8171 -2.4063 0.9700
5.3254 4.8831 -2.4062 0.9700
5.2334 4.9807 -2.4060 0.9700
5.1080 5.1080 -2.4057 0.9700
5.0762 5.1394 -2.4057 0.9700
5.0442 5.1705 -2.4056 0.9700
5.0120 5.2015 -2.4055 0.9700
4.9796 5.2322 -2.4055 0.9700
4.9470 5.2628 -2.4054 0.9700
4.8812 5.3233 -2.4053 0.9700
4.8481 5.3532 -2.4052 0.9700
1.7977 2.1394 -0.9306 0.9883
1.6842 2.0816 -0.8917 0.9888
1.6485 2.0634 -0.8795 0.9889
1.6137 2.0457 -0.8677 0.9891
1.5469 2.0117 -0.8451 0.9894
1.5105 2.0416 -0.8458 0.9893
1.4735 2.0441 -0.8392 0.9894
1.4520 2.0407 -0.8341 0.9895
1.4307 2.0373 -0.8291 0.9896
1.4097 2.0340 -0.8242 0.9896
1.3889 2.0307 -0.8193 0.9897
1.3279 2.0211 -0.8054 0.9899
1.2885 2.0149 -0.7965 0.9900
1.2691 2.0118 -0.7921 0.9900
1.2499 2.0088 -0.7879 0.9901
1.2308 2.0058 -0.7837 0.9901
1.1934 1.9998 -0.7756 0.9902
1.1750 1.9970 -0.7716 0.9903
1.1567 1.9941 -0.7677 0.9903
1.1208 1.9884 -0.7601 0.9904
1.0511 1.9774 -0.7458 0.9906
1.0349 1.9764 -0.7430 0.9906
1.0194 1.9764 -0.7406 0.9907
1.0040 1.9764 -0.7383 0.9907
0.9886 1.9764 -0.7360 0.9907
0.9734 1.9764 -0.7337 0.9908
0.9432 1.9765 -0.7293 0.9908
0.9283 1.9765 -0.7272 0.9908
0.9134 1.9765 -0.7251 0.9909
0.8839 1.9765 -0.7210 0.9909
0.8693 1.9765 -0.7191 0.9909
0.8547 1.9765 -0.7171 0.9910
0.8259 1.9765 -0.7134 0.9910
0.7973 1.9765 -0.7098 0.9911
0.7831 1.9765 -0.7080 0.9911
0.7271 1.9766 -0.7014 0.9912
0.6995 1.9766 -0.6983 0.9912
0.6858 1.9766 -0.6967 0.9912
0.6449 1.9766 -0.6924 0.9913
0.6314 1.9766 -0.6910 0.9913
0.6180 1.9766 -0.6897 0.9913
0.5913 1.9767 -0.6871 0.9913
0.5647 1.9766 -0.6846 0.9914
0.5384 1.9767 -0.6823 0.9914
0.5253 1.9767 -0.6811 0.9914
0.4733 1.9767 -0.6769 0.9915
0.4604 1.9767 -0.6759 0.9915
0.4475 1.9767 -0.6749 0.9915
0.4346 1.9767 -0.6740 0.9915
0.4218 1.9767 -0.6731 0.9915
0.4091 1.9767 -0.6722 0.9915
0.3964 1.9767 -0.6714 0.9915
0.3710 1.9768 -0.6698 0.9916
0.3584 1.9768 -0.6690 0.9916
0.3458 1.9768 -0.6683 0.9916
0.3332 1.9768 -0.6676 0.9916
0.3081 1.9768 -0.6663 0.9916
0.2956 1.9768 -0.6656 0.9916
0.2831 1.9768 -0.6650 0.9916
0.2706 1.9768 -0.6645 0.9916
0.2582 1.9768 -0.6639 0.9916
0.2334 1.9768 -0.6629 0.9916
0.2086 1.9768 -0.6620 0.9917
0.1716 1.9769 -0.6608 0.9917
0.1224 1.9769 -0.6596 0.9917
0.0979 1.9769 -0.6592 0.9917
0.0734 1.9769 -0.6588 0.9917
-0.0245 1.9770 -0.6584 0.9917
-0.0367 1.9770 -0.6585 0.9917
-0.0612 1.9770 -0.6587 0.9917
-0.0734 1.9770 -0.6588 0.9917
-0.0856 1.9770 -0.6590 0.9917
-0.0979 1.9770 -0.6592 0.9917
-0.1102 1.9770 -0.6594 0.9917
-0.1224 1.9770 -0.6596 0.9917
-0.1470 1.9770 -0.6602 0.9917
-0.1716 1.9770 -0.6609 0.9917
-0.1962 1.9770 -0.6616 0.9917
-0.2210 1.9771 -0.6625 0.9916
-0.2582 1.9771 -0.6640 0.9916
-0.2707 1.9771 -0.6646 0.9916
-0.2831 1.9771 -0.6651 0.9916
-0.2956 1.9771 -0.6657 0.9916
-0.3207 1.9771 -0.6670 0.9916
-0.3711 1.9771 -0.6699 0.9916
-0.3965 1.9771 -0.6715 0.9915
-0.4092 1.9771 -0.6724 0.9915
-0.4863 1.9772 -0.6781 0.9915
-0.5123 1.9772 -0.6802 0.9914
-0.5254 1.9772 -0.6813 0.9914
-0.5517 1.9772 -0.6836 0.9914
-0.5649 1.9772 -0.6848 0.9914
-0.5915 1.9772 -0.6873 0.9913
-0.6182 1.9772 -0.6899 0.9913
-0.6452 1.9773 -0.6926 0.9913
-0.6587 1.9773 -0.6941 0.9913
-0.6997 1.9773 -0.6985 0.9912
-0.7135 1.9773 -0.7001 0.9912
-0.7274 1.9773 -0.7016 0.9912
-0.7413 1.9773 -0.7033 0.9911
-0.7693 1.9773 -0.7066 0.9911
-0.7835 1.9773 -0.7083 0.9911
-0.8119 1.9773 -0.7119 0.9910
-0.8551 1.9774 -0.7175 0.9910
-0.8843 1.9774 -0.7214 0.9909
-0.9138 1.9774 -0.7254 0.9909
-0.9437 1.9774 -0.7297 0.9908
-0.9587 1.9774 -0.7319 0.9908
-0.9739 1.9775 -0.7341 0.9907
-1.0355 1.9775 -0.7434 0.9906
-1.0827 1.9775 -0.7508 0.9905
-1.1147 1.9775 -0.7560 0.9905
-1.1309 1.9775 -0.7586 0.9904
-1.1472 1.9776 -0.7614 0.9904
-1.1636 1.9775 -0.7641 0.9904
-1.1801 1.9776 -0.7669 0.9903
-1.1968 1.9776 -0.7698 0.9903
-1.2304 1.9776 -0.7757 0.9902
-1.2475 1.9776 -0.7787 0.9902
-1.4257 1.9777 -0.8119 0.9898
-1.4823 1.9777 -0.8231 0.9896
-1.5404 1.9778 -0.8348 0.9895
-1.5801 1.9778 -0.8430 0.9894
-1.6002 1.9778 -0.8472 0.9893
-1.6206 1.9778 -0.8515 0.9893
-1.6411 1.9778 -0.8559 0.9892
-1.6619 1.9778 -0.8603 0.9892
-1.7472 1.9779 -0.8789 0.9889
-1.8363 1.9779 -0.8988 0.9887
-1.8593 1.9779 -0.9040 0.9886
-1.8824 1.9780 -0.9093 0.9886
-1.9296 1.9780 -0.9202 0.9884
-1.9537 1.9780 -0.9259 0.9883
-1.9780 1.9780 -0.9316 0.9883
-2.0026 1.9780 -0.9374 0.9882
-2.0276 1.9780 -0.9433 0.9881
-2.0784 1.9780 -0.9555 0.9880
-2.1306 1.9781 -0.9682 0.9878
-2.1842 1.9781 -0.9814 0.9877
-2.2116 1.9781 -0.9881 0.9876
-2.2674 1.9782 -1.0021 0.9874
-2.3249 1.9782 -1.0166 0.9872
-2.3543 1.9782 -1.0241 0.9871
-2.3841 1.9782 -1.0317 0.9870
-2.4450 1.9783 -1.0474 0.9868
-2.4762 1.9783 -1.0555 0.9867
-2.5079 1.9783 -1.0638 0.9866
-2.5400 1.9783 -1.0722 0.9865
-2.6060 1.9783 -1.0896 0.9863
-2.6740 1.9784 -1.1077 0.9861
-2.7445 1.9784 -1.1267 0.9858
-2.8547 1.9785 -1.1567 0.9855
-2.9711 1.9786 -1.1888 0.9851
-3.0941 1.9786 -1.2231 0.9846
-3.1367 1.9786 -1.2351 0.9845
-3.2245 1.9787 -1.2599 0.9842
-3.3159 1.9787 -1.2859 0.9839
-3.3630 1.9788 -1.2994 0.9837
-3.4603 1.9788 -1.3275 0.9833
-3.5106 1.9789 -1.3420 0.9832
-3.5619 1.9789 -1.3570 0.9830
-3.6682 1.9789 -1.3880 0.9826
-3.7164 1.9754 -1.4016 0.9824
-3.7164 1.9460 -1.3971 0.9825
-3.7365 1.9272 -1.4001 0.9824
-4.1670 2.0844 -1.5516 0.9805
-4.2529 2.0296 -1.5694 0.9803
-4.3835 2.0257 -1.6082 0.9798
-4.6615 2.0847 -1.7006 0.9787
-4.7401 2.0847 -1.7245 0.9784
-4.8208 2.0848 -1.7492 0.9781
-4.8843 2.0408 -1.7629 0.9779
-5.1686 2.0849 -1.8560 0.9768
-5.2623 2.0850 -1.8850 0.9764
-5.3590 2.0851 -1.9150 0.9760
-5.3717 2.0518 -1.9150 0.9760
-5.3824 2.0179 -1.9143 0.9761
-5.3824 1.9800 -1.9099 0.9761
-5.4485 1.9282 -1.9248 0.9759
-5.8235 1.9802 -2.0484 0.9744
-5.9441 1.9802 -2.0865 0.9739
-6.3343 1.9805 -2.2102 0.9724
-6.8399 2.0922 -2.3820 0.9703
-6.8527 2.0499 -2.3820 0.9703
-6.9240 1.7942 -2.3820 0.9703
-6.9456 1.7084 -2.3820 0.9703
-6.9662 1.6224 -2.3820 0.9703
-6.9761 1.5793 -2.3820 0.9703
-7.0130 1.4062 -2.3820 0.9703
-7.0299 1.3194 -2.3820 0.9703
-7.0379 1.2759 -2.3820 0.9703
-7.0457 1.2324 -2.3820 0.9703
-7.0532 1.1888 -2.3820 0.9703
-7.0604 1.1451 -2.3820 0.9703
-7.0674 1.1014 -2.3820 0.9703
-7.0741 1.0577 -2.3820 0.9703
-7.0981 0.8824 -2.3821 0.9703
-7.1035 0.8385 -2.3821 0.9703
-7.1134 0.7506 -2.3821 0.9703
-7.1179 0.7066 -2.3821 0.9703
-7.1262 0.6185 -2.3821 0.9703
-7.1365 0.4862 -2.3821 0.9703
-7.1394 0.4421 -2.3821 0.9703
-7.1444 0.3537 -2.3822 0.9703
-7.1464 0.3096 -2.3822 0.9703
-7.1483 0.2654 -2.3822 0.9703
-7.1511 0.1769 -2.3822 0.9703
-6.9809 0.0000 -2.3825 0.9709
-6.9809 -0.0432 -2.3826 0.9709
-6.9799 -0.1295 -2.3826 0.9709
-6.9790 -0.1727 -2.3826 0.9709
-6.9747 -0.3021 -2.3827 0.9709
-6.9706 -0.3884 -2.3827 0.9709
-6.9681 -0.4315 -2.3827 0.9709
-6.9654 -0.4746 -2.3827 0.9709
-6.9590 -0.5607 -2.3828 0.9709
-6.9476 -0.6897 -2.3828 0.9709
-6.9338 -0.8185 -2.3829 0.9709
-6.9233 -0.9042 -2.3830 0.9709
-6.9177 -0.9470 -2.3830 0.9709
-6.9055 -1.0325 -2.3830 0.9709
-6.8924 -1.1179 -2.3831 0.9709
-6.8782 -1.2031 -2.3831 0.9709
-6.8629 -1.2881 -2.3832 0.9709
-6.8549 -1.3305 -2.3832 0.9709
-6.8466 -1.3729 -2.3832 0.9709
-6.8381 -1.4152 -2.3833 0.9709
-6.8293 -1.4575 -2.3833 0.9709
-6.8202 -1.4997 -2.3833 0.9709
-6.7710 -1.7100 -2.3835 0.9709
-6.7604 -1.7518 -2.3835 0.9709
-6.7495 -1.7937 -2.3835 0.9709
-6.7384 -1.8354 -2.3836 0.9709
-6.7154 -1.9186 -2.3836 0.9709
-6.6789 -2.0430 -2.3837 0.9709
-6.6533 -2.1255 -2.3838 0.9709
-6.5850 -2.3304 -2.3840 0.9709
-5.7674 -2.3265 -2.1225 0.9741
-5.6662 -2.3265 -2.0905 0.9744
-5.5682 -2.3266 -2.0596 0.9748
-5.3512 -2.2749 -1.9845 0.9757
-5.2848 -2.3634 -1.9758 0.9758
-5.0820 -2.3868 -1.9162 0.9765
-5.0961 -2.4320 -1.9272 0.9764
-5.0162 -2.4321 -1.9026 0.9767
-4.8162 -2.3720 -1.8323 0.9776
-4.7867 -2.3944 -1.8267 0.9776
-4.7157 -2.4322 -1.8109 0.9778
-4.5086 -2.4323 -1.7484 0.9786
-4.3783 -2.4324 -1.7094 0.9791
-4.3152 -2.4324 -1.6906 0.9793
-4.1554 -2.3763 -1.6337 0.9800
-4.0962 -2.3762 -1.6162 0.9802
-3.9843 -2.3776 -1.5835 0.9806
-3.9653 -2.3997 -1.5818 0.9806
-3.6188 -2.3141 -1.4660 0.9820
-3.5909 -2.3277 -1.4605 0.9821
-3.4035 -2.3278 -1.4073 0.9827
-3.3588 -2.3278 -1.3947 0.9829
-3.2717 -2.3279 -1.3704 0.9832
-3.2293 -2.3279 -1.3586 0.9833
-3.1875 -2.3279 -1.3471 0.9835
-3.0665 -2.3280 -1.3140 0.9839
-3.0275 -2.3280 -1.3034 0.9840
-2.9891 -2.3280 -1.2931 0.9841
-2.9513 -2.3281 -1.2829 0.9842
-2.9141 -2.3281 -1.2730 0.9844
-2.8774 -2.3281 -1.2632 0.9845
-2.8413 -2.3281 -1.2537 0.9846
-2.8058 -2.3282 -1.2443 0.9847
-2.7707 -2.3282 -1.2352 0.9848
-2.7022 -2.3282 -1.2174 0.9850
-2.6357 -2.3282 -1.2002 0.9852
-2.6030 -2.3283 -1.1919 0.9853
-2.5709 -2.3283 -1.1838 0.9854
-2.5079 -2.3283 -1.1679 0.9856
-2.4465 -2.3284 -1.1527 0.9858
-2.3574 -2.3284 -1.1309 0.9861
-2.1618 -2.3285 -1.0844 0.9867
-2.1352 -2.3285 -1.0782 0.9867
-2.0063 -2.3286 -1.0490 0.9871
-1.9567 -2.3286 -1.0381 0.9872
-1.9323 -2.3287 -1.0327 0.9873
-1.9081 -2.3287 -1.0275 0.9874
-1.8604 -2.3287 -1.0173 0.9875
-1.8137 -2.3287 -1.0074 0.9876
-1.7454 -2.3287 -0.9932 0.9878
-1.7008 -2.3288 -0.9842 0.9879
-1.6788 -2.3288 -0.9798 0.9879
-1.6140 -2.3288 -0.9670 0.9881
-1.5509 -2.3289 -0.9549 0.9882
-1.4893 -2.3289 -0.9435 0.9884
-1.4691 -2.3289 -0.9398 0.9884
-1.4292 -2.3289 -0.9326 0.9885
-1.3898 -2.3289 -0.9256 0.9886
-1.3511 -2.3290 -0.9189 0.9887
-1.3319 -2.3290 -0.9157 0.9887
-1.2939 -2.3290 -0.9093 0.9888
-1.2752 -2.3290 -0.9062 0.9888
-1.2196 -2.3290 -0.8973 0.9889
-1.1831 -2.3291 -0.8916 0.9890
-1.1471 -2.3291 -0.8861 0.9891
-1.1293 -2.3291 -0.8834 0.9891
-1.0589 -2.3291 -0.8732 0.9892
-1.0416 -2.3291 -0.8708 0.9893
-1.0244 -2.3291 -0.8684 0.9893
-1.0073 -2.3292 -0.8661 0.9893
-0.9396 -2.3292 -0.8572 0.9894
-0.8897 -2.3292 -0.8510 0.9895
-0.8569 -2.3292 -0.8470 0.9896
-0.7510 -2.2543 -0.8110 0.9900
-0.7197 -2.2530 -0.8072 0.9901
-0.7059 -2.2577 -0.8073 0.9901
-0.6906 -2.3088 -0.8225 0.9899
-0.6811 -2.3293 -0.8283 0.9898
-0.6655 -2.3293 -0.8268 0.9898
-0.6037 -2.3294 -0.8213 0.9899
-0.5730 -2.3294 -0.8187 0.9899
-0.5577 -2.3294 -0.8175 0.9899
-0.5425 -2.3294 -0.8163 0.9899
-0.5122 -2.3294 -0.8140 0.9900
-0.4521 -2.3295 -0.8099 0.9900
-0.4372 -2.3295 -0.8089 0.9900
-0.4223 -2.3295 -0.8080 0.9900
-0.4075 -2.3295 -0.8071 0.9901
-0.3779 -2.3295 -0.8054 0.9901
-0.3631 -2.3295 -0.8046 0.9901
-0.3189 -2.3295 -0.8025 0.9901
-0.3043 -2.3295 -0.8018 0.9901
-0.2896 -2.3295 -0.8012 0.9901
-0.2750 -2.3296 -0.8006 0.9901
-0.2458 -2.3296 -0.7995 0.9901
-0.2312 -2.3296 -0.7990 0.9902
-0.2022 -2.3296 -0.7981 0.9902
-0.1877 -2.3296 -0.7977 0.9902
-0.1732 -2.3296 -0.7973 0.9902
-0.1009 -2.3296 -0.7958 0.9902
-0.0865 -2.3297 -0.7956 0.9902
-0.0576 -2.3296 -0.7953 0.9902
-0.0432 -2.3297 -0.7952 0.9902
-0.0288 -2.3297 -0.7952 0.9902
0.0000 -2.3297 -0.7951 0.9902
0.0432 -2.3297 -0.7953 0.9902
0.0865 -2.3298 -0.7957 0.9902
0.1009 -2.3298 -0.7959 0.9902
0.1298 -2.3298 -0.7964 0.9902
0.1587 -2.3298 -0.7970 0.9902
0.2458 -2.3298 -0.7996 0.9901
0.2896 -2.3298 -0.8013 0.9901
0.3043 -2.3298 -0.8019 0.9901
0.3189 -2.3299 -0.8026 0.9901
0.3927 -2.3299 -0.8064 0.9901
0.4075 -2.3299 -0.8073 0.9901
0.4373 -2.3299 -0.8091 0.9900
0.4522 -2.3299 -0.8100 0.9900
0.4822 -2.3300 -0.8120 0.9900
0.4972 -2.3300 -0.8131 0.9900
0.5123 -2.3300 -0.8142 0.9900
0.5275 -2.3300 -0.8153 0.9900
0.5579 -2.3300 -0.8177 0.9899
0.5731 -2.3300 -0.8189 0.9899
0.7127 -2.3301 -0.8316 0.9898
0.7285 -2.3301 -0.8332 0.9897
0.7444 -2.3301 -0.8348 0.9897
0.7603 -2.3301 -0.8365 0.9897
0.8246 -2.3301 -0.8436 0.9896
0.8736 -2.3301 -0.8493 0.9895
0.9232 -2.3302 -0.8554 0.9895
0.9400 -2.3302 -0.8575 0.9894
1.0248 -2.3302 -0.8688 0.9893
1.0594 -2.3303 -0.8736 0.9892
1.0944 -2.3303 -0.8786 0.9892
1.1481 -2.3312 -0.8869 0.9891
1.1676 -2.3343 -0.8908 0.9890
1.2072 -2.3406 -0.8988 0.9889
1.2272 -2.3438 -0.9029 0.9889
1.2475 -2.3470 -0.9071 0.9888
1.2679 -2.3502 -0.9114 0.9888
1.2886 -2.3535 -0.9157 0.9887
1.3094 -2.3568 -0.9202 0.9887
1.3304 -2.3602 -0.9247 0.9886
1.3516 -2.3635 -0.9292 0.9886
1.3947 -2.3704 -0.9386 0.9884
1.4611 -2.3809 -0.9534 0.9883
1.5064 -2.3881 -0.9637 0.9881
1.5295 -2.3918 -0.9689 0.9881
1.5764 -2.3992 -0.9798 0.9879
1.6003 -2.4030 -0.9854 0.9879
1.6318 -2.4178 -0.9955 0.9877
1.6654 -2.4349 -1.0068 0.9876
1.6997 -2.4525 -1.0184 0.9875
1.7708 -2.4888 -1.0425 0.9872
1.9644 -2.5876 -1.1088 0.9864
2.2165 -2.7395 -1.2027 0.9852
4.4991 -5.4221 -2.4046 0.9707
4.5327 -5.3943 -2.4047 0.9707
4.6653 -5.2812 -2.4050 0.9707
4.7305 -5.2234 -2.4051 0.9707
4.7629 -5.1942 -2.4052 0.9707
4.8270 -5.1351 -2.4053 0.9707
4.8588 -5.1053 -2.4054 0.9707
4.9841 -4.9841 -2.4056 0.9706
5.0457 -4.9223 -2.4058 0.9706
5.1064 -4.8598 -2.4059 0.9706
5.1365 -4.8283 -2.4060 0.9706
5.1961 -4.7646 -2.4061 0.9706
5.2256 -4.7325 -2.4061 0.9706
5.2840 -4.6678 -2.4063 0.9706
5.3984 -4.5361 -2.4065 0.9706
5.4543 -4.4692 -2.4066 0.9706
5.4820 -4.4355 -2.4067 0.9706
5.5367 -4.3675 -2.4068 0.9706
5.5637 -4.3333 -2.4068 0.9706
5.6171 -4.2644 -2.4070 0.9706
5.6435 -4.2296 -2.4070 0.9706
5.6697 -4.1947 -2.4071 0.9706
5.6957 -4.1597 -2.4071 0.9706
5.7214 -4.1245 -2.4072 0.9706
5.7469 -4.0891 -2.4072 0.9706
5.8468 -3.9461 -2.4074 0.9706
5.8954 -3.8736 -2.4075 0.9706
5.9194 -3.8372 -2.4076 0.9706
5.9666 -3.7638 -2.4077 0.9706
5.9860 -3.7245 -2.4061 0.9706
6.0090 -3.6875 -2.4062 0.9706
6.0318 -3.6503 -2.4062 0.9706
6.0766 -3.5755 -2.4063 0.9706
6.1206 -3.5002 -2.4064 0.9706
6.1636 -3.4243 -2.4064 0.9706
6.1848 -3.3862 -2.4065 0.9706
6.2263 -3.3095 -2.4065 0.9706
6.2467 -3.2710 -2.4066 0.9706
6.2670 -3.2323 -2.4066 0.9706
6.2869 -3.1935 -2.4066 0.9706
6.3261 -3.1156 -2.4067 0.9706
6.3830 -2.9978 -2.4068 0.9706
6.4197 -2.9188 -2.4068 0.9706
6.4555 -2.8392 -2.4069 0.9706
6.4902 -2.7592 -2.4069 0.9706
6.5240 -2.6787 -2.4070 0.9706
6.5405 -2.6384 -2.4070 0.9706
6.5728 -2.5573 -2.4071 0.9706
6.5885 -2.5167 -2.4071 0.9706
6.6040 -2.4759 -2.4071 0.9706
6.6193 -2.4350 -2.4071 0.9706
6.6343 -2.3941 -2.4071 0.9706
6.7054 -2.1879 -2.4072 0.9706
6.7320 -2.1048 -2.4073 0.9706
6.7450 -2.0632 -2.4073 0.9706
6.7700 -1.9796 -2.4073 0.9706
6.7822 -1.9377 -2.4073 0.9706
6.8058 -1.8537 -2.4074 0.9706
6.8391 -1.7272 -2.4074 0.9706
6.8701 -1.6000 -2.4075 0.9706
6.9077 -1.4296 -2.4075 0.9706
6.9249 -1.3441 -2.4075 0.9706
6.9331 -1.3012 -2.4075 0.9706
6.9410 -1.2583 -2.4075 0.9706
6.9561 -1.1724 -2.4075 0.9706
6.9632 -1.1294 -2.4076 0.9706
6.9701 -1.0863 -2.4076 0.9706
6.9767 -1.0432 -2.4076 0.9706
6.9891 -0.9568 -2.4076 0.9706
6.9949 -0.9136 -2.4076 0.9706
7.0004 -0.8703 -2.4076 0.9706
7.0107 -0.7837 -2.4076 0.9706
7.0240 -0.6535 -2.4076 0.9706
7.0279 -0.6100 -2.4076 0.9706
7.0349 -0.5230 -2.4076 0.9706
7.0380 -0.4795 -2.4076 0.9706
7.0408 -0.4360 -2.4076 0.9706
7.0434 -0.3924 -2.4076 0.9706
7.0457 -0.3489 -2.4076 0.9706
7.0477 -0.3053 -2.4076 0.9706
7.0530 -0.1309 -2.4076 0.9706
7.0537 -0.0873 -2.4076 0.9706
7.0536 0.0872 -2.4075 0.9706
7.0520 0.1745 -2.4075 0.9706
7.0507 0.2181 -2.4075 0.9706
7.0430 0.3924 -2.4075 0.9706
7.0375 0.4795 -2.4074 0.9706
7.0310 0.5664 -2.4074 0.9706
7.0192 0.6968 -2.4074 0.9706
7.0147 0.7402 -2.4073 0.9706
7.0099 0.7835 -2.4073 0.9706
7.0049 0.8269 -2.4073 0.9706
6.9757 1.0430 -2.4072 0.9706
6.9691 1.0861 -2.4072 0.9706
6.9550 1.1722 -2.4072 0.9706
6.9476 1.2152 -2.4071 0.9706
6.9398 1.2581 -2.4071 0.9706
6.9319 1.3010 -2.4071 0.9706
6.9236 1.3438 -2.4071 0.9706
6.9064 1.4293 -2.4070 0.9706
6.8880 1.5146 -2.4070 0.9706
6.8785 1.5572 -2.4070 0.9706
6.8585 1.6421 -2.4069 0.9706
6.8375 1.7267 -2.4069 0.9706
6.8267 1.7690 -2.4068 0.9706
6.8155 1.8111 -2.4068 0.9706
6.8041 1.8532 -2.4068 0.9706
6.7924 1.8953 -2.4068 0.9706
6.7805 1.9372 -2.4067 0.9706
6.7683 1.9790 -2.4067 0.9706
6.7558 2.0209 -2.4067 0.9706
6.7431 2.0626 -2.4066 0.9706
6.7169 2.1458 -2.4066 0.9706
6.7034 2.1872 -2.4065 0.9706
6.6897 2.2286 -2.4065 0.9706
6.6614 2.3111 -2.4064 0.9706
6.6469 2.3522 -2.4064 0.9706
6.6321 2.3933 -2.4064 0.9706
6.6172 2.4342 -2.4063 0.9706
6.6019 2.4750 -2.4063 0.9706
6.5705 2.5564 -2.4062 0.9706
6.5217 2.6778 -2.4061 0.9706
6.4879 2.7581 -2.4060 0.9706
6.4706 2.7981 -2.4060 0.9706
6.4530 2.8381 -2.4060 0.9706
6.4352 2.8779 -2.4059 0.9706
6.3990 2.9571 -2.4058 0.9706
6.2842 3.1921 -2.4056 0.9706
6.2440 3.2695 -2.4055 0.9706
6.2028 3.3463 -2.4054 0.9707
6.1819 3.3846 -2.4054 0.9707
6.1608 3.4227 -2.4053 0.9707
6.1177 3.4985 -2.4052 0.9707
6.0738 3.5738 -2.4051 0.9707
5.9830 3.7226 -2.4050 0.9707
5.9598 3.7595 -2.4049 0.9707
5.9363 3.7962 -2.4049 0.9707
5.8645 3.9054 -2.4047 0.9707
5.8154 3.9775 -2.4046 0.9707
5.7970 4.0177 -2.4072 0.9706
5.7719 4.0534 -2.4071 0.9706
5.6954 4.1595 -2.4070 0.9706
5.6694 4.1945 -2.4069 0.9706
5.6432 4.2294 -2.4069 0.9706
5.5902 4.2987 -2.4068 0.9706
5.5363 4.3672 -2.4066 0.9706
5.4540 4.4689 -2.4065 0.9706
5.4261 4.5024 -2.4064 0.9706
5.2836 4.6674 -2.4061 0.9706
5.1660 4.7962 -2.4059 0.9706
5.1362 4.8279 -2.4058 0.9706
5.1061 4.8595 -2.4057 0.9706
5.0758 4.8908 -2.4057 0.9706
5.0146 4.9530 -2.4055 0.9706
4.8900 5.0749 -2.4053 0.9707
4.8584 5.1049 -2.4052 0.9707
4.8267 5.1347 -2.4051 0.9707
4.7625 5.1937 -2.4050 0.9707
4.6977 5.2520 -2.4049 0.9707
4.6649 5.2808 -2.4048 0.9707
4.6321 5.3094 -2.4047 0.9707
1.7977 2.1394 -0.9537 0.9883
1.7210 2.1004 -0.9268 0.9886
1.6137 2.0458 -0.8893 0.9890
1.5799 2.0285 -0.8775 0.9892
1.5470 2.0117 -0.8661 0.9893
1.4520 2.0407 -0.8548 0.9895
1.4307 2.0373 -0.8497 0.9895
1.3889 2.0307 -0.8397 0.9897
1.3480 2.0243 -0.8300 0.9898
1.3279 2.0211 -0.8254 0.9898
1.2308 2.0058 -0.8032 0.9901
1.1750 1.9970 -0.7908 0.9903
1.1568 1.9941 -0.7868 0.9903
1.1032 1.9856 -0.7752 0.9904
1.0856 1.9828 -0.7715 0.9905
1.0682 1.9801 -0.7679 0.9905
1.0511 1.9774 -0.7643 0.9906
1.0194 1.9764 -0.7590 0.9906
1.0039 1.9764 -0.7566 0.9907
0.9886 1.9764 -0.7542 0.9907
0.9734 1.9764 -0.7519 0.9907
0.9583 1.9765 -0.7497 0.9908
0.9282 1.9765 -0.7452 0.9908
0.8547 1.9765 -0.7349 0.9909
0.8115 1.9765 -0.7292 0.9910
0.7550 1.9766 -0.7221 0.9911
0.7410 1.9766 -0.7204 0.9911
0.7271 1.9766 -0.7188 0.9911
0.7133 1.9766 -0.7172 0.9912
0.6858 1.9766 -0.7140 0.9912
0.6721 1.9766 -0.7125 0.9912
0.6585 1.9766 -0.7111 0.9912
0.5913 1.9766 -0.7041 0.9913
0.5515 1.9767 -0.7004 0.9914
0.5384 1.9767 -0.6992 0.9914
0.5253 1.9767 -0.6980 0.9914
0.4992 1.9767 -0.6958 0.9914
0.4475 1.9767 -0.6917 0.9915
0.4219 1.9767 -0.6898 0.9915
0.4091 1.9767 -0.6889 0.9915
0.3964 1.9767 -0.6881 0.9915
0.3837 1.9767 -0.6872 0.9915
0.3710 1.9767 -0.6864 0.9915
0.3584 1.9767 -0.6856 0.9915
0.3332 1.9768 -0.6842 0.9916
0.3206 1.9768 -0.6835 0.9916
0.2831 1.9768 -0.6815 0.9916
0.2333 1.9768 -0.6794 0.9916
0.2086 1.9768 -0.6784 0.9916
0.1962 1.9768 -0.6780 0.9916
0.0856 1.9769 -0.6753 0.9917
0.0734 1.9769 -0.6752 0.9917
-0.0122 1.9769 -0.6747 0.9917
-0.0245 1.9769 -0.6748 0.9917
-0.0489 1.9770 -0.6749 0.9917
-0.0734 1.9770 -0.6752 0.9917
-0.0979 1.9770 -0.6756 0.9917
-0.1102 1.9770 -0.6758 0.9917
-0.1224 1.9770 -0.6760 0.9917
-0.1347 1.9770 -0.6763 0.9917
-0.1470 1.9770 -0.6766 0.9917
-0.1839 1.9770 -0.6777 0.9916
-0.1963 1.9770 -0.6781 0.9916
-0.2086 1.9771 -0.6785 0.9916
-0.2210 1.9771 -0.6790 0.9916
-0.2334 1.9771 -0.6794 0.9916
-0.2707 1.9771 -0.6811 0.9916
-0.3207 1.9771 -0.6836 0.9916
-0.3332 1.9771 -0.6843 0.9916
-0.3458 1.9771 -0.6850 0.9916
-0.3711 1.9771 -0.6866 0.9915
-0.3965 1.9771 -0.6882 0.9915
-0.4092 1.9771 -0.6891 0.9915
-0.4476 1.9772 -0.6919 0.9915
-0.4605 1.9772 -0.6929 0.9915
-0.4863 1.9772 -0.6949 0.9914
-0.5124 1.9772 -0.6971 0.9914
-0.5254 1.9772 -0.6982 0.9914
-0.5386 1.9772 -0.6994 0.9914
-0.5782 1.9772 -0.7031 0.9913
-0.6182 1.9772 -0.7070 0.9913
-0.6723 1.9773 -0.7128 0.9912
-0.7553 1.9773 -0.7224 0.9911
-0.8119 1.9774 -0.7295 0.9910
-0.8262 1.9774 -0.7314 0.9910
-0.8406 1.9774 -0.7333 0.9910
-0.8551 1.9774 -0.7353 0.9909
-0.8697 1.9774 -0.7373 0.9909
-0.8843 1.9774 -0.7393 0.9909
-0.8990 1.9774 -0.7414 0.9909
-0.9587 1.9775 -0.7500 0.9908
-0.9739 1.9775 -0.7523 0.9907
-0.9892 1.9775 -0.7546 0.9907
-1.0045 1.9775 -0.7570 0.9907
-1.0200 1.9775 -0.7594 0.9906
-1.0511 1.9775 -0.7643 0.9906
-1.0669 1.9775 -0.7669 0.9905
-1.0827 1.9775 -0.7694 0.9905
-1.0987 1.9775 -0.7721 0.9905
-1.1147 1.9775 -0.7748 0.9905
-1.1309 1.9775 -0.7775 0.9904
-1.1472 1.9775 -0.7803 0.9904
-1.1968 1.9776 -0.7889 0.9903
-1.2136 1.9776 -0.7919 0.9902
-1.2304 1.9776 -0.7949 0.9902
-1.2820 1.9776 -0.8044 0.9901
-1.3170 1.9776 -0.8109 0.9900
-1.3347 1.9777 -0.8143 0.9900
-1.3526 1.9777 -0.8177 0.9899
-1.3707 1.9777 -0.8212 0.9899
-1.4072 1.9777 -0.8284 0.9898
-1.4632 1.9777 -0.8396 0.9897
-1.4822 1.9777 -0.8435 0.9896
-1.5014 1.9777 -0.8475 0.9896
-1.5208 1.9778 -0.8515 0.9895
-1.5602 1.9778 -0.8597 0.9894
-1.5801 1.9778 -0.8640 0.9894
-1.6003 1.9778 -0.8683 0.9893
-1.6206 1.9778 -0.8727 0.9893
-1.7041 1.9779 -0.8910 0.9890
-1.7255 1.9779 -0.8958 0.9890
-1.7472 1.9779 -0.9007 0.9889
-1.7913 1.9779 -0.9107 0.9888
-1.8137 1.9779 -0.9159 0.9887
-1.8363 1.9779 -0.9211 0.9887
-1.8593 1.9779 -0.9265 0.9886
-1.9059 1.9779 -0.9375 0.9885
-1.9296 1.9780 -0.9431 0.9884
-1.9780 1.9780 -0.9547 0.9882
-2.0276 1.9780 -0.9668 0.9881
-2.0529 1.9780 -0.9729 0.9880
-2.0785 1.9780 -0.9793 0.9879
-2.1306 1.9781 -0.9922 0.9878
-2.1572 1.9781 -0.9989 0.9877
-2.2116 1.9781 -1.0127 0.9875
-2.2675 1.9782 -1.0270 0.9874
-2.4143 1.9783 -1.0653 0.9869
-2.4762 1.9783 -1.0817 0.9867
-2.5079 1.9783 -1.0902 0.9866
-2.5400 1.9783 -1.0988 0.9865
-2.6059 1.9783 -1.1167 0.9863
-2.6740 1.9784 -1.1353 0.9860
-2.7089 1.9784 -1.1449 0.9859
-2.7445 1.9784 -1.1547 0.9858
-2.7806 1.9785 -1.1647 0.9857
-2.8547 1.9785 -1.1854 0.9854
-2.9316 1.9785 -1.2071 0.9852
-2.9711 1.9786 -1.2183 0.9850
-3.0523 1.9786 -1.2415 0.9847
-3.1802 1.9787 -1.2783 0.9843
-3.2245 1.9787 -1.2912 0.9841
-3.2697 1.9787 -1.3044 0.9840
-3.3159 1.9787 -1.3179 0.9838
-3.3630 1.9788 -1.3317 0.9836
-3.4111 1.9788 -1.3459 0.9835
-3.4603 1.9788 -1.3605 0.9833
-3.6145 1.9789 -1.4064 0.9827
-3.7365 1.9272 -1.4349 0.9824
-4.1425 2.0721 -1.5808 0.9806
-4.1552 2.0464 -1.5808 0.9806
-4.1831 2.0281 -1.5866 0.9805
-4.2482 2.0274 -1.6065 0.9803
-4.5108 2.0846 -1.6960 0.9792
-4.6616 2.0847 -1.7428 0.9786
-4.7401 2.0847 -1.7673 0.9784
-4.9040 2.0848 -1.8187 0.9777
-4.8844 2.0409 -1.8067 0.9779
-5.2298 2.0348 -1.9152 0.9766
-5.3722 2.0140 -1.9581 0.9760
-5.3825 1.9800 -1.9574 0.9761
-5.4485 1.9282 -1.9725 0.9759
-5.9441 1.9802 -2.1383 0.9739
-6.0692 1.9803 -2.1789 0.9734
-6.3343 1.9805 -2.2651 0.9723
-6.6750 2.0417 -2.3823 0.9709
-6.6875 2.0004 -2.3823 0.9709
-6.7117 1.9176 -2.3823 0.9709
-6.7234 1.8760 -2.3823 0.9709
-6.7570 1.7510 -2.3823 0.9709
-6.7677 1.7091 -2.3823 0.9709
-6.7982 1.5833 -2.3823 0.9709
-6.8079 1.5412 -2.3823 0.9709
-6.8173 1.4991 -2.3823 0.9709
-6.8264 1.4569 -2.3823 0.9709
-6.8353 1.4146 -2.3823 0.9709
-6.8758 1.2027 -2.3823 0.9709
-6.8831 1.1601 -2.3823 0.9709
-6.9158 0.9467 -2.3823 0.9709
-6.9215 0.9040 -2.3823 0.9709
