ply
format ascii 1.0
element vertex 1591
property float32 x
property float32 y
property float32 z
property float32 I
end_header
8.9993 -5.9130 -2.5483 0.9567
9.0717 -5.8012 -2.5483 0.9567
9.1074 -5.7451 -2.5483 0.9567
9.2466 -5.5180 -2.5483 0.9567
9.2806 -5.4607 -2.5483 0.9567
9.3142 -5.4032 -2.5483 0.9567
9.3474 -5.3454 -2.5483 0.9567
9.3802 -5.2876 -2.5483 0.9567
9.4128 -5.2294 -2.5482 0.9567
9.4449 -5.1711 -2.5482 0.9567
9.5392 -4.9950 -2.5482 0.9567
9.6002 -4.8766 -2.5482 0.9567
9.6302 -4.8171 -2.5482 0.9567
9.6597 -4.7575 -2.5482 0.9567
9.7463 -4.5774 -2.5482 0.9567
9.7744 -4.5171 -2.5482 0.9567
9.8295 -4.3958 -2.5482 0.9567
9.8565 -4.3349 -2.5482 0.9567
9.9351 -4.1513 -2.5482 0.9567
9.9857 -4.0281 -2.5482 0.9567
10.0587 -3.8421 -2.5482 0.9567
10.0822 -3.7799 -2.5481 0.9567
10.1281 -3.6549 -2.5481 0.9567
10.1941 -3.4663 -2.5481 0.9567
10.2362 -3.3399 -2.5481 0.9567
10.2566 -3.2766 -2.5481 0.9567
10.2767 -3.2131 -2.5481 0.9567
10.2963 -3.1495 -2.5481 0.9567
10.3155 -3.0857 -2.5481 0.9567
10.3886 -2.8296 -2.5481 0.9567
10.4228 -2.7009 -2.5481 0.9567
10.4553 -2.5718 -2.5480 0.9567
10.4710 -2.5071 -2.5480 0.9567
10.5156 -2.3123 -2.5480 0.9567
10.5566 -2.1169 -2.5480 0.9567
10.5695 -2.0515 -2.5480 0.9567
10.5820 -1.9861 -2.5480 0.9567
10.6169 -1.7895 -2.5480 0.9567
10.6382 -1.6580 -2.5480 0.9567
10.6482 -1.5921 -2.5479 0.9567
10.6578 -1.5263 -2.5479 0.9567
10.6670 -1.4603 -2.5479 0.9567
10.6758 -1.3943 -2.5479 0.9567
10.6998 -1.1960 -2.5479 0.9567
10.7069 -1.1298 -2.5479 0.9567
10.7200 -0.9973 -2.5479 0.9567
10.7366 -0.7983 -2.5479 0.9567
10.7494 -0.5989 -2.5478 0.9567
10.7560 -0.4659 -2.5478 0.9567
10.7586 -0.3994 -2.5478 0.9567
10.7609 -0.3329 -2.5478 0.9567
10.7640 -0.1997 -2.5478 0.9567
10.7651 -0.1332 -2.5478 0.9567
10.7656 -0.0666 -2.5478 0.9567
10.7649 0.1331 -2.5478 0.9567
10.7638 0.1997 -2.5477 0.9567
10.7624 0.2662 -2.5477 0.9567
10.7605 0.3328 -2.5477 0.9567
10.7582 0.3993 -2.5477 0.9567
10.7489 0.5989 -2.5477 0.9567
10.7449 0.6653 -2.5477 0.9567
10.7405 0.7317 -2.5477 0.9567
10.7358 0.7982 -2.5477 0.9567
10.7306 0.8645 -2.5477 0.9567
10.7190 0.9972 -2.5476 0.9567
10.6986 1.1959 -2.5476 0.9567
10.6829 1.3281 -2.5476 0.9567
10.6744 1.3941 -2.5476 0.9567
10.6563 1.5260 -2.5476 0.9567
10.6466 1.5919 -2.5476 0.9567
10.6260 1.7234 -2.5475 0.9567
10.6038 1.8547 -2.5475 0.9567
10.5921 1.9203 -2.5475 0.9567
10.5545 2.1164 -2.5475 0.9567
10.5134 2.3118 -2.5475 0.9567
10.4032 2.7646 -2.5474 0.9567
10.3859 2.8288 -2.5474 0.9567
10.3681 2.8930 -2.5474 0.9567
10.2735 3.2121 -2.5473 0.9567
10.2330 3.3389 -2.5473 0.9567
10.1692 3.5281 -2.5473 0.9567
10.1247 3.6536 -2.5473 0.9567
10.1018 3.7161 -2.5473 0.9567
10.0550 3.8407 -2.5472 0.9567
10.0066 3.9648 -2.5472 0.9567
9.9819 4.0266 -2.5472 0.9567
9.9568 4.0882 -2.5472 0.9567
9.8791 4.2721 -2.5472 0.9567
9.8254 4.3940 -2.5471 0.9567
9.7981 4.4546 -2.5471 0.9567
9.7703 4.5151 -2.5471 0.9567
9.7421 4.5754 -2.5471 0.9567
9.6847 4.6956 -2.5471 0.9567
9.6554 4.7554 -2.5471 0.9567
9.6258 4.8149 -2.5471 0.9567
9.5655 4.9336 -2.5471 0.9567
9.5347 4.9926 -2.5470 0.9567
9.5036 5.0515 -2.5470 0.9567
9.4403 5.1686 -2.5470 0.9567
9.3756 5.2849 -2.5470 0.9567
9.3095 5.4004 -2.5470 0.9567
9.2758 5.4579 -2.5470 0.9567
7.5208 4.6152 -2.0882 0.9644
7.4238 4.6191 -2.0692 0.9647
7.2247 4.6201 -2.0295 0.9654
7.1303 4.6221 -2.0109 0.9657
7.0435 4.6279 -1.9945 0.9660
6.9522 4.6298 -1.9767 0.9662
6.8634 4.6321 -1.9596 0.9665
6.5514 4.6615 -1.9028 0.9675
6.4860 4.7369 -1.9007 0.9675
6.4565 4.7769 -1.9007 0.9675
6.4191 4.8731 -1.9073 0.9674
6.3871 4.9746 -1.9159 0.9673
6.3399 5.1296 -1.9300 0.9670
6.3361 5.1917 -1.9385 0.9669
6.3504 5.3361 -1.9630 0.9665
6.3323 5.3880 -1.9676 0.9664
6.3398 5.6005 -2.0019 0.9658
6.3373 5.9570 -2.0583 0.9649
6.3361 6.0301 -2.0700 0.9647
6.3350 6.2571 -2.1072 0.9641
6.3330 6.3330 -2.1195 0.9639
6.3242 6.4029 -2.1298 0.9637
6.3130 6.4711 -2.1394 0.9635
6.3096 6.5482 -2.1520 0.9633
6.3107 6.6310 -2.1663 0.9631
6.3119 6.7149 -2.1809 0.9628
6.3128 6.7996 -2.1957 0.9626
6.3139 6.8857 -2.2109 0.9623
6.3147 6.9726 -2.2262 0.9621
6.3153 7.0606 -2.2418 0.9618
6.3174 7.3322 -2.2904 0.9610
6.4945 7.7290 -2.3891 0.9594
6.3036 7.7909 -2.3717 0.9596
6.3421 7.9384 -2.4046 0.9591
6.3413 8.0388 -2.4231 0.9588
6.3110 8.1029 -2.4306 0.9587
6.2919 8.7280 -2.5463 0.9567
6.2378 8.7667 -2.5463 0.9567
5.8134 8.2782 -2.3939 0.9593
5.7621 8.3139 -2.3939 0.9593
5.6588 8.3845 -2.3938 0.9593
5.6068 8.4193 -2.3938 0.9593
5.5546 8.4538 -2.3938 0.9593
5.5022 8.4879 -2.3938 0.9593
5.2371 8.6538 -2.3938 0.9593
5.1834 8.6860 -2.3938 0.9593
5.0213 8.7805 -2.3937 0.9593
4.9669 8.8114 -2.3937 0.9593
4.9123 8.8419 -2.3937 0.9593
4.7473 8.9314 -2.3937 0.9593
4.6365 8.9894 -2.3937 0.9593
4.5808 9.0179 -2.3937 0.9593
4.5249 9.0460 -2.3936 0.9593
4.4688 9.0737 -2.3936 0.9593
4.3563 9.1283 -2.3936 0.9593
4.2430 9.1814 -2.3936 0.9593
4.0146 9.2834 -2.3936 0.9593
3.8994 9.3323 -2.3936 0.9593
3.4967 9.5053 -2.3968 0.9592
3.4378 9.5267 -2.3968 0.9592
3.3197 9.5683 -2.3968 0.9592
3.2010 9.6085 -2.3967 0.9592
2.8422 9.7202 -2.3966 0.9592
2.7820 9.7374 -2.3966 0.9592
2.6613 9.7710 -2.3966 0.9592
2.6008 9.7871 -2.3966 0.9592
2.5402 9.8030 -2.3965 0.9592
2.4796 9.8184 -2.3965 0.9592
2.4188 9.8335 -2.3965 0.9592
2.2970 9.8625 -2.3965 0.9592
1.5760 7.1671 -1.7366 0.9703
1.5296 7.1672 -1.7343 0.9703
1.4372 7.1673 -1.7299 0.9704
1.3912 7.1674 -1.7278 0.9704
0.9820 5.6142 -1.3488 0.9768
0.4495 3.0061 -0.7193 0.9876
0.4259 2.9741 -0.7110 0.9877
0.4003 2.9238 -0.6984 0.9879
0.3755 2.8753 -0.6862 0.9882
0.3516 2.8284 -0.6745 0.9884
0.3285 2.7831 -0.6632 0.9885
0.2846 2.6969 -0.6418 0.9889
0.2174 2.5044 -0.5949 0.9897
0.2004 2.4875 -0.5906 0.9898
0.1672 2.4543 -0.5822 0.9899
0.1191 2.4062 -0.5701 0.9901
0.1036 2.3907 -0.5663 0.9902
0.0730 2.3601 -0.5588 0.9903
0.0580 2.3452 -0.5552 0.9904
0.0142 2.3014 -0.5446 0.9906
-0.0141 2.2731 -0.5380 0.9907
-0.0417 2.2455 -0.5315 0.9908
-0.0552 2.2320 -0.5284 0.9909
-0.0821 2.2114 -0.5237 0.9909
-0.1221 2.1911 -0.5193 0.9910
-0.1484 2.1777 -0.5165 0.9911
-0.1614 2.1710 -0.5152 0.9911
-0.2129 2.1448 -0.5101 0.9912
-0.2256 2.1383 -0.5088 0.9912
-0.2509 2.1254 -0.5065 0.9912
-0.2634 2.1191 -0.5053 0.9913
-0.2759 2.1127 -0.5042 0.9913
-0.2884 2.1064 -0.5031 0.9913
-0.3055 2.0433 -0.4889 0.9915
-0.3175 2.0372 -0.4879 0.9916
-0.3413 2.0251 -0.4860 0.9916
-0.3531 2.0190 -0.4851 0.9916
-0.3649 2.0130 -0.4842 0.9916
-0.3884 2.0011 -0.4824 0.9917
-0.4348 1.9774 -0.4792 0.9917
-0.4578 1.9657 -0.4776 0.9917
-0.4693 1.9599 -0.4769 0.9918
-0.5050 1.9487 -0.4764 0.9918
-0.5297 1.9449 -0.4770 0.9917
-0.5546 1.9410 -0.4777 0.9917
-0.5795 1.9371 -0.4785 0.9917
-0.6045 1.9332 -0.4794 0.9917
-0.6295 1.9293 -0.4803 0.9917
-0.6421 1.9274 -0.4808 0.9917
-0.6547 1.9254 -0.4813 0.9917
-0.6673 1.9235 -0.4818 0.9917
-0.6800 1.9215 -0.4824 0.9917
-0.7054 1.9175 -0.4835 0.9916
-0.7182 1.9155 -0.4841 0.9916
-0.7438 1.9116 -0.4854 0.9916
-0.7566 1.9096 -0.4861 0.9916
-0.7695 1.9076 -0.4868 0.9916
-0.7824 1.9056 -0.4875 0.9916
-0.7954 1.9036 -0.4882 0.9916
-0.8622 1.9937 -0.5140 0.9911
-0.8759 1.9915 -0.5149 0.9911
-0.8896 1.9893 -0.5157 0.9911
-0.9035 1.9871 -0.5166 0.9911
-0.9312 1.9828 -0.5184 0.9910
-0.9452 1.9805 -0.5193 0.9910
-1.0034 1.9753 -0.5243 0.9909
-1.0343 1.9753 -0.5277 0.9909
-1.0499 1.9753 -0.5294 0.9908
-1.0815 1.9753 -0.5329 0.9908
-1.1135 1.9753 -0.5366 0.9907
-1.1459 1.9753 -0.5404 0.9907
-1.1623 1.9754 -0.5424 0.9906
-1.1788 1.9753 -0.5444 0.9906
-1.1954 1.9754 -0.5464 0.9906
-1.2122 1.9754 -0.5485 0.9905
-1.2291 1.9754 -0.5506 0.9905
-1.2805 1.9754 -0.5571 0.9904
-1.2979 1.9754 -0.5594 0.9903
-1.3872 1.9754 -0.5712 0.9901
-1.4056 1.9754 -0.5737 0.9901
-1.4240 1.9754 -0.5763 0.9900
-1.4427 1.9754 -0.5789 0.9900
-1.4805 1.9754 -0.5842 0.9899
-1.5190 1.9754 -0.5897 0.9898
-1.5386 1.9754 -0.5926 0.9898
-1.5583 1.9754 -0.5954 0.9897
-1.5983 1.9754 -0.6014 0.9896
-1.6187 1.9754 -0.6044 0.9896
-1.6392 1.9754 -0.6075 0.9895
-1.6599 1.9754 -0.6106 0.9894
-1.6809 1.9755 -0.6138 0.9894
-1.7021 1.9755 -0.6171 0.9893
-1.7451 1.9755 -0.6238 0.9892
-1.7670 1.9755 -0.6272 0.9892
-1.7891 1.9755 -0.6307 0.9891
-1.8115 1.9755 -0.6343 0.9890
-1.8341 1.9755 -0.6379 0.9890
-1.8801 1.9755 -0.6454 0.9889
-1.9272 1.9755 -0.6531 0.9887
-1.9756 1.9755 -0.6612 0.9886
-2.0002 1.9755 -0.6653 0.9885
-2.0251 1.9755 -0.6695 0.9884
-2.0758 1.9756 -0.6782 0.9883
-2.1279 1.9756 -0.6871 0.9881
-2.2088 1.9756 -0.7013 0.9879
-2.2364 1.9756 -0.7062 0.9878
-2.2930 1.9756 -0.7163 0.9876
-2.3219 1.9756 -0.7215 0.9875
-2.3810 1.9756 -0.7322 0.9874
-2.4112 1.9756 -0.7377 0.9873
-2.4418 1.9756 -0.7433 0.9872
-2.4729 1.9757 -0.7491 0.9871
-2.5367 1.9757 -0.7609 0.9869
-2.6704 1.9757 -0.7861 0.9864
-2.7407 1.9757 -0.7996 0.9862
-2.7768 1.9757 -0.8065 0.9861
-2.8148 1.9508 -0.8105 0.9860
-2.8161 1.9261 -0.8074 0.9861
-2.8504 1.8982 -0.8104 0.9860
-3.0480 1.9758 -0.8596 0.9852
-3.1756 1.9758 -0.8851 0.9847
-3.2198 1.9758 -0.8940 0.9846
-3.2650 1.9759 -0.9031 0.9844
-3.4062 1.9759 -0.9319 0.9839
-3.4552 1.9759 -0.9420 0.9838
-3.5054 1.9759 -0.9523 0.9836
-3.5566 1.9759 -0.9629 0.9834
-3.6091 1.9760 -0.9737 0.9832
-3.6627 1.9760 -0.9849 0.9830
-3.7175 1.9760 -0.9963 0.9828
-3.7737 1.9760 -1.0081 0.9826
-3.8312 1.9760 -1.0202 0.9824
-3.9504 1.9761 -1.0453 0.9820
-4.0123 1.9761 -1.0584 0.9818
-4.4189 1.9762 -1.1456 0.9803
-4.4934 1.9762 -1.1617 0.9800
-4.5699 1.9762 -1.1783 0.9797
-4.6486 1.9762 -1.1954 0.9795
-4.8993 1.9763 -1.2502 0.9785
-4.9880 1.9763 -1.2697 0.9782
-5.0796 1.9763 -1.2899 0.9778
-5.1741 1.9763 -1.3108 0.9775
-5.2718 1.9764 -1.3324 0.9771
-5.3727 1.9764 -1.3548 0.9767
-6.2748 2.0474 -1.5620 0.9732
-6.3912 2.0417 -1.5878 0.9728
-6.4682 2.0223 -1.6038 0.9725
-6.6060 2.0206 -1.6348 0.9720
-7.4036 2.0658 -1.8190 0.9689
-7.4037 1.9674 -1.8129 0.9690
-8.0379 1.9771 -1.9589 0.9665
-8.2580 1.9772 -2.0095 0.9657
-9.8521 2.2945 -2.3939 0.9593
-9.8662 2.2336 -2.3939 0.9593
-9.8799 2.1725 -2.3940 0.9593
-9.9062 2.0502 -2.3940 0.9593
-9.9187 1.9889 -2.3940 0.9593
-9.9310 1.9275 -2.3941 0.9593
-9.9542 1.8046 -2.3941 0.9593
-9.9653 1.7430 -2.3941 0.9593
-9.9760 1.6814 -2.3941 0.9593
-9.9863 1.6197 -2.3942 0.9593
-9.9962 1.5579 -2.3942 0.9593
-10.0236 1.3722 -2.3942 0.9593
-10.0320 1.3102 -2.3943 0.9593
-10.0617 1.0617 -2.3943 0.9593
-10.0681 0.9995 -2.3944 0.9593
-10.0742 0.9372 -2.3944 0.9593
-10.0799 0.8749 -2.3944 0.9593
-10.0852 0.8125 -2.3944 0.9593
-10.0946 0.6878 -2.3945 0.9593
-10.1025 0.5629 -2.3945 0.9593
-10.1059 0.5004 -2.3945 0.9593
-10.1089 0.4379 -2.3945 0.9593
-10.1137 0.3128 -2.3946 0.9593
-10.1155 0.2503 -2.3946 0.9593
-10.1170 0.1877 -2.3946 0.9593
-10.1187 0.0626 -2.3947 0.9593
-9.7930 -0.1211 -2.3947 0.9605
-9.7792 -0.5449 -2.3948 0.9605
-9.7757 -0.6053 -2.3948 0.9605
-9.7718 -0.6658 -2.3948 0.9605
-9.7676 -0.7262 -2.3948 0.9605
-9.7629 -0.7866 -2.3949 0.9605
-9.7580 -0.8470 -2.3949 0.9605
-9.7527 -0.9073 -2.3949 0.9605
-9.7469 -0.9676 -2.3949 0.9605
-9.7203 -1.2084 -2.3950 0.9605
-9.7048 -1.3286 -2.3950 0.9605
-9.6964 -1.3886 -2.3950 0.9605
-9.6877 -1.4485 -2.3950 0.9605
-9.6692 -1.5683 -2.3951 0.9605
-9.6277 -1.8070 -2.3951 0.9605
-9.6164 -1.8665 -2.3952 0.9605
-9.6047 -1.9259 -2.3952 0.9605
-9.5927 -1.9853 -2.3952 0.9605
-9.5803 -2.0446 -2.3952 0.9605
-9.5675 -2.1038 -2.3952 0.9605
-9.5544 -2.1630 -2.3952 0.9605
-9.5409 -2.2221 -2.3953 0.9605
-9.5271 -2.2810 -2.3953 0.9605
-9.4833 -2.4574 -2.3953 0.9605
-9.4523 -2.5746 -2.3953 0.9605
-7.6161 -2.3296 -1.9474 0.9677
-7.3046 -2.2839 -1.8713 0.9690
-7.3047 -2.4335 -1.8826 0.9688
-6.8450 -2.3748 -1.7715 0.9706
-6.8069 -2.4089 -1.7655 0.9707
-6.6193 -2.4350 -1.7245 0.9714
-6.1140 -2.3788 -1.6041 0.9733
-6.0394 -2.3929 -1.5884 0.9736
-5.6396 -2.3156 -1.4906 0.9752
-5.5767 -2.3302 -1.4778 0.9754
-5.3884 -2.3302 -1.4354 0.9761
-5.2983 -2.3302 -1.4152 0.9764
-4.6588 -2.3304 -1.2737 0.9788
-4.5877 -2.3304 -1.2582 0.9790
-4.5183 -2.3304 -1.2431 0.9793
-4.3844 -2.3305 -1.2141 0.9798
-4.2566 -2.3305 -1.1866 0.9802
-4.1949 -2.3305 -1.1733 0.9804
-4.0754 -2.3306 -1.1479 0.9809
-4.0175 -2.3306 -1.1356 0.9811
-3.9609 -2.3306 -1.1237 0.9813
-3.9055 -2.3306 -1.1120 0.9814
-3.7458 -2.3306 -1.0787 0.9820
-3.6947 -2.3307 -1.0681 0.9822
-3.6446 -2.3307 -1.0578 0.9823
-3.5954 -2.3307 -1.0477 0.9825
-3.5472 -2.3307 -1.0378 0.9827
-3.4534 -2.3307 -1.0187 0.9830
-3.4078 -2.3307 -1.0095 0.9831
-3.3629 -2.3308 -1.0004 0.9833
-3.2757 -2.3308 -0.9830 0.9836
-3.2332 -2.3308 -0.9745 0.9837
-3.0702 -2.3308 -0.9425 0.9843
-3.0311 -2.3308 -0.9349 0.9844
-2.7462 -2.2502 -0.8681 0.9855
-2.7218 -2.2585 -0.8648 0.9855
-2.7051 -2.3307 -0.8731 0.9854
-2.6718 -2.3309 -0.8669 0.9855
-2.6060 -2.3309 -0.8549 0.9857
-2.5738 -2.3310 -0.8490 0.9858
-2.4798 -2.3310 -0.8321 0.9861
-2.4493 -2.3310 -0.8267 0.9862
-2.4191 -2.3310 -0.8214 0.9863
-2.3894 -2.3310 -0.8162 0.9863
-2.3310 -2.3310 -0.8060 0.9865
-2.3024 -2.3310 -0.8011 0.9866
-2.1912 -2.3311 -0.7822 0.9869
-2.1642 -2.3311 -0.7777 0.9870
-2.1111 -2.3311 -0.7690 0.9871
-2.0850 -2.3311 -0.7647 0.9872
-2.0592 -2.3311 -0.7605 0.9873
-2.0337 -2.3311 -0.7564 0.9873
-2.0085 -2.3311 -0.7523 0.9874
-1.9835 -2.3311 -0.7484 0.9875
-1.9101 -2.3311 -0.7369 0.9877
-1.8861 -2.3311 -0.7332 0.9877
-1.8624 -2.3311 -0.7295 0.9878
-1.8389 -2.3311 -0.7260 0.9878
-1.7926 -2.3312 -0.7190 0.9880
-1.6805 -2.3312 -0.7027 0.9882
-1.6587 -2.3312 -0.6996 0.9883
-1.6371 -2.3312 -0.6965 0.9883
-1.6157 -2.3312 -0.6935 0.9884
-1.5944 -2.3312 -0.6906 0.9884
-1.5525 -2.3312 -0.6848 0.9885
-1.5317 -2.3312 -0.6820 0.9886
-1.4908 -2.3312 -0.6766 0.9887
-1.4306 -2.3312 -0.6688 0.9888
-1.4108 -2.3313 -0.6663 0.9888
-1.3912 -2.3313 -0.6638 0.9889
-1.3141 -2.3313 -0.6543 0.9890
-1.2764 -2.3313 -0.6499 0.9891
-1.2577 -2.3313 -0.6477 0.9892
-1.2392 -2.3313 -0.6455 0.9892
-1.2207 -2.3313 -0.6434 0.9892
-1.1842 -2.3313 -0.6393 0.9893
-1.1662 -2.3313 -0.6374 0.9893
-1.1303 -2.3313 -0.6335 0.9894
-1.1126 -2.3313 -0.6316 0.9894
-1.0949 -2.3313 -0.6298 0.9894
-1.0774 -2.3313 -0.6280 0.9895
-1.0599 -2.3313 -0.6262 0.9895
-1.0426 -2.3313 -0.6244 0.9895
-0.9911 -2.3314 -0.6194 0.9896
-0.9741 -2.3314 -0.6178 0.9896
-0.9572 -2.3314 -0.6162 0.9897
-0.9404 -2.3314 -0.6147 0.9897
-0.9237 -2.3314 -0.6131 0.9897
-0.9071 -2.3314 -0.6117 0.9898
-0.8744 -2.3322 -0.6090 0.9898
-0.8588 -2.3346 -0.6082 0.9898
-0.8434 -2.3371 -0.6075 0.9898
-0.8125 -2.3420 -0.6061 0.9898
-0.7819 -2.3469 -0.6048 0.9899
-0.7665 -2.3493 -0.6042 0.9899
-0.7513 -2.3517 -0.6036 0.9899
-0.7360 -2.3541 -0.6031 0.9899
-0.6905 -2.3613 -0.6015 0.9899
-0.6602 -2.3662 -0.6006 0.9899
-0.6150 -2.3733 -0.5995 0.9900
-0.5549 -2.3828 -0.5982 0.9900
-0.5400 -2.3852 -0.5980 0.9900
-0.5250 -2.3876 -0.5977 0.9900
-0.4653 -2.3971 -0.5970 0.9900
-0.4503 -2.3994 -0.5969 0.9900
-0.4205 -2.4041 -0.5968 0.9900
-0.3556 -2.3781 -0.5879 0.9901
-0.3416 -2.3852 -0.5892 0.9901
-0.3134 -2.3996 -0.5917 0.9901
-0.2992 -2.4068 -0.5930 0.9901
-0.2563 -2.4287 -0.5971 0.9900
-0.1981 -2.4584 -0.6030 0.9899
-0.1959 -2.6351 -0.6461 0.9892
-0.1646 -2.6578 -0.6511 0.9891
-0.1004 -2.7045 -0.6617 0.9889
-0.0171 -2.7650 -0.6761 0.9887
0.0172 -2.7900 -0.6822 0.9886
0.0879 -2.8413 -0.6951 0.9884
0.1060 -2.8545 -0.6984 0.9883
0.1427 -2.8812 -0.7053 0.9882
0.1613 -2.8947 -0.7089 0.9881
0.1801 -2.9084 -0.7125 0.9881
0.2323 -2.8838 -0.7074 0.9882
0.2489 -2.8673 -0.7037 0.9882
0.2652 -2.8510 -0.7001 0.9883
0.2814 -2.8348 -0.6965 0.9883
0.3406 -2.8856 -0.7105 0.9881
0.3613 -2.9063 -0.7161 0.9880
0.4042 -3.0948 -0.7631 0.9872
0.4308 -3.1471 -0.7767 0.9870
0.5168 -3.3159 -0.8205 0.9863
0.5455 -3.3632 -0.8331 0.9861
0.5663 -3.3599 -0.8331 0.9861
1.1589 -5.9712 -1.4872 0.9753
1.2358 -5.9713 -1.4910 0.9752
1.3745 -6.2510 -1.5649 0.9740
1.4517 -6.2335 -1.5649 0.9740
1.4903 -6.2244 -1.5649 0.9740
1.6054 -6.1956 -1.5649 0.9740
1.6437 -6.1854 -1.5649 0.9740
1.7201 -6.1645 -1.5648 0.9740
2.6922 -9.4227 -2.3961 0.9604
2.7504 -9.4060 -2.3961 0.9604
2.8085 -9.3889 -2.3962 0.9604
3.1081 -8.9586 -2.3185 0.9617
3.1957 -8.8557 -2.3020 0.9620
3.6666 -9.0895 -2.3964 0.9604
3.3096 -8.0605 -2.1305 0.9648
3.3633 -7.9114 -2.1019 0.9652
3.3837 -7.5662 -2.0266 0.9664
3.4598 -7.6099 -2.0439 0.9662
3.3510 -7.2511 -1.9531 0.9676
3.3289 -6.9755 -1.8898 0.9687
3.3763 -6.8554 -1.8685 0.9690
3.4292 -6.8554 -1.8742 0.9689
3.5358 -6.8554 -1.8860 0.9687
3.6439 -6.8554 -1.8983 0.9685
3.7654 -6.8775 -1.9171 0.9682
3.9330 -6.8775 -1.9372 0.9679
4.9167 -8.4755 -2.3958 0.9605
4.9690 -8.4450 -2.3958 0.9605
5.0212 -8.4141 -2.3958 0.9605
5.1248 -8.3513 -2.3958 0.9605
5.2277 -8.2873 -2.3958 0.9605
5.2789 -8.2548 -2.3958 0.9605
5.3298 -8.2221 -2.3958 0.9605
5.5815 -8.0534 -2.3958 0.9605
5.6312 -8.0187 -2.3958 0.9605
5.7299 -7.9484 -2.3958 0.9605
5.7790 -7.9129 -2.3958 0.9605
5.8278 -7.8770 -2.3958 0.9605
5.9248 -7.8043 -2.3958 0.9605
5.9729 -7.7675 -2.3958 0.9605
6.0209 -7.7304 -2.3958 0.9605
6.1160 -7.6554 -2.3958 0.9605
6.1632 -7.6174 -2.3958 0.9605
6.6553 -8.0206 -2.5483 0.9580
6.0929 -7.0716 -2.2823 0.9623
6.0913 -6.9821 -2.2655 0.9626
6.0898 -6.8938 -2.2491 0.9628
6.0869 -6.7210 -2.2171 0.9633
6.0854 -6.6365 -2.2016 0.9636
6.0839 -6.5531 -2.1864 0.9638
6.0825 -6.4708 -2.1714 0.9641
6.0812 -6.3897 -2.1568 0.9643
6.0797 -6.3097 -2.1424 0.9646
6.0784 -6.2307 -2.1283 0.9648
6.0757 -6.0757 -2.1009 0.9652
6.3315 -6.0258 -2.1371 0.9646
6.0409 -5.4709 -1.9927 0.9670
6.0382 -5.3341 -1.9700 0.9674
6.1117 -5.2658 -1.9725 0.9673
6.1872 -5.2646 -1.9863 0.9671
7.9792 -6.7047 -2.5483 0.9580
8.0205 -6.6552 -2.5483 0.9580
8.0615 -6.6054 -2.5483 0.9580
8.1426 -6.5053 -2.5483 0.9580
8.3009 -6.3018 -2.5483 0.9580
8.3397 -6.2504 -2.5483 0.9580
8.3782 -6.1987 -2.5483 0.9580
8.4164 -6.1467 -2.5483 0.9580
8.4542 -6.0946 -2.5483 0.9580
8.4918 -6.0422 -2.5483 0.9580
8.5289 -5.9895 -2.5482 0.9580
8.5658 -5.9367 -2.5482 0.9580
8.6024 -5.8836 -2.5482 0.9580
8.6386 -5.8303 -2.5482 0.9580
8.6745 -5.7767 -2.5482 0.9580
8.7453 -5.6690 -2.5482 0.9580
8.7801 -5.6148 -2.5482 0.9580
8.8488 -5.5057 -2.5482 0.9580
8.8827 -5.4509 -2.5482 0.9580
8.9163 -5.3959 -2.5482 0.9580
9.0469 -5.1737 -2.5482 0.9580
9.2025 -4.8914 -2.5482 0.9580
9.2326 -4.8344 -2.5482 0.9580
9.2623 -4.7772 -2.5482 0.9580
9.3493 -4.6046 -2.5482 0.9580
9.3775 -4.5467 -2.5482 0.9580
9.4603 -4.3719 -2.5482 0.9580
9.4871 -4.3133 -2.5481 0.9580
9.5908 -4.0773 -2.5481 0.9580
9.6158 -4.0179 -2.5481 0.9580
9.6647 -3.8986 -2.5481 0.9580
9.7353 -3.7187 -2.5481 0.9580
9.7805 -3.5979 -2.5481 0.9580
9.8455 -3.4159 -2.5481 0.9580
9.8665 -3.3549 -2.5481 0.9580
9.9654 -3.0482 -2.5480 0.9580
9.9840 -2.9865 -2.5480 0.9580
10.0022 -2.9247 -2.5480 0.9580
10.0201 -2.8628 -2.5480 0.9580
10.0547 -2.7387 -2.5480 0.9580
10.0878 -2.6141 -2.5480 0.9580
10.1037 -2.5516 -2.5480 0.9580
10.1193 -2.4891 -2.5480 0.9580
10.1913 -2.1750 -2.5480 0.9580
10.2045 -2.1120 -2.5480 0.9580
10.2174 -2.0488 -2.5480 0.9580
10.2298 -1.9856 -2.5479 0.9580
10.2648 -1.7954 -2.5479 0.9580
10.2757 -1.7319 -2.5479 0.9580
10.2862 -1.6683 -2.5479 0.9580
10.2963 -1.6047 -2.5479 0.9580
10.3060 -1.5410 -2.5479 0.9580
10.3153 -1.4772 -2.5479 0.9580
10.3242 -1.4134 -2.5479 0.9580
10.3327 -1.3495 -2.5479 0.9580
10.3486 -1.2216 -2.5479 0.9580
10.3559 -1.1576 -2.5479 0.9580
10.3629 -1.0935 -2.5479 0.9580
10.3866 -0.8369 -2.5478 0.9580
10.3915 -0.7726 -2.5478 0.9580
10.4002 -0.6440 -2.5478 0.9580
10.4040 -0.5797 -2.5478 0.9580
10.4073 -0.5153 -2.5478 0.9580
10.4103 -0.4510 -2.5478 0.9580
10.4129 -0.3866 -2.5478 0.9580
10.4191 -0.1289 -2.5477 0.9580
10.4198 -0.0000 -2.5477 0.9580
10.4180 0.1933 -2.5477 0.9580
10.4165 0.2577 -2.5477 0.9580
10.4147 0.3221 -2.5477 0.9580
10.4125 0.3865 -2.5477 0.9580
10.4098 0.4509 -2.5477 0.9580
10.4069 0.5153 -2.5477 0.9580
10.3908 0.7725 -2.5476 0.9580
10.3804 0.9010 -2.5476 0.9580
10.3618 1.0934 -2.5476 0.9580
10.3474 1.2214 -2.5476 0.9580
10.3314 1.3493 -2.5476 0.9580
10.3228 1.4132 -2.5476 0.9580
10.3045 1.5407 -2.5475 0.9580
10.2631 1.7951 -2.5475 0.9580
10.2400 1.9219 -2.5475 0.9580
10.2154 2.0484 -2.5475 0.9580
10.2025 2.1115 -2.5475 0.9580
10.1892 2.1746 -2.5474 0.9580
10.1615 2.3004 -2.5474 0.9580
10.1322 2.4259 -2.5474 0.9580
10.0689 2.6757 -2.5474 0.9580
10.0350 2.8000 -2.5474 0.9580
9.9996 2.9239 -2.5473 0.9580
9.9812 2.9857 -2.5473 0.9580
9.9625 3.0473 -2.5473 0.9580
9.9434 3.1089 -2.5473 0.9580
9.8840 3.2928 -2.5473 0.9580
9.8211 3.4755 -2.5473 0.9580
9.7548 3.6571 -2.5472 0.9580
9.7320 3.7173 -2.5472 0.9580
9.6851 3.8374 -2.5472 0.9580
9.6369 3.9568 -2.5472 0.9580
9.6121 4.0163 -2.5472 0.9580
9.5872 4.0757 -2.5472 0.9580
9.4832 4.3115 -2.5471 0.9580
9.3736 4.5447 -2.5471 0.9580
9.3166 4.6602 -2.5471 0.9580
9.2876 4.7177 -2.5471 0.9580
9.2581 4.7751 -2.5470 0.9580
9.2284 4.8322 -2.5470 0.9580
9.1983 4.8892 -2.5470 0.9580
9.1678 4.9460 -2.5470 0.9580
9.1371 5.0026 -2.5470 0.9580
9.1059 5.0589 -2.5470 0.9580
9.0744 5.1151 -2.5470 0.9580
9.0425 5.1711 -2.5470 0.9580
8.9450 5.3379 -2.5469 0.9580
7.6669 4.6398 -2.1912 0.9638
7.5312 4.6215 -2.1605 0.9643
7.4016 4.6053 -2.1315 0.9647
7.2956 4.6021 -2.1091 0.9651
7.0260 4.6164 -2.0555 0.9660
6.8512 4.6239 -2.0210 0.9665
6.7246 4.5993 -1.9920 0.9670
6.5904 4.6281 -1.9690 0.9674
6.5411 4.6542 -1.9629 0.9675
6.5064 4.6904 -1.9611 0.9675
6.4758 4.7295 -1.9607 0.9675
6.3783 4.9678 -1.9768 0.9673
6.3398 5.0650 -1.9841 0.9671
6.3902 5.1704 -2.0099 0.9667
6.3875 5.2338 -2.0191 0.9666
6.3860 5.2990 -2.0290 0.9664
6.3936 5.4402 -2.0526 0.9660
6.3394 5.5307 -2.0570 0.9660
6.3403 5.7421 -2.0915 0.9654
6.3360 5.8824 -2.1139 0.9650
6.3305 5.9506 -2.1243 0.9649
6.3160 6.0859 -2.1446 0.9645
6.3146 6.1603 -2.1570 0.9643
6.3139 6.2363 -2.1699 0.9641
6.3181 6.3968 -2.1984 0.9637
6.3203 6.5592 -2.2272 0.9632
6.3213 6.6421 -2.2420 0.9629
6.3229 6.8104 -2.2722 0.9625
6.3240 6.8967 -2.2879 0.9622
6.3253 6.9843 -2.3040 0.9619
6.6997 7.9733 -2.5464 0.9580
6.3717 7.7762 -2.4581 0.9594
6.2905 7.8738 -2.4642 0.9593
6.3482 8.2555 -2.5463 0.9580
6.2971 8.2946 -2.5463 0.9580
5.7254 7.9421 -2.3939 0.9605
5.6762 7.9774 -2.3939 0.9605
5.6267 8.0123 -2.3939 0.9605
5.4770 8.1152 -2.3939 0.9605
5.4267 8.1489 -2.3938 0.9605
5.3254 8.2153 -2.3938 0.9605
5.2745 8.2480 -2.3938 0.9605
5.2234 8.2805 -2.3938 0.9605
5.1206 8.3444 -2.3938 0.9605
5.0170 8.4070 -2.3938 0.9605
4.9125 8.4684 -2.3938 0.9605
4.8600 8.4986 -2.3937 0.9605
4.8074 8.5284 -2.3937 0.9605
4.7545 8.5579 -2.3937 0.9605
4.6483 8.6160 -2.3937 0.9605
4.5413 8.6728 -2.3937 0.9605
4.4337 8.7282 -2.3937 0.9605
4.3796 8.7555 -2.3937 0.9605
4.2709 8.8089 -2.3937 0.9605
4.2164 8.8351 -2.3936 0.9605
4.1616 8.8610 -2.3936 0.9605
4.1067 8.8865 -2.3936 0.9605
4.0517 8.9117 -2.3936 0.9605
3.9965 8.9366 -2.3936 0.9605
3.8856 8.9852 -2.3936 0.9605
3.7742 9.0326 -2.3936 0.9605
3.7182 9.0557 -2.3936 0.9605
3.6621 9.0785 -2.3936 0.9605
3.6109 9.1136 -2.3969 0.9604
3.5545 9.1356 -2.3969 0.9604
3.4979 9.1574 -2.3968 0.9604
3.4411 9.1788 -2.3968 0.9604
3.3273 9.2205 -2.3968 0.9604
3.2702 9.2408 -2.3968 0.9604
3.0981 9.2997 -2.3967 0.9604
2.9828 9.3371 -2.3967 0.9604
2.8671 9.3732 -2.3966 0.9604
2.8091 9.3906 -2.3966 0.9604
2.7509 9.4078 -2.3966 0.9604
2.6926 9.4245 -2.3966 0.9604
1.5637 5.7410 -1.4549 0.9758
1.5256 5.7410 -1.4524 0.9758
1.4877 5.7410 -1.4501 0.9759
1.2624 5.7411 -1.4373 0.9761
1.2252 5.7411 -1.4354 0.9761
1.4833 7.1672 -1.7896 0.9703
1.0537 5.6143 -1.3967 0.9768
1.0178 5.6142 -1.3951 0.9768
0.9462 5.6141 -1.3921 0.9768
0.4680 3.0032 -0.7432 0.9876
0.3755 2.8753 -0.7090 0.9881
0.3516 2.8284 -0.6969 0.9883
0.3285 2.7831 -0.6852 0.9885
0.2521 2.5391 -0.6239 0.9895
0.2346 2.5217 -0.6192 0.9896
0.2174 2.5045 -0.6147 0.9897
0.2004 2.4875 -0.6102 0.9898
0.1841 2.4767 -0.6072 0.9898
0.1672 2.4543 -0.6015 0.9899
0.1191 2.4063 -0.5891 0.9901
0.1036 2.3907 -0.5851 0.9902
0.0882 2.3753 -0.5812 0.9903
0.0730 2.3601 -0.5773 0.9903
0.0580 2.3452 -0.5736 0.9904
0.0432 2.3304 -0.5699 0.9904
0.0286 2.3158 -0.5663 0.9905
0.0142 2.3014 -0.5627 0.9906
-0.0279 2.2592 -0.5524 0.9907
-0.0417 2.2455 -0.5491 0.9908
-0.0552 2.2320 -0.5459 0.9908
-0.0686 2.2186 -0.5427 0.9909
-0.0821 2.2114 -0.5411 0.9909
-0.0955 2.2046 -0.5395 0.9910
-0.1088 2.1978 -0.5380 0.9910
-0.1221 2.1911 -0.5366 0.9910
-0.1484 2.1777 -0.5337 0.9911
-0.1873 2.1578 -0.5296 0.9911
-0.2001 2.1513 -0.5283 0.9911
-0.2129 2.1448 -0.5270 0.9912
-0.2256 2.1383 -0.5257 0.9912
-0.2634 2.1191 -0.5221 0.9912
-0.2884 2.1064 -0.5198 0.9913
-0.3131 2.0938 -0.5176 0.9913
-0.3253 2.0875 -0.5166 0.9913
-0.3376 2.0813 -0.5155 0.9914
-0.3498 2.0751 -0.5145 0.9914
-0.3619 2.0689 -0.5136 0.9914
-0.3740 2.0628 -0.5126 0.9914
-0.3980 2.0505 -0.5107 0.9914
-0.4219 2.0384 -0.5090 0.9915
-0.4338 2.0323 -0.5081 0.9915
-0.4456 2.0263 -0.5073 0.9915
-0.4691 2.0143 -0.5057 0.9915
-0.4808 2.0083 -0.5049 0.9915
-0.4925 2.0024 -0.5042 0.9915
-0.5302 2.0461 -0.5168 0.9913
-0.5432 2.0441 -0.5171 0.9913
-0.5562 2.0420 -0.5175 0.9913
-0.6084 2.0338 -0.5190 0.9913
-0.6215 2.0317 -0.5195 0.9913
-0.6609 2.0255 -0.5209 0.9913
-0.6873 2.0213 -0.5220 0.9912
-0.7138 2.0171 -0.5232 0.9912
-0.7271 2.0150 -0.5238 0.9912
-0.7405 2.0129 -0.5244 0.9912
-0.7539 2.0108 -0.5251 0.9912
-0.7673 2.0087 -0.5257 0.9912
-0.7942 2.0044 -0.5272 0.9912
-0.8077 2.0023 -0.5279 0.9911
-0.8213 2.0001 -0.5287 0.9911
-0.8349 1.9980 -0.5295 0.9911
-0.8622 1.9937 -0.5311 0.9911
-0.8759 1.9915 -0.5320 0.9911
-0.9035 1.9871 -0.5337 0.9911
-0.9452 1.9805 -0.5366 0.9910
-0.9592 1.9783 -0.5376 0.9910
-0.9881 1.9753 -0.5400 0.9909
-1.0499 1.9753 -0.5470 0.9908
-1.0657 1.9753 -0.5488 0.9908
-1.0974 1.9753 -0.5525 0.9907
-1.1623 1.9754 -0.5604 0.9906
-1.1954 1.9754 -0.5645 0.9905
-1.2122 1.9754 -0.5667 0.9905
-1.3332 1.9754 -0.5827 0.9902
-1.3511 1.9754 -0.5852 0.9902
-1.3872 1.9754 -0.5902 0.9901
-1.4240 1.9754 -0.5954 0.9900
-1.4615 1.9754 -0.6008 0.9899
-1.4805 1.9754 -0.6036 0.9899
-1.5190 1.9754 -0.6093 0.9898
-1.5782 1.9754 -0.6182 0.9896
-1.6392 1.9754 -0.6276 0.9895
-1.6599 1.9754 -0.6309 0.9894
-1.6809 1.9755 -0.6342 0.9894
-1.7451 1.9755 -0.6445 0.9892
-1.7891 1.9755 -0.6517 0.9891
-1.8115 1.9755 -0.6554 0.9890
-1.8801 1.9755 -0.6668 0.9888
-1.9273 1.9755 -0.6748 0.9887
-1.9756 1.9755 -0.6831 0.9886
-2.0002 1.9755 -0.6874 0.9885
-2.0251 1.9755 -0.6917 0.9884
-2.0503 1.9756 -0.6962 0.9883
-2.1279 1.9756 -0.7100 0.9881
-2.2364 1.9756 -0.7296 0.9878
-2.3219 1.9756 -0.7454 0.9875
-2.4729 1.9757 -0.7739 0.9871
-2.5367 1.9757 -0.7862 0.9868
-2.5693 1.9757 -0.7925 0.9867
-2.6025 1.9757 -0.7989 0.9866
-2.6362 1.9757 -0.8055 0.9865
-2.7768 1.9757 -0.8333 0.9861
-2.8041 1.9692 -0.8378 0.9860
-2.8121 1.9233 -0.8330 0.9861
-2.8204 1.9035 -0.8320 0.9861
-3.2198 1.9758 -0.9237 0.9846
-3.3111 1.9759 -0.9428 0.9842
-3.4552 1.9759 -0.9732 0.9837
-3.5567 1.9759 -0.9948 0.9834
-3.7176 1.9760 -1.0294 0.9828
-3.7737 1.9760 -1.0415 0.9826
-3.8312 1.9760 -1.0540 0.9824
-3.9504 1.9760 -1.0800 0.9820
-4.0123 1.9761 -1.0936 0.9818
-4.0757 1.9761 -1.1075 0.9815
-4.2076 1.9761 -1.1366 0.9810
-4.4190 1.9762 -1.1836 0.9803
-4.4934 1.9762 -1.2002 0.9800
-4.6487 1.9762 -1.2351 0.9794
-4.8132 1.9763 -1.2722 0.9788
-4.8993 1.9763 -1.2917 0.9785
-5.0796 1.9763 -1.3327 0.9778
-5.3727 1.9764 -1.3997 0.9767
-5.5851 1.9765 -1.4486 0.9759
-5.7386 1.9513 -1.4820 0.9753
-5.7775 1.9247 -1.4890 0.9752
-6.3356 2.0239 -1.6262 0.9730
-6.6588 2.0819 -1.7058 0.9717
-6.8064 2.0820 -1.7403 0.9711
-6.9058 2.0657 -1.7624 0.9708
-6.9145 2.0218 -1.7614 0.9708
-7.4036 2.0658 -1.8794 0.9688
-7.4036 2.0165 -1.8762 0.9689
-7.8287 1.9771 -1.9743 0.9673
-8.0380 1.9771 -2.0239 0.9665
-8.2580 1.9772 -2.0762 0.9656
-9.5354 2.2208 -2.3939 0.9605
-9.5491 2.1618 -2.3939 0.9605
-9.5878 1.9843 -2.3940 0.9605
-9.6000 1.9250 -2.3940 0.9605
-9.6232 1.8061 -2.3940 0.9605
-9.6841 1.4480 -2.3942 0.9605
-9.6929 1.3881 -2.3942 0.9605
-9.7014 1.3281 -2.3942 0.9605
-9.7095 1.2681 -2.3942 0.9605
-9.7246 1.1479 -2.3943 0.9605
-9.7316 1.0878 -2.3943 0.9605
-9.7383 1.0276 -2.3943 0.9605
-9.7445 0.9674 -2.3943 0.9605
-9.7504 0.9071 -2.3943 0.9605
-9.7610 0.7864 -2.3944 0.9605
-9.7742 0.6052 -2.3944 0.9605
-9.7778 0.5448 -2.3945 0.9605
-9.7811 0.4843 -2.3945 0.9605
-9.7864 0.3633 -2.3945 0.9605
-9.7886 0.3028 -2.3945 0.9605
-9.7934 0.0605 -2.3946 0.9605
-9.4874 -0.0587 -2.3946 0.9616
-9.4861 -0.1760 -2.3946 0.9616
-9.4849 -0.2347 -2.3946 0.9616
-9.4814 -0.3520 -2.3947 0.9616
-9.4791 -0.4106 -2.3947 0.9616
-9.4735 -0.5278 -2.3947 0.9616
-9.4663 -0.6450 -2.3948 0.9616
-9.4578 -0.7620 -2.3948 0.9616
-9.4422 -0.9374 -2.3948 0.9616
-9.4234 -1.1124 -2.3949 0.9616
-9.4164 -1.1706 -2.3949 0.9616
-9.3933 -1.3452 -2.3950 0.9616
-9.3760 -1.4613 -2.3950 0.9616
-9.3669 -1.5192 -2.3950 0.9616
-9.3372 -1.6928 -2.3951 0.9616
-9.3044 -1.8657 -2.3951 0.9616
-9.2928 -1.9233 -2.3951 0.9616
-9.2557 -2.0954 -2.3952 0.9616
-9.2426 -2.1526 -2.3952 0.9616
-9.2291 -2.2097 -2.3952 0.9616
-9.2154 -2.2668 -2.3952 0.9616
-9.2013 -2.3237 -2.3952 0.9616
-9.1867 -2.3806 -2.3952 0.9616
-9.1567 -2.4940 -2.3953 0.9616
-9.1412 -2.5506 -2.3953 0.9616
-7.9667 -2.3295 -2.0949 0.9663
-7.7877 -2.3296 -2.0516 0.9670
-7.6160 -2.3296 -2.0101 0.9677
-7.3046 -2.2839 -1.9316 0.9689
-7.2497 -2.3655 -1.9247 0.9690
-7.2349 -2.4103 -1.9247 0.9690
-7.1608 -2.4349 -1.9089 0.9693
-6.8069 -2.4089 -1.8224 0.9707
-6.7477 -2.4350 -1.8106 0.9708
-6.6193 -2.4350 -1.7801 0.9713
-6.4952 -2.4351 -1.7507 0.9718
-6.2177 -2.3750 -1.6799 0.9729
-6.1759 -2.4029 -1.6726 0.9730
-5.6480 -2.2783 -1.5371 0.9752
-5.6396 -2.3156 -1.5387 0.9752
-5.3884 -2.3302 -1.4817 0.9761
-5.2107 -2.3303 -1.4406 0.9767
-5.0425 -2.3303 -1.4020 0.9773
-4.8831 -2.3304 -1.3656 0.9779
-4.7317 -2.3304 -1.3312 0.9785
-4.5877 -2.3304 -1.2987 0.9790
-4.5183 -2.3304 -1.2831 0.9792
-4.3198 -2.3305 -1.2388 0.9800
-4.1344 -2.3305 -1.1979 0.9806
-3.9609 -2.3306 -1.1599 0.9812
-3.7458 -2.3306 -1.1135 0.9820
-3.6446 -2.3307 -1.0919 0.9823
-3.5472 -2.3307 -1.0712 0.9826
-3.4998 -2.3307 -1.0613 0.9828
-3.4534 -2.3307 -1.0515 0.9830
-3.4078 -2.3307 -1.0420 0.9831
-3.2757 -2.3308 -1.0147 0.9836
-3.0702 -2.3308 -0.9729 0.9842
-2.9927 -2.3308 -0.9574 0.9845
-2.9548 -2.3309 -0.9499 0.9846
-2.9175 -2.3309 -0.9425 0.9847
-2.8808 -2.3309 -0.9353 0.9848
-2.7462 -2.2502 -0.8961 0.9855
-2.6718 -2.3309 -0.8949 0.9855
-2.6387 -2.3309 -0.8886 0.9856
-2.5420 -2.3309 -0.8705 0.9859
-2.5107 -2.3310 -0.8647 0.9860
-2.4798 -2.3310 -0.8590 0.9861
-2.4191 -2.3310 -0.8479 0.9862
-2.2741 -2.3310 -0.8219 0.9867
-2.2461 -2.3311 -0.8170 0.9867
-2.2185 -2.3310 -0.8122 0.9868
-2.1375 -2.3311 -0.7982 0.9870
-2.1111 -2.3311 -0.7938 0.9871
-2.0850 -2.3311 -0.7893 0.9872
-2.0592 -2.3311 -0.7850 0.9873
-2.0337 -2.3311 -0.7808 0.9873
-2.0085 -2.3311 -0.7766 0.9874
-1.8861 -2.3311 -0.7568 0.9877
-1.8624 -2.3311 -0.7531 0.9878
-1.8389 -2.3311 -0.7494 0.9878
-1.8156 -2.3311 -0.7458 0.9879
-1.7926 -2.3312 -0.7422 0.9879
-1.7247 -2.3312 -0.7319 0.9881
-1.7025 -2.3312 -0.7286 0.9882
-1.6805 -2.3312 -0.7253 0.9882
-1.6371 -2.3312 -0.7190 0.9883
-1.5944 -2.3312 -0.7128 0.9884
-1.5733 -2.3312 -0.7098 0.9885
-1.5317 -2.3312 -0.7040 0.9886
-1.4908 -2.3312 -0.6984 0.9886
-1.4706 -2.3312 -0.6957 0.9887
-1.4306 -2.3312 -0.6903 0.9888
-1.4108 -2.3313 -0.6877 0.9888
-1.3912 -2.3312 -0.6852 0.9889
-1.3524 -2.3313 -0.6802 0.9889
-1.3141 -2.3313 -0.6754 0.9890
-1.2764 -2.3313 -0.6708 0.9891
-1.2577 -2.3313 -0.6686 0.9891
-1.2392 -2.3313 -0.6663 0.9892
-1.2207 -2.3313 -0.6642 0.9892
-1.2024 -2.3313 -0.6620 0.9892
-1.1842 -2.3313 -0.6600 0.9893
-1.1482 -2.3313 -0.6559 0.9893
-1.0949 -2.3313 -0.6501 0.9894
-1.0774 -2.3313 -0.6482 0.9895
-1.0253 -2.3313 -0.6428 0.9895
-0.9741 -2.3314 -0.6377 0.9896
-0.9572 -2.3314 -0.6361 0.9897
-0.8905 -2.3314 -0.6299 0.9898
-0.8434 -2.3371 -0.6271 0.9898
-0.8279 -2.3396 -0.6264 0.9898
-0.8125 -2.3420 -0.6257 0.9898
-0.7818 -2.3469 -0.6243 0.9898
-0.7513 -2.3517 -0.6231 0.9899
-0.7360 -2.3541 -0.6225 0.9899
-0.6905 -2.3613 -0.6209 0.9899
-0.6753 -2.3637 -0.6205 0.9899
-0.6602 -2.3662 -0.6200 0.9899
-0.6451 -2.3685 -0.6196 0.9899
-0.6301 -2.3709 -0.6192 0.9899
-0.6150 -2.3733 -0.6188 0.9899
-0.6000 -2.3757 -0.6184 0.9899
-0.5699 -2.3805 -0.6178 0.9900
-0.5549 -2.3828 -0.6175 0.9900
-0.5250 -2.3876 -0.6170 0.9900
-0.5101 -2.3900 -0.6168 0.9900
-0.4951 -2.3923 -0.6166 0.9900
-0.4354 -2.4018 -0.6161 0.9900
-0.3992 -2.3684 -0.6062 0.9901
-0.3834 -2.3639 -0.6044 0.9902
-0.3695 -2.3710 -0.6056 0.9901
-0.3556 -2.3781 -0.6069 0.9901
-0.3275 -2.3924 -0.6095 0.9901
-0.3134 -2.3996 -0.6108 0.9901
-0.2992 -2.4068 -0.6121 0.9900
-0.2871 -2.5687 -0.6524 0.9894
-0.2421 -2.6015 -0.6594 0.9893
-0.2114 -2.6238 -0.6644 0.9892
-0.1959 -2.6351 -0.6669 0.9892
-0.1803 -2.6464 -0.6695 0.9891
-0.1646 -2.6578 -0.6721 0.9891
-0.1328 -2.6810 -0.6775 0.9890
-0.1004 -2.7045 -0.6831 0.9889
-0.0499 -2.6918 -0.6795 0.9890
-0.0000 -2.7775 -0.7010 0.9886
0.0347 -2.8027 -0.7074 0.9885
0.1613 -2.8947 -0.7317 0.9881
0.1801 -2.9084 -0.7354 0.9881
0.2156 -2.9005 -0.7341 0.9881
0.2323 -2.8838 -0.7302 0.9881
0.2489 -2.8673 -0.7264 0.9882
0.2652 -2.8510 -0.7227 0.9883
0.2814 -2.8348 -0.7190 0.9883
0.3203 -2.8653 -0.7277 0.9882
0.3613 -2.9063 -0.7392 0.9880
0.4308 -3.1471 -0.8017 0.9870
0.4585 -3.2013 -0.8162 0.9867
0.4871 -3.2575 -0.8313 0.9865
0.5168 -3.3159 -0.8470 0.9863
0.5455 -3.3632 -0.8599 0.9860
0.5663 -3.3599 -0.8600 0.9860
1.0895 -6.0095 -1.5415 0.9751
1.1279 -6.0096 -1.5432 0.9751
1.1664 -6.0096 -1.5451 0.9751
1.2358 -5.9713 -1.5390 0.9752
1.3305 -6.0508 -1.5636 0.9748
1.4064 -6.0387 -1.5649 0.9747
1.5181 -6.0113 -1.5648 0.9747
1.6663 -5.9720 -1.5649 0.9747
2.6645 -9.1121 -2.3961 0.9616
2.7770 -9.0786 -2.3962 0.9616
2.9450 -9.0258 -2.3962 0.9616
3.0008 -9.0075 -2.3962 0.9616
3.1120 -8.9698 -2.3963 0.9616
3.1674 -8.9504 -2.3963 0.9616
3.2779 -8.9107 -2.3963 0.9616
3.3330 -8.8904 -2.3963 0.9616
3.4428 -8.8486 -2.3964 0.9616
3.5520 -8.8055 -2.3964 0.9616
3.3086 -7.7827 -2.1344 0.9657
3.3493 -7.6154 -2.0997 0.9663
3.3510 -6.9115 -1.9386 0.9688
3.3871 -6.8774 -1.9349 0.9689
3.4935 -6.8775 -1.9469 0.9687
3.6556 -6.8775 -1.9658 0.9684
3.7103 -6.8775 -1.9723 0.9683
3.7654 -6.8775 -1.9790 0.9682
3.9330 -6.8775 -1.9996 0.9678
4.7630 -8.2106 -2.3957 0.9616
4.8642 -8.1511 -2.3957 0.9616
4.9145 -8.1209 -2.3957 0.9616
4.9646 -8.0903 -2.3957 0.9616
5.0146 -8.0595 -2.3957 0.9616
5.1633 -7.9651 -2.3957 0.9616
5.2124 -7.9330 -2.3957 0.9616
5.5508 -7.7000 -2.3957 0.9616
5.6457 -7.6308 -2.3957 0.9616
5.7863 -7.5247 -2.3957 0.9616
5.8327 -7.4888 -2.3957 0.9616
6.0161 -7.3423 -2.3958 0.9616
6.1513 -7.2294 -2.3958 0.9616
6.0929 -7.0716 -2.3559 0.9622
6.0898 -6.8938 -2.3216 0.9628
6.0883 -6.8068 -2.3049 0.9630
6.0839 -6.5531 -2.2568 0.9638
6.0825 -6.4708 -2.2414 0.9640
6.0812 -6.3897 -2.2263 0.9643
6.0784 -6.2307 -2.1969 0.9647
6.1176 -6.0424 -2.1702 0.9651
6.4727 -6.0843 -2.2421 0.9640
7.5253 -6.7310 -2.5482 0.9592
7.5668 -6.6844 -2.5482 0.9592
7.6080 -6.6374 -2.5482 0.9592
7.8490 -6.3506 -2.5482 0.9592
7.8880 -6.3020 -2.5482 0.9592
7.9269 -6.2530 -2.5482 0.9592
8.0037 -6.1545 -2.5482 0.9592
8.0791 -6.0550 -2.5482 0.9592
8.1164 -6.0049 -2.5482 0.9592
8.1534 -5.9546 -2.5482 0.9592
8.2263 -5.8533 -2.5482 0.9592
8.2981 -5.7511 -2.5482 0.9592
8.3686 -5.6480 -2.5482 0.9592
8.4034 -5.5962 -2.5482 0.9592
8.5057 -5.4393 -2.5482 0.9592
8.5392 -5.3866 -2.5482 0.9592
8.5723 -5.3337 -2.5482 0.9592
8.6051 -5.2806 -2.5482 0.9592
8.6697 -5.1737 -2.5482 0.9592
8.7016 -5.1200 -2.5482 0.9592
8.7642 -5.0120 -2.5482 0.9592
8.8255 -4.9032 -2.5481 0.9592
8.8556 -4.8485 -2.5481 0.9592
8.9149 -4.7386 -2.5481 0.9592
9.0293 -4.5166 -2.5481 0.9592
9.0571 -4.4607 -2.5481 0.9592
9.0845 -4.4046 -2.5481 0.9592
9.1115 -4.3483 -2.5481 0.9592
9.1646 -4.2352 -2.5481 0.9592
9.1906 -4.1785 -2.5481 0.9592
9.2162 -4.1216 -2.5481 0.9592
9.2415 -4.0645 -2.5481 0.9592
9.2665 -4.0072 -2.5481 0.9592
9.2911 -3.9499 -2.5481 0.9592
9.3153 -3.8923 -2.5481 0.9592
9.3627 -3.7768 -2.5481 0.9592
9.4086 -3.6607 -2.5481 0.9592
9.4311 -3.6024 -2.5481 0.9592
9.4532 -3.5440 -2.5481 0.9592
9.4749 -3.4855 -2.5480 0.9592
9.5172 -3.3680 -2.5480 0.9592
9.5379 -3.3091 -2.5480 0.9592
9.5780 -3.1909 -2.5480 0.9592
9.5976 -3.1316 -2.5480 0.9592
9.6355 -3.0126 -2.5480 0.9592
9.6540 -2.9530 -2.5480 0.9592
9.6720 -2.8932 -2.5480 0.9592
9.7240 -2.7133 -2.5480 0.9592
9.7880 -2.4719 -2.5480 0.9592
9.8321 -2.2899 -2.5479 0.9592
9.8981 -1.9848 -2.5479 0.9592
9.9101 -1.9235 -2.5479 0.9592
9.9219 -1.8622 -2.5479 0.9592
9.9331 -1.8008 -2.5479 0.9592
9.9648 -1.6162 -2.5479 0.9592
9.9839 -1.4928 -2.5479 0.9592
9.9929 -1.4311 -2.5479 0.9592
10.0016 -1.3692 -2.5479 0.9592
10.0098 -1.3073 -2.5478 0.9592
10.0177 -1.2454 -2.5478 0.9592
10.0252 -1.1834 -2.5478 0.9592
10.0323 -1.1214 -2.5478 0.9592
10.0390 -1.0594 -2.5478 0.9592
10.0620 -0.8107 -2.5478 0.9592
10.0752 -0.6239 -2.5478 0.9592
10.0821 -0.4992 -2.5478 0.9592
10.0896 -0.3121 -2.5477 0.9592
10.0913 -0.2497 -2.5477 0.9592
10.0941 -0.0624 -2.5477 0.9592
10.0943 -0.0000 -2.5477 0.9592
10.0940 0.0624 -2.5477 0.9592
10.0934 0.1248 -2.5477 0.9592
10.0924 0.1873 -2.5477 0.9592
10.0871 0.3745 -2.5477 0.9592
10.0846 0.4368 -2.5476 0.9592
10.0817 0.4992 -2.5476 0.9592
10.0706 0.6861 -2.5476 0.9592
10.0661 0.7484 -2.5476 0.9592
10.0612 0.8106 -2.5476 0.9592
10.0444 0.9971 -2.5476 0.9592
10.0380 1.0592 -2.5476 0.9592
10.0166 1.2452 -2.5475 0.9592
9.9917 1.4308 -2.5475 0.9592
9.9731 1.5543 -2.5475 0.9592
9.9531 1.6775 -2.5475 0.9592
9.9084 1.9232 -2.5474 0.9592
9.8709 2.1066 -2.5474 0.9592
9.8576 2.1676 -2.5474 0.9592
9.8300 2.2894 -2.5474 0.9592
9.8156 2.3501 -2.5474 0.9592
9.8009 2.4107 -2.5474 0.9592
9.7544 2.5921 -2.5474 0.9592
9.7381 2.6524 -2.5473 0.9592
9.7215 2.7125 -2.5473 0.9592
9.6871 2.8326 -2.5473 0.9592
9.6513 2.9521 -2.5473 0.9592
9.6328 3.0118 -2.5473 0.9592
9.5752 3.1899 -2.5473 0.9592
9.5552 3.2490 -2.5473 0.9592
9.5350 3.3081 -2.5472 0.9592
9.4932 3.4257 -2.5472 0.9592
9.4718 3.4843 -2.5472 0.9592
9.4501 3.5429 -2.5472 0.9592
9.3826 3.7175 -2.5472 0.9592
9.3594 3.7754 -2.5472 0.9592
9.2876 3.9484 -2.5471 0.9592
9.2630 4.0057 -2.5471 0.9592
9.2127 4.1200 -2.5471 0.9592
9.1078 4.3465 -2.5471 0.9592
9.0808 4.4027 -2.5471 0.9592
9.0255 4.5147 -2.5471 0.9592
8.9689 4.6259 -2.5470 0.9592
8.9401 4.6813 -2.5470 0.9592
8.9110 4.7365 -2.5470 0.9592
8.8516 4.8463 -2.5470 0.9592
8.7601 5.0096 -2.5470 0.9592
8.6974 5.1175 -2.5469 0.9592
8.6009 5.2779 -2.5469 0.9592
7.4648 4.6446 -2.2190 0.9644
7.3432 4.6322 -2.1913 0.9648
7.0980 4.6012 -2.1349 0.9657
6.9957 4.5965 -2.1127 0.9661
6.9104 4.6019 -2.0955 0.9663
6.8268 4.6074 -2.0787 0.9666
6.6514 4.6098 -2.0425 0.9672
6.4755 4.7292 -2.0238 0.9675
6.4294 4.8186 -2.0279 0.9674
6.3821 4.9707 -2.0417 0.9672
6.3420 5.0028 -2.0387 0.9672
6.3909 5.1058 -2.0646 0.9668
6.3864 5.1673 -2.0734 0.9667
6.3827 5.3632 -2.1041 0.9662
6.3798 5.4968 -2.1254 0.9659
6.3302 5.5227 -2.1203 0.9659
6.3701 5.6272 -2.1452 0.9655
6.3434 5.6739 -2.1480 0.9655
6.3418 5.7434 -2.1594 0.9653
6.3289 5.9491 -2.1923 0.9648
6.3290 6.4078 -2.2732 0.9635
6.3321 6.5716 -2.3033 0.9631
6.3336 6.6549 -2.3187 0.9628
6.9104 7.3515 -2.5465 0.9592
6.8647 7.3941 -2.5465 0.9592
6.8189 7.4364 -2.5465 0.9592
6.7728 7.4784 -2.5465 0.9592
6.7263 7.5201 -2.5465 0.9592
6.6797 7.5615 -2.5464 0.9592
6.4905 7.7243 -2.5464 0.9592
6.3944 7.8039 -2.5464 0.9592
6.2485 7.9211 -2.5464 0.9592
5.7819 7.5191 -2.3940 0.9616
5.7353 7.5547 -2.3940 0.9616
5.6884 7.5900 -2.3939 0.9616
5.6414 7.6250 -2.3939 0.9616
5.4510 7.7621 -2.3939 0.9616
5.2572 7.8944 -2.3939 0.9616
5.1592 7.9588 -2.3938 0.9616
5.1098 7.9905 -2.3938 0.9616
5.0603 8.0219 -2.3938 0.9616
5.0106 8.0530 -2.3938 0.9616
4.9106 8.1143 -2.3938 0.9616
4.8603 8.1445 -2.3938 0.9616
4.8098 8.1744 -2.3938 0.9616
4.7591 8.2039 -2.3938 0.9616
4.5547 8.3190 -2.3937 0.9616
4.4514 8.3746 -2.3937 0.9616
4.3475 8.4290 -2.3937 0.9616
4.2952 8.4557 -2.3937 0.9616
4.2428 8.4821 -2.3937 0.9616
4.1376 8.5338 -2.3937 0.9616
4.0317 8.5843 -2.3937 0.9616
3.9252 8.6334 -2.3936 0.9616
3.8717 8.6575 -2.3936 0.9616
3.7643 8.7047 -2.3936 0.9616
3.7104 8.7278 -2.3936 0.9616
3.6070 8.7849 -2.3969 0.9616
3.5526 8.8070 -2.3968 0.9616
3.4981 8.8287 -2.3968 0.9616
3.3886 8.8712 -2.3968 0.9616
3.3336 8.8919 -2.3968 0.9616
3.2785 8.9123 -2.3968 0.9616
3.1125 8.9714 -2.3967 0.9616
3.0570 8.9904 -2.3967 0.9616
2.9455 9.0274 -2.3966 0.9616
2.8896 9.0454 -2.3966 0.9616
2.8336 9.0630 -2.3966 0.9616
2.7213 9.0972 -2.3966 0.9616
2.6649 9.1138 -2.3966 0.9616
2.6085 9.1300 -2.3965 0.9616
2.4386 9.1766 -2.3965 0.9616
2.3818 9.1915 -2.3965 0.9616
1.4121 5.7411 -1.4922 0.9759
2.1537 9.2473 -2.3964 0.9616
2.0964 9.2604 -2.3964 0.9616
1.5760 7.1670 -1.8521 0.9702
1.5296 7.1671 -1.8496 0.9702
1.4833 7.1671 -1.8472 0.9703
1.0537 5.6143 -1.4417 0.9767
0.9527 5.6526 -1.4468 0.9766
0.4866 3.0002 -0.7671 0.9875
0.4680 3.0032 -0.7671 0.9875
0.4259 2.9741 -0.7583 0.9877
0.3755 2.8753 -0.7319 0.9881
0.3285 2.7831 -0.7073 0.9885
0.2846 2.6969 -0.6845 0.9889
0.2521 2.5391 -0.6440 0.9895
0.2346 2.5217 -0.6392 0.9896
0.2174 2.5045 -0.6345 0.9897
0.2004 2.4875 -0.6299 0.9898
0.1841 2.4767 -0.6268 0.9898
0.1697 2.4911 -0.6302 0.9898
0.1105 2.5504 -0.6443 0.9895
0.0730 2.3602 -0.5960 0.9903
0.0432 2.3304 -0.5883 0.9904
0.0142 2.3014 -0.5809 0.9906
-0.0000 2.2872 -0.5773 0.9906
-0.0141 2.2731 -0.5737 0.9907
-0.0279 2.2592 -0.5703 0.9907
-0.0552 2.2320 -0.5635 0.9908
-0.1088 2.1978 -0.5554 0.9910
-0.1221 2.1911 -0.5539 0.9910
-0.1353 2.1843 -0.5524 0.9910
-0.1484 2.1777 -0.5509 0.9910
-0.1744 2.1644 -0.5480 0.9911
-0.2001 2.1513 -0.5453 0.9911
-0.2383 2.1319 -0.5414 0.9912
-0.2509 2.1254 -0.5402 0.9912
-0.2634 2.1191 -0.5389 0.9912
-0.2759 2.1127 -0.5378 0.9912
-0.2884 2.1064 -0.5366 0.9913
-0.3008 2.1001 -0.5354 0.9913
-0.3131 2.0938 -0.5343 0.9913
-0.3253 2.0875 -0.5332 0.9913
-0.3376 2.0813 -0.5322 0.9913
-0.3498 2.0751 -0.5311 0.9914
-0.3619 2.0689 -0.5301 0.9914
-0.3740 2.0628 -0.5291 0.9914
-0.3860 2.0566 -0.5281 0.9914
-0.3980 2.0505 -0.5272 0.9914
-0.4100 2.0444 -0.5263 0.9914
-0.4219 2.0384 -0.5254 0.9914
-0.4574 2.0203 -0.5228 0.9915
-0.4691 2.0143 -0.5220 0.9915
-0.4808 2.0083 -0.5212 0.9915
-0.5302 2.0461 -0.5335 0.9913
-0.5562 2.0420 -0.5342 0.9913
-0.6084 2.0338 -0.5358 0.9913
-0.6215 2.0317 -0.5362 0.9913
-0.6346 2.0296 -0.5367 0.9913
-0.6477 2.0276 -0.5372 0.9913
-0.6873 2.0213 -0.5388 0.9912
-0.7138 2.0171 -0.5400 0.9912
-0.7405 2.0129 -0.5413 0.9912
-0.7539 2.0108 -0.5420 0.9912
-0.7807 2.0065 -0.5434 0.9912
-0.7942 2.0044 -0.5442 0.9911
-0.8077 2.0023 -0.5449 0.9911
-0.9452 1.9805 -0.5539 0.9910
-1.0034 1.9753 -0.5592 0.9909
-1.0499 1.9753 -0.5646 0.9908
-1.0657 1.9753 -0.5665 0.9908
-1.0974 1.9753 -0.5703 0.9907
-1.1296 1.9753 -0.5743 0.9907
-1.1623 1.9754 -0.5785 0.9906
-1.1788 1.9754 -0.5806 0.9906
-1.1954 1.9754 -0.5827 0.9905
-1.2461 1.9754 -0.5895 0.9904
-1.2632 1.9754 -0.5918 0.9904
-1.2805 1.9754 -0.5942 0.9903
-1.3155 1.9754 -0.5990 0.9903
-1.3332 1.9754 -0.6015 0.9902
-1.3691 1.9754 -0.6066 0.9901
-1.4056 1.9754 -0.6119 0.9900
-1.4240 1.9754 -0.6146 0.9900
-1.4427 1.9754 -0.6174 0.9900
-1.4805 1.9754 -0.6231 0.9899
-1.5190 1.9754 -0.6289 0.9898
-1.5386 1.9754 -0.6320 0.9897
-1.5583 1.9754 -0.6350 0.9897
-1.6392 1.9754 -0.6479 0.9895
-1.6599 1.9754 -0.6512 0.9894
-1.6809 1.9755 -0.6547 0.9894
-1.7021 1.9755 -0.6581 0.9893
-1.7235 1.9755 -0.6617 0.9892
-1.8115 1.9755 -0.6765 0.9890
-1.8341 1.9755 -0.6804 0.9889
-1.8570 1.9755 -0.6843 0.9889
-1.9273 1.9755 -0.6966 0.9887
-1.9756 1.9755 -0.7051 0.9885
-2.1017 1.9756 -0.7280 0.9882
-2.1814 1.9756 -0.7428 0.9879
-2.2088 1.9756 -0.7479 0.9878
-2.2364 1.9756 -0.7532 0.9878
-2.3512 1.9756 -0.7751 0.9874
-2.3810 1.9756 -0.7809 0.9873
-2.4112 1.9757 -0.7868 0.9872
-2.4729 1.9757 -0.7989 0.9870
-2.5367 1.9757 -0.8115 0.9868
-2.5693 1.9757 -0.8180 0.9867
-2.6704 1.9757 -0.8384 0.9864
-2.7053 1.9757 -0.8455 0.9863
-2.7768 1.9757 -0.8601 0.9860
-2.8041 1.9692 -0.8648 0.9860
-2.8117 1.9487 -0.8634 0.9860
-2.8457 1.8951 -0.8629 0.9860
-3.1322 1.9758 -0.9347 0.9848
-3.2199 1.9759 -0.9535 0.9845
-3.2650 1.9759 -0.9632 0.9844
-3.3581 1.9759 -0.9834 0.9841
-3.4553 1.9759 -1.0046 0.9837
-3.5567 1.9759 -1.0269 0.9834
-3.7176 1.9760 -1.0626 0.9828
-3.7737 1.9760 -1.0751 0.9826
-3.8901 1.9760 -1.1012 0.9822
-3.9504 1.9760 -1.1148 0.9819
-4.0123 1.9761 -1.1288 0.9817
-4.2076 1.9761 -1.1732 0.9810
-4.3466 1.9762 -1.2051 0.9805
-4.7297 1.9762 -1.2938 0.9791
-4.8133 1.9763 -1.3132 0.9788
-4.8993 1.9763 -1.3334 0.9784
-4.9881 1.9763 -1.3542 0.9781
-5.0796 1.9763 -1.3757 0.9778
-5.1742 1.9764 -1.3979 0.9774
-5.2718 1.9764 -1.4210 0.9770
-5.5851 1.9765 -1.4953 0.9759
-5.7775 1.9247 -1.5370 0.9752
-6.9058 2.0657 -1.8193 0.9707
-6.9146 2.0218 -1.8182 0.9707
-7.8287 1.9771 -2.0379 0.9672
-8.0380 1.9771 -2.0892 0.9664
-9.2636 2.0370 -2.3939 0.9616
-9.2761 1.9797 -2.3939 0.9616
-9.3225 1.7497 -2.3940 0.9616
-9.3725 1.4607 -2.3941 0.9616
-9.3900 1.3447 -2.3941 0.9616
-9.3982 1.2866 -2.3941 0.9616
-9.4339 0.9955 -2.3942 0.9616
-9.4509 0.8203 -2.3943 0.9616
-9.4605 0.7033 -2.3943 0.9616
-9.4648 0.6448 -2.3944 0.9616
-9.4722 0.5277 -2.3944 0.9616
-9.4753 0.4692 -2.3944 0.9616
-9.4781 0.4105 -2.3944 0.9616
-9.4826 0.2933 -2.3945 0.9616
-9.4844 0.2346 -2.3945 0.9616
-9.1988 -0.0569 -2.3945 0.9627
-9.1983 -0.1138 -2.3945 0.9627
-9.1948 -0.2844 -2.3946 0.9627
-9.1908 -0.3981 -2.3946 0.9627
-9.1882 -0.4549 -2.3946 0.9627
-9.1853 -0.5118 -2.3947 0.9627
-9.1784 -0.6253 -2.3947 0.9627
-9.1744 -0.6821 -2.3947 0.9627
-9.1653 -0.7955 -2.3947 0.9627
-9.1603 -0.8522 -2.3948 0.9627
-9.1492 -0.9654 -2.3948 0.9627
-9.1432 -1.0220 -2.3948 0.9627
-9.1299 -1.1350 -2.3948 0.9627
-9.1228 -1.1915 -2.3949 0.9627
-9.1153 -1.2479 -2.3949 0.9627
-9.0993 -1.3605 -2.3949 0.9627
-9.0819 -1.4730 -2.3949 0.9627
-9.0727 -1.5292 -2.3949 0.9627
-9.0532 -1.6413 -2.3950 0.9627
-9.0429 -1.6972 -2.3950 0.9627
-9.0213 -1.8090 -2.3950 0.9627
-9.0100 -1.8647 -2.3950 0.9627
-8.9741 -2.0316 -2.3951 0.9627
-8.9350 -2.1978 -2.3951 0.9627
-8.9212 -2.2530 -2.3951 0.9627
-8.9072 -2.3082 -2.3952 0.9627
-7.7877 -2.3296 -2.1159 0.9670
-7.3047 -2.2839 -1.9922 0.9689
-7.3047 -2.3336 -1.9961 0.9688
-6.8449 -2.3748 -1.8860 0.9705
-6.8069 -2.4089 -1.8795 0.9706
-6.7477 -2.4350 -1.8673 0.9708
-6.6193 -2.4350 -1.8359 0.9713
-6.1460 -2.4351 -1.7208 0.9730
-5.6396 -2.3156 -1.5869 0.9751
-5.4812 -2.3302 -1.5503 0.9757
-5.0425 -2.3303 -1.4460 0.9773
-4.9617 -2.3303 -1.4269 0.9776
-4.7317 -2.3304 -1.3729 0.9784
-4.4506 -2.3305 -1.3077 0.9794
-4.3844 -2.3305 -1.2925 0.9797
-4.3198 -2.3305 -1.2776 0.9799
-4.2566 -2.3305 -1.2632 0.9801
-4.0753 -2.3305 -1.2220 0.9808
-4.0175 -2.3306 -1.2090 0.9810
-3.9609 -2.3306 -1.1963 0.9812
-3.9054 -2.3306 -1.1839 0.9814
-3.7979 -2.3306 -1.1599 0.9818
-3.6947 -2.3307 -1.1371 0.9821
-3.4534 -2.3307 -1.0845 0.9829
-3.4078 -2.3307 -1.0747 0.9831
-3.2332 -2.3308 -1.0375 0.9837
-3.1914 -2.3308 -1.0287 0.9838
-3.1099 -2.3308 -1.0116 0.9841
-3.0311 -2.3308 -0.9953 0.9843
-2.9548 -2.3309 -0.9796 0.9846
-2.7478 -2.2516 -0.9247 0.9854
-2.7218 -2.2585 -0.9206 0.9855
-2.7132 -2.2798 -0.9225 0.9855
-2.7153 -2.3104 -0.9280 0.9854
-2.7054 -2.3309 -0.9295 0.9853
-2.6718 -2.3309 -0.9229 0.9855
-2.6387 -2.3309 -0.9165 0.9856
-2.5738 -2.3310 -0.9039 0.9857
-2.4492 -2.3310 -0.8801 0.9861
-2.3894 -2.3310 -0.8689 0.9863
-2.2741 -2.3310 -0.8477 0.9866
-2.2461 -2.3310 -0.8426 0.9867
-2.2185 -2.3310 -0.8376 0.9868
-2.1375 -2.3311 -0.8233 0.9870
-2.0850 -2.3311 -0.8141 0.9872
-2.0337 -2.3311 -0.8053 0.9873
-1.9835 -2.3311 -0.7967 0.9874
-1.8861 -2.3311 -0.7805 0.9877
-1.8389 -2.3311 -0.7729 0.9878
-1.8156 -2.3311 -0.7691 0.9879
-1.7926 -2.3312 -0.7655 0.9879
-1.7697 -2.3312 -0.7619 0.9880
-1.7247 -2.3312 -0.7548 0.9881
-1.6805 -2.3312 -0.7480 0.9882
-1.6587 -2.3312 -0.7447 0.9882
-1.6371 -2.3312 -0.7415 0.9883
-1.6157 -2.3312 -0.7383 0.9883
-1.5733 -2.3312 -0.7321 0.9884
-1.5524 -2.3312 -0.7291 0.9885
-1.5112 -2.3312 -0.7232 0.9886
-1.4505 -2.3312 -0.7147 0.9887
-1.4306 -2.3312 -0.7120 0.9888
-1.3717 -2.3312 -0.7041 0.9889
-1.3524 -2.3312 -0.7015 0.9889
-1.3332 -2.3313 -0.6991 0.9890
-1.2764 -2.3313 -0.6918 0.9891
-1.2577 -2.3313 -0.6895 0.9891
-1.2392 -2.3313 -0.6872 0.9891
-1.2207 -2.3313 -0.6850 0.9892
-1.2024 -2.3313 -0.6828 0.9892
-1.1662 -2.3313 -0.6785 0.9893
-1.1303 -2.3313 -0.6744 0.9893
-1.0949 -2.3313 -0.6704 0.9894
-1.0774 -2.3313 -0.6685 0.9894
-1.0599 -2.3313 -0.6666 0.9895
-1.0253 -2.3313 -0.6630 0.9895
-1.0082 -2.3314 -0.6612 0.9896
-0.9911 -2.3314 -0.6594 0.9896
-0.9741 -2.3314 -0.6577 0.9896
-0.9572 -2.3314 -0.6560 0.9896
-0.9404 -2.3314 -0.6544 0.9897
-0.9237 -2.3314 -0.6528 0.9897
-0.8905 -2.3314 -0.6496 0.9897
-0.8744 -2.3322 -0.6483 0.9898
