ply
format ascii 1.0
element vertex 1557
property float32 x
property float32 y
property float32 z
property float32 I
end_header
34.0835 7.2741 -0.8537 0.8698
35.5550 8.2806 -0.8942 0.8641
35.6036 9.4614 -0.9024 0.8629
35.5538 9.9205 -0.9042 0.8627
35.5537 10.1579 -0.9057 0.8625
56.3334 16.8511 -1.4403 0.7904
56.2545 17.5884 -1.4437 0.7899
54.0378 17.2629 -1.3896 0.7969
53.0325 17.3039 -1.3664 0.8000
53.0323 17.6674 -1.3692 0.7996
53.0321 18.0324 -1.3721 0.7992
53.0318 18.3990 -1.3750 0.7988
56.2522 22.6914 -1.4858 0.7845
35.2861 14.7440 -0.9367 0.8581
35.1508 14.9434 -0.9356 0.8583
35.0158 15.1424 -0.9345 0.8584
34.7462 15.5387 -0.9323 0.8587
56.3332 26.4573 -1.5245 0.7796
35.7039 17.3108 -0.9720 0.8532
34.5621 17.0220 -0.9437 0.8571
34.1372 17.0759 -0.9350 0.8584
33.9269 17.2338 -0.9321 0.8588
33.9080 17.7552 -0.9375 0.8580
33.8963 18.2868 -0.9434 0.8572
36.3996 20.2224 -1.0200 0.8465
35.8745 20.2220 -1.0087 0.8481
34.9127 20.2530 -0.9887 0.8509
34.4199 20.2526 -0.9782 0.8523
34.0741 20.3339 -0.9720 0.8532
34.0777 21.4966 -0.9869 0.8511
34.0775 21.7922 -0.9908 0.8506
34.0767 22.9987 -1.0070 0.8483
34.0764 23.3065 -1.0113 0.8477
35.5108 24.6113 -1.0583 0.8412
35.5416 26.9822 -1.0930 0.8365
34.1472 26.2581 -1.0550 0.8417
33.9659 26.7936 -1.0597 0.8411
35.5547 28.4054 -1.1147 0.8335
35.5404 28.7558 -1.1198 0.8328
35.5401 29.1211 -1.1255 0.8321
35.5398 29.4901 -1.1312 0.8313
35.5393 30.2396 -1.1430 0.8297
35.5390 30.6202 -1.1491 0.8289
34.0961 30.1198 -1.1144 0.8336
35.5382 31.7872 -1.1679 0.8263
28.9201 26.1913 -0.9557 0.8555
35.5376 32.5867 -1.1810 0.8245
34.0652 32.8241 -1.1587 0.8276
36.5122 35.6200 -1.2495 0.8154
33.8939 35.6137 -1.2043 0.8214
33.4768 35.6138 -1.1973 0.8224
33.0645 35.6140 -1.1904 0.8233
32.2539 35.6143 -1.1769 0.8251
31.4612 35.6146 -1.1640 0.8268
30.3041 35.6151 -1.1455 0.8294
29.9105 36.0466 -1.1473 0.8291
29.8856 36.9369 -1.1638 0.8269
29.8729 37.3917 -1.1723 0.8257
29.8600 37.8532 -1.1810 0.8246
29.8469 38.3216 -1.1898 0.8234
29.8336 38.7971 -1.1988 0.8222
29.8201 39.2799 -1.2080 0.8209
29.7547 41.8179 -1.2572 0.8144
29.7390 42.3477 -1.2675 0.8130
29.7230 42.8864 -1.2781 0.8116
29.7068 43.4343 -1.2890 0.8101
29.6734 44.5584 -1.3113 0.8072
29.6389 45.7224 -1.3347 0.8041
29.6212 46.3202 -1.3468 0.8025
29.5846 47.5485 -1.3717 0.7993
29.5491 48.8277 -1.3980 0.7958
29.4499 52.2450 -1.4690 0.7867
29.4090 53.7150 -1.5000 0.7827
29.3879 54.4734 -1.5161 0.7806
29.3218 56.8503 -1.5669 0.7742
29.2714 58.5180 -1.6027 0.7697
29.2231 60.2734 -1.6408 0.7649
29.1724 62.1142 -1.6809 0.7599
29.1461 63.0689 -1.7019 0.7573
2.1792 12.9294 -0.3212 0.9489
2.0108 12.9023 -0.3199 0.9491
1.9400 12.9747 -0.3213 0.9489
0.7043 56.9440 -1.3949 0.7962
0.3515 56.8471 -1.3925 0.7966
-0.0000 56.8476 -1.3925 0.7966
-0.7032 56.8484 -1.3926 0.7965
-1.0654 57.4171 -1.4067 0.7947
-0.5400 21.8239 -0.5347 0.9164
-0.5362 10.8291 -0.2656 0.9575
-0.6618 10.6884 -0.2623 0.9581
-0.7204 10.5733 -0.2596 0.9585
-0.7713 10.3740 -0.2548 0.9592
-0.8310 10.3142 -0.2535 0.9594
-0.8993 10.3611 -0.2547 0.9592
-1.0042 8.9836 -0.2214 0.9645
-1.0605 8.9836 -0.2216 0.9645
-0.5235 3.8238 -0.0945 0.9847
-0.5706 3.8163 -0.0945 0.9847
-0.5942 3.8126 -0.0945 0.9847
-0.5440 3.0004 -0.0747 0.9879
-0.6102 2.9482 -0.0737 0.9880
-0.6498 2.8703 -0.0721 0.9883
-0.7000 2.7716 -0.0700 0.9886
-0.7474 2.6785 -0.0681 0.9889
-0.7588 2.6559 -0.0677 0.9890
-0.7701 2.6337 -0.0672 0.9891
-0.7751 2.5338 -0.0649 0.9895
-0.8268 2.4820 -0.0641 0.9896
-0.9240 2.5606 -0.0667 0.9892
-0.9390 2.5524 -0.0666 0.9892
-0.9531 2.5421 -0.0665 0.9892
-1.0229 2.4913 -0.0660 0.9893
-1.0506 2.4712 -0.0658 0.9893
-1.0643 2.4612 -0.0657 0.9893
-1.0780 2.4512 -0.0656 0.9893
-1.0918 2.4412 -0.0655 0.9894
-1.1054 2.4313 -0.0654 0.9894
-1.1190 2.4214 -0.0653 0.9894
-1.1326 2.4115 -0.0653 0.9894
-1.1462 2.4017 -0.0652 0.9894
-1.1684 2.3359 -0.0640 0.9896
-1.1998 2.3263 -0.0641 0.9896
-1.2535 2.3235 -0.0647 0.9895
-1.2669 2.3138 -0.0646 0.9895
-1.2801 2.3042 -0.0646 0.9895
-1.3199 2.2753 -0.0644 0.9895
-1.3727 2.2369 -0.0643 0.9896
-1.3990 2.2177 -0.0642 0.9896
-1.4383 2.1891 -0.0642 0.9896
-1.4515 2.1795 -0.0641 0.9896
-1.4478 2.1168 -0.0628 0.9898
-1.4340 2.0419 -0.0611 0.9901
-1.4479 2.0348 -0.0612 0.9901
-1.4618 2.0277 -0.0612 0.9900
-1.4897 2.0135 -0.0614 0.9900
-1.5037 2.0063 -0.0614 0.9900
-1.5520 2.0443 -0.0629 0.9898
-1.5878 2.0387 -0.0633 0.9897
-1.6241 2.0329 -0.0637 0.9896
-1.6424 2.0300 -0.0640 0.9896
-1.7171 2.0181 -0.0649 0.9895
-1.7553 2.0120 -0.0654 0.9894
-1.7941 2.0058 -0.0659 0.9893
-1.8939 1.9899 -0.0673 0.9891
-1.9350 1.9834 -0.0679 0.9890
-1.9558 1.9801 -0.0682 0.9889
-1.9768 1.9768 -0.0685 0.9889
-1.9980 1.9734 -0.0688 0.9888
-2.0223 1.9729 -0.0692 0.9888
-2.0475 1.9729 -0.0696 0.9887
-2.1515 1.9728 -0.0715 0.9884
-2.1784 1.9728 -0.0720 0.9883
-2.2056 1.9728 -0.0725 0.9882
-2.2332 1.9728 -0.0730 0.9881
-2.2612 1.9728 -0.0735 0.9881
-2.3774 1.9727 -0.0757 0.9877
-2.4075 1.9726 -0.0762 0.9876
-2.4691 1.9726 -0.0774 0.9874
-2.7008 1.9724 -0.0819 0.9867
-2.7361 1.9724 -0.0826 0.9866
-2.7720 1.9724 -0.0833 0.9865
-2.8086 1.9723 -0.0841 0.9864
-3.0031 1.9204 -0.0873 0.9858
-3.3384 2.0771 -0.0963 0.9844
-3.3848 2.0771 -0.0973 0.9842
-3.4322 2.0771 -0.0983 0.9841
-3.5299 2.0770 -0.1003 0.9837
-3.5269 2.0169 -0.0995 0.9839
-3.9071 2.0767 -0.1084 0.9825
-3.9660 2.0767 -0.1097 0.9822
-4.1513 2.0765 -0.1137 0.9816
-4.1531 2.0454 -0.1134 0.9816
-4.3510 2.0764 -0.1181 0.9809
-4.4210 2.0764 -0.1196 0.9806
-4.4929 2.0763 -0.1212 0.9804
-4.6509 2.0112 -0.1241 0.9799
-4.6508 1.9772 -0.1238 0.9800
-4.6508 1.9433 -0.1235 0.9800
-4.9741 1.9708 -0.1311 0.9788
-5.0652 1.9708 -0.1331 0.9785
-5.1592 1.9707 -0.1353 0.9781
-5.3567 1.9705 -0.1398 0.9774
-5.4605 1.9705 -0.1422 0.9770
-5.6791 1.9703 -0.1472 0.9762
-6.1666 1.9700 -0.1586 0.9744
-7.2972 2.0361 -0.1856 0.9701
-7.6149 2.0741 -0.1933 0.9689
-7.9738 2.0137 -0.2014 0.9676
-8.4260 2.0174 -0.2122 0.9659
-8.4260 1.9624 -0.2119 0.9660
-8.4658 1.9165 -0.2126 0.9659
-26.8729 5.5616 -0.6722 0.8960
-26.8728 5.3885 -0.6713 0.8961
-26.8725 5.0436 -0.6697 0.8964
-26.8724 4.8717 -0.6690 0.8965
-26.8723 4.7002 -0.6682 0.8966
-26.8721 4.5292 -0.6675 0.8967
-26.8720 4.3584 -0.6668 0.8968
-26.8719 4.1880 -0.6662 0.8969
-26.8716 3.8481 -0.6649 0.8971
-26.8715 3.6787 -0.6644 0.8972
-26.8714 3.5095 -0.6638 0.8972
-26.8712 3.1720 -0.6628 0.8974
-26.8710 3.0036 -0.6623 0.8975
-26.8709 2.8354 -0.6619 0.8975
-26.8705 2.3323 -0.6607 0.8977
-26.8701 1.6638 -0.6594 0.8979
-30.2569 1.3106 -0.7418 0.8859
-26.8686 -0.3323 -0.8579 0.8980
-26.8681 -0.9974 -0.8584 0.8980
-26.8680 -1.1638 -0.8586 0.8980
-26.8678 -1.4970 -0.8591 0.8979
-26.8677 -1.6637 -0.8594 0.8979
-26.8676 -1.8305 -0.8597 0.8978
-26.8674 -1.9975 -0.8601 0.8978
-26.8672 -2.3320 -0.8610 0.8977
-26.8671 -2.4995 -0.8614 0.8976
-26.8668 -2.8350 -0.8625 0.8975
-26.8667 -3.0031 -0.8631 0.8975
-26.8666 -3.1715 -0.8637 0.8974
-26.8663 -3.5089 -0.8650 0.8972
-26.8661 -3.8474 -0.8665 0.8971
-26.8657 -4.3574 -0.8689 0.8968
-26.8655 -4.6991 -0.8707 0.8966
-26.8654 -4.8705 -0.8717 0.8965
-26.8652 -5.0422 -0.8727 0.8964
-26.8651 -5.2144 -0.8737 0.8963
-26.8650 -5.3870 -0.8747 0.8961
-26.8646 -5.9074 -0.8782 0.8958
-26.8642 -6.4320 -0.8819 0.8953
-26.8641 -6.6079 -0.8832 0.8952
-9.2610 -2.3388 -0.3049 0.9625
-9.0249 -2.3386 -0.2976 0.9634
-8.7998 -2.3385 -0.2907 0.9642
-8.3943 -2.2864 -0.2777 0.9658
-8.3229 -2.3223 -0.2759 0.9660
-8.3228 -2.4336 -0.2768 0.9659
-7.8250 -2.3935 -0.2612 0.9678
-7.6467 -2.4428 -0.2563 0.9684
-6.6578 -2.3099 -0.2250 0.9722
-6.6036 -2.3369 -0.2236 0.9724
-6.3521 -2.3367 -0.2161 0.9733
-6.2327 -2.3367 -0.2125 0.9737
-6.0052 -2.3365 -0.2057 0.9745
-5.8968 -2.3364 -0.2025 0.9749
-5.6899 -2.3363 -0.1964 0.9757
-5.4952 -2.3361 -0.1906 0.9764
-5.4020 -2.3361 -0.1879 0.9767
-5.3114 -2.3360 -0.1852 0.9770
-4.8943 -2.3357 -0.1731 0.9785
-4.5477 -2.3456 -0.1634 0.9797
-4.5477 -2.4172 -0.1644 0.9796
-4.5239 -2.4406 -0.1641 0.9796
-4.3928 -2.4405 -0.1604 0.9801
-4.3294 -2.4404 -0.1587 0.9803
-4.0499 -2.3830 -0.1500 0.9814
-3.9765 -2.4402 -0.1489 0.9815
-3.9219 -2.4402 -0.1475 0.9817
-3.8682 -2.4401 -0.1460 0.9819
-3.6639 -2.4400 -0.1405 0.9825
-3.6152 -2.4399 -0.1392 0.9827
-3.5674 -2.4399 -0.1380 0.9829
-3.4189 -2.4010 -0.1334 0.9834
-3.4289 -2.4398 -0.1344 0.9833
-3.3844 -2.4398 -0.1332 0.9834
-3.2976 -2.4397 -0.1310 0.9837
-3.2136 -2.4396 -0.1288 0.9840
-2.9683 -2.2825 -0.1195 0.9851
-2.9306 -2.2825 -0.1186 0.9852
-2.8828 -2.3031 -0.1178 0.9853
-2.8827 -2.3324 -0.1184 0.9853
-2.8488 -2.3342 -0.1176 0.9854
-2.8131 -2.3342 -0.1167 0.9855
-2.7779 -2.3342 -0.1158 0.9856
-2.7432 -2.3342 -0.1150 0.9857
-2.7091 -2.3341 -0.1142 0.9858
-2.6754 -2.3341 -0.1134 0.9859
-2.6422 -2.3341 -0.1126 0.9860
-2.5772 -2.3340 -0.1110 0.9862
-2.5454 -2.3340 -0.1103 0.9863
-2.5140 -2.3340 -0.1095 0.9864
-2.3924 -2.3339 -0.1067 0.9867
-2.2768 -2.3338 -0.1041 0.9870
-2.2488 -2.3338 -0.1035 0.9871
-2.2211 -2.3338 -0.1029 0.9872
-2.1667 -2.3338 -0.1017 0.9873
-2.1400 -2.3337 -0.1011 0.9874
-2.0359 -2.3337 -0.0989 0.9877
-1.9121 -2.3336 -0.0963 0.9880
-1.8892 -2.3349 -0.0959 0.9881
-1.8681 -2.3382 -0.0955 0.9881
-1.8263 -2.3448 -0.0949 0.9882
-1.7850 -2.3513 -0.0942 0.9883
-1.7646 -2.3546 -0.0939 0.9883
-1.7042 -2.3641 -0.0930 0.9884
-1.6843 -2.3672 -0.0928 0.9884
-1.6646 -2.3703 -0.0925 0.9885
-1.6449 -2.3734 -0.0922 0.9885
-1.6060 -2.3796 -0.0917 0.9886
-1.5867 -2.3826 -0.0914 0.9886
-1.5675 -2.3856 -0.0911 0.9886
-1.5484 -2.3886 -0.0909 0.9887
-1.5294 -2.3916 -0.0906 0.9887
-1.4730 -2.4005 -0.0899 0.9888
-1.4545 -2.4034 -0.0897 0.9888
-1.4094 -2.3618 -0.0878 0.9891
-1.3942 -2.3695 -0.0878 0.9891
-1.3790 -2.3772 -0.0877 0.9891
-1.3487 -2.3926 -0.0877 0.9891
-1.3184 -2.4081 -0.0876 0.9891
-1.3493 -2.5385 -0.0918 0.9886
-1.3202 -2.5596 -0.0919 0.9885
-1.3056 -2.5702 -0.0920 0.9885
-1.2321 -2.6235 -0.0925 0.9885
-1.2173 -2.6342 -0.0926 0.9885
-1.1877 -2.6557 -0.0929 0.9884
-1.1728 -2.6665 -0.0930 0.9884
-1.1429 -2.6882 -0.0933 0.9884
-1.1278 -2.6991 -0.0934 0.9884
-1.1120 -2.7084 -0.0935 0.9884
-1.0823 -2.6831 -0.0924 0.9885
-1.0367 -2.7652 -0.0943 0.9883
-1.0213 -2.7764 -0.0944 0.9882
-1.0059 -2.7876 -0.0946 0.9882
-0.9905 -2.7988 -0.0948 0.9882
-0.9749 -2.8100 -0.0950 0.9882
-0.9437 -2.8327 -0.0953 0.9881
-0.9122 -2.8555 -0.0957 0.9881
-0.8964 -2.8670 -0.0959 0.9881
-0.8485 -2.9018 -0.0965 0.9880
-0.8324 -2.9134 -0.0967 0.9879
-0.8126 -2.9121 -0.0965 0.9880
-0.7859 -2.8854 -0.0955 0.9881
-0.7598 -2.8593 -0.0945 0.9882
-0.7186 -2.8454 -0.0937 0.9883
-0.6884 -2.8754 -0.0944 0.9882
-0.6579 -2.9060 -0.0951 0.9881
-0.6328 -3.0577 -0.0997 0.9876
-0.5749 -3.1712 -0.1029 0.9872
-0.5445 -3.2308 -0.1046 0.9870
-0.5290 -3.2613 -0.1055 0.9869
-0.5131 -3.2923 -0.1064 0.9868
-0.4970 -3.3239 -0.1073 0.9866
-0.4206 -3.3836 -0.1089 0.9864
-0.4085 -3.4602 -0.1112 0.9862
-0.4409 -4.1786 -0.1341 0.9833
-0.8691 -9.3427 -0.2996 0.9631
-0.9096 -10.4797 -0.3358 0.9588
-0.8492 -10.5400 -0.3376 0.9586
-0.7881 -10.6009 -0.3394 0.9583
-0.6641 -10.7248 -0.3430 0.9579
-0.4838 -11.1693 -0.3569 0.9562
-0.4161 -11.2076 -0.3581 0.9561
-0.3579 -11.5727 -0.3696 0.9547
-0.4061 -21.8878 -0.6989 0.9161
-0.7348 -59.4087 -1.8968 0.7884
-0.3673 -59.3983 -1.8964 0.7884
1.1014 -59.3567 -1.8953 0.7885
1.4684 -59.3463 -1.8952 0.7885
2.5694 -59.3151 -1.8954 0.7885
3.6710 -59.2841 -1.8963 0.7884
4.0385 -59.2737 -1.8967 0.7884
4.4061 -59.2632 -1.8972 0.7883
5.1421 -59.2424 -1.8984 0.7882
5.5104 -59.2320 -1.8992 0.7881
5.8791 -59.2215 -1.9000 0.7881
6.9871 -59.1901 -1.9028 0.7878
7.3572 -59.1796 -1.9039 0.7877
7.7278 -59.1691 -1.9050 0.7876
7.3963 -54.0269 -1.7409 0.8039
9.5882 -59.1165 -1.9120 0.7869
9.5847 -56.8677 -1.8411 0.7939
2.1480 -11.8487 -0.3844 0.9530
2.1456 -11.0542 -0.3595 0.9559
2.1472 -10.7083 -0.3487 0.9572
2.1230 -9.9479 -0.3247 0.9601
2.1875 -9.9478 -0.3252 0.9601
2.7629 -12.2046 -0.3995 0.9512
2.8424 -12.2045 -0.4001 0.9511
2.1199 -8.8543 -0.2907 0.9642
2.1779 -8.8542 -0.2911 0.9642
2.2458 -8.8927 -0.2928 0.9640
2.2931 -8.8491 -0.2918 0.9641
2.3520 -8.8508 -0.2924 0.9640
2.5499 -7.6542 -0.2576 0.9682
2.6023 -7.6530 -0.2581 0.9682
2.7083 -7.6529 -0.2592 0.9680
2.7591 -7.6459 -0.2595 0.9680
3.3173 -8.8484 -0.3017 0.9629
3.4446 -8.8533 -0.3033 0.9627
5.1471 -12.7597 -0.4393 0.9464
5.1423 -12.5240 -0.4322 0.9473
5.1345 -12.0777 -0.4190 0.9488
5.1303 -11.8635 -0.4126 0.9496
5.1263 -11.6557 -0.4065 0.9503
5.1223 -11.4541 -0.4006 0.9510
5.1185 -11.2581 -0.3948 0.9517
5.1042 -10.5274 -0.3735 0.9543
5.0913 -9.8712 -0.3546 0.9565
5.0854 -9.5673 -0.3459 0.9576
5.0825 -9.4208 -0.3417 0.9581
5.0797 -9.2779 -0.3377 0.9586
5.0716 -8.8685 -0.3262 0.9599
5.0690 -8.7382 -0.3225 0.9604
5.0641 -8.4860 -0.3155 0.9612
5.0617 -8.3640 -0.3121 0.9616
5.0571 -8.1277 -0.3056 0.9624
5.0525 -7.9009 -0.2994 0.9632
5.0504 -7.7910 -0.2964 0.9635
5.0462 -7.5775 -0.2906 0.9642
5.0401 -7.2723 -0.2825 0.9652
5.0382 -7.1743 -0.2799 0.9655
5.0363 -7.0781 -0.2773 0.9658
5.0326 -6.8909 -0.2724 0.9664
5.0296 -6.7108 -0.2677 0.9670
5.0283 -6.6234 -0.2655 0.9673
5.0266 -6.5369 -0.2633 0.9675
5.0250 -6.4517 -0.2611 0.9678
5.0185 -6.1247 -0.2528 0.9688
5.0170 -6.0462 -0.2508 0.9690
5.0139 -5.8926 -0.2470 0.9695
5.0125 -5.8176 -0.2452 0.9697
5.0095 -5.6709 -0.2416 0.9702
5.0081 -5.5991 -0.2398 0.9704
5.0053 -5.4586 -0.2364 0.9708
5.0040 -5.3898 -0.2348 0.9710
5.0026 -5.3220 -0.2332 0.9712
5.0623 -5.3192 -0.2344 0.9710
5.6436 -5.3050 -0.2473 0.9695
5.7122 -5.3033 -0.2488 0.9693
5.9954 -5.2963 -0.2554 0.9685
6.1428 -5.2926 -0.2589 0.9681
6.6101 -5.2809 -0.2701 0.9667
6.6919 -5.2788 -0.2721 0.9665
6.9450 -5.2725 -0.2784 0.9657
7.1204 -5.2680 -0.2828 0.9652
7.2101 -5.2658 -0.2850 0.9649
7.4883 -5.2587 -0.2921 0.9640
7.5841 -5.2562 -0.2946 0.9637
7.7807 -5.2512 -0.2997 0.9631
7.8815 -5.2487 -0.3023 0.9628
7.9841 -5.2460 -0.3050 0.9625
8.0886 -5.2433 -0.3077 0.9622
34.7447 -22.2188 -1.3167 0.8479
34.8721 -21.9976 -1.3163 0.8479
34.9995 -21.7766 -1.3160 0.8479
34.1490 -20.9556 -1.2791 0.8518
35.1991 -21.0052 -1.3086 0.8487
35.5759 -20.6376 -1.3130 0.8482
35.5752 -19.7644 -1.2993 0.8497
34.1016 -17.8565 -1.2289 0.8572
35.5742 -18.3482 -1.2779 0.8520
35.5740 -18.0704 -1.2738 0.8524
35.5738 -17.7944 -1.2699 0.8528
35.5736 -17.5201 -1.2660 0.8533
35.5405 -16.6919 -1.2535 0.8546
35.5872 -16.4460 -1.2516 0.8548
35.5872 -16.1796 -1.2481 0.8552
34.7177 -15.0135 -1.2076 0.8595
35.1944 -14.4506 -1.2146 0.8588
35.5711 -14.0938 -1.2215 0.8580
35.5862 -13.3414 -1.2133 0.8589
35.5861 -13.0909 -1.2105 0.8592
35.5768 -12.8383 -1.2075 0.8595
35.5698 -12.3407 -1.2020 0.8601
34.1210 -10.9003 -1.1435 0.8664
35.5690 -11.1209 -1.1898 0.8614
35.5688 -10.8798 -1.1875 0.8617
34.1203 -9.9770 -1.1349 0.8674
35.5683 -10.1620 -1.1810 0.8624
35.5679 -9.6877 -1.1769 0.8628
35.5678 -9.4518 -1.1749 0.8630
34.1193 -8.6166 -1.1235 0.8686
35.2201 -8.4326 -1.1561 0.8651
36.9810 -8.3720 -1.2105 0.8592
38.0693 -8.3712 -1.2444 0.8556
39.2203 -8.3704 -1.2803 0.8517
26.8043 -5.3748 -0.8728 0.8964
26.8205 -5.0338 -0.8712 0.8965
26.8129 -4.8609 -0.8700 0.8967
26.8101 -4.3483 -0.8671 0.8970
26.8086 -4.1781 -0.8662 0.8971
26.7971 -3.6685 -0.8635 0.8974
26.7983 -3.3315 -0.8621 0.8976
26.7725 -3.1603 -0.8607 0.8977
26.7871 -2.6592 -0.8594 0.8979
26.7855 -2.4919 -0.8588 0.8979
26.7837 -2.3247 -0.8583 0.8980
26.7829 -2.1579 -0.8578 0.8980
26.8072 -1.8264 -0.8578 0.8980
27.0871 -1.6773 -0.8664 0.8971
35.5619 -1.3201 -1.1361 0.8673
34.1138 -0.8440 -1.0894 0.8723
35.5615 -0.6598 -1.1355 0.8673
35.5612 -0.2199 -1.1353 0.8673
35.5610 0.0000 -1.1353 0.8673
35.5609 0.2199 -1.1353 0.8673
35.5607 0.4399 -1.1354 0.8673
34.1127 0.6330 -1.0892 0.8724
35.5604 0.8798 -1.1356 0.8673
35.5597 1.7607 -1.1367 0.8672
35.5596 1.9812 -1.1370 0.8672
27.1517 1.6813 -0.8685 0.8968
26.2335 1.9504 -0.8398 0.9001
26.2096 2.1117 -0.8395 0.9001
26.1741 2.5984 -0.8397 0.9001
26.1669 2.9249 -0.8406 0.9000
26.1691 3.2533 -0.8419 0.8998
33.9476 4.4337 -1.0930 0.8720
35.5575 4.8678 -1.1458 0.8662
35.5573 5.0920 -1.1468 0.8661
35.5247 5.3117 -1.1467 0.8661
35.5740 5.5442 -1.1494 0.8658
35.5565 6.2192 -1.1524 0.8655
35.5564 6.4461 -1.1537 0.8654
35.5561 6.9013 -1.1563 0.8651
35.5559 7.1297 -1.1577 0.8649
35.5557 7.3587 -1.1592 0.8648
35.5552 8.0492 -1.1638 0.8642
35.5551 8.2807 -1.1655 0.8641
35.5549 8.5128 -1.1672 0.8639
35.5547 8.7455 -1.1689 0.8637
34.1068 8.8381 -1.1248 0.8685
35.5542 9.4482 -1.1745 0.8631
35.5540 9.6840 -1.1764 0.8629
35.5539 9.9205 -1.1784 0.8627
35.0199 10.4755 -1.1670 0.8639
34.0812 10.4248 -1.1378 0.8671
35.3400 11.0493 -1.1821 0.8623
35.3383 11.2891 -1.1844 0.8620
35.3365 11.5299 -1.1867 0.8618
35.3348 11.7716 -1.1890 0.8615
35.3341 12.2589 -1.1940 0.8610
35.3383 12.9997 -1.2021 0.8601
35.3398 13.2490 -1.2049 0.8598
56.3367 21.5191 -1.9253 0.7856
56.3365 21.9192 -1.9299 0.7851
56.2516 22.6912 -1.9365 0.7845
35.3733 14.5241 -1.2208 0.8581
34.9574 15.1172 -1.2159 0.8586
34.8195 15.3138 -1.2144 0.8588
34.6820 15.5100 -1.2129 0.8589
34.5447 15.7057 -1.2115 0.8591
34.7304 16.0500 -1.2215 0.8580
34.3213 16.9034 -1.2214 0.8580
33.9148 16.9646 -1.2106 0.8592
33.8576 17.7288 -1.2201 0.8582
33.8570 18.5368 -1.2323 0.8569
35.8746 20.2221 -1.3147 0.8481
35.5460 20.9152 -1.3167 0.8478
35.5454 21.8125 -1.3314 0.8463
34.0980 21.2157 -1.2821 0.8515
34.1143 21.5196 -1.2877 0.8509
34.0976 21.8050 -1.2921 0.8505
34.0971 22.4037 -1.3025 0.8494
34.1171 22.7201 -1.3086 0.8487
35.5436 24.3100 -1.3748 0.8417
35.5523 25.2966 -1.3930 0.8398
35.5426 25.6223 -1.3988 0.8392
35.5424 25.9577 -1.4051 0.8385
35.5422 26.2960 -1.4115 0.8378
30.3325 22.7332 -1.2102 0.8592
35.5417 26.9822 -1.4246 0.8365
34.0695 26.8753 -1.3854 0.8406
33.5941 26.8390 -1.3728 0.8419
35.5404 28.7558 -1.4595 0.8328
35.5401 29.1211 -1.4669 0.8320
26.8699 22.2959 -1.1147 0.8696
26.5074 22.2734 -1.1053 0.8706
26.1739 22.2708 -1.0972 0.8715
25.9392 22.3491 -1.0931 0.8719
25.9374 22.6286 -1.0989 0.8713
25.8248 23.6804 -1.1186 0.8692
36.5128 35.6205 -1.6285 0.8153
36.0637 35.6204 -1.6183 0.8164
34.7437 35.6140 -1.5884 0.8195
34.3166 35.6142 -1.5789 0.8204
33.4774 35.6145 -1.5605 0.8223
32.6575 35.6148 -1.5427 0.8242
31.0719 35.6155 -1.5089 0.8277
29.8983 36.4888 -1.5060 0.8280
29.8858 36.9371 -1.5169 0.8268
29.7552 41.8185 -1.6385 0.8143
29.7235 42.8872 -1.6659 0.8115
29.7072 43.4350 -1.6800 0.8101
29.6907 43.9922 -1.6944 0.8086
29.6739 44.5592 -1.7091 0.8071
29.6394 45.7232 -1.7396 0.8041
29.5844 47.5482 -1.7878 0.7992
29.5489 48.8274 -1.8221 0.7958
29.5121 50.1567 -1.8579 0.7922
29.4931 50.8413 -1.8765 0.7904
29.4505 52.2461 -1.9147 0.7866
29.4096 53.7161 -1.9551 0.7826
29.3885 54.4746 -1.9761 0.7806
29.3670 55.2496 -1.9976 0.7785
28.5099 54.4469 -1.9621 0.7820
29.3224 56.8515 -2.0422 0.7741
29.1987 61.1840 -2.1643 0.7624
29.1730 62.1156 -2.1909 0.7598
29.1467 63.0704 -2.2182 0.7573
2.1791 12.9289 -0.4186 0.9489
2.0908 12.8913 -0.4169 0.9491
2.0107 12.9019 -0.4169 0.9491
0.6996 56.5619 -1.8059 0.7974
0.3498 56.5623 -1.8058 0.7974
-0.0000 56.5628 -1.8058 0.7974
-0.3498 56.5632 -1.8058 0.7974
-0.4414 14.2716 -0.4558 0.9445
-0.5362 10.8291 -0.3461 0.9575
-0.6021 10.8059 -0.3455 0.9576
-0.7204 10.5733 -0.3383 0.9585
-0.8310 10.3142 -0.3304 0.9594
-1.0065 10.1385 -0.3253 0.9600
-1.0638 10.0811 -0.3236 0.9602
-0.5235 3.8238 -0.1232 0.9847
-0.5942 3.8126 -0.1232 0.9847
-0.5440 3.0004 -0.0974 0.9879
-0.5637 3.0036 -0.0976 0.9878
-0.6102 2.9482 -0.0961 0.9880
-0.6236 2.9219 -0.0954 0.9881
-0.6498 2.8703 -0.0940 0.9883
-0.6626 2.8451 -0.0933 0.9884
-0.7000 2.7717 -0.0913 0.9886
-0.7240 2.7244 -0.0900 0.9888
-0.7473 2.6785 -0.0888 0.9889
-0.7619 2.5470 -0.0849 0.9894
-0.7751 2.5338 -0.0846 0.9895
-0.8011 2.5077 -0.0840 0.9895
-0.8269 2.4820 -0.0835 0.9896
-0.8433 2.4799 -0.0836 0.9896
-0.8964 2.5330 -0.0858 0.9893
-0.9389 2.5524 -0.0868 0.9892
-0.9530 2.5422 -0.0867 0.9892
-0.9951 2.5115 -0.0862 0.9892
-1.0090 2.5014 -0.0861 0.9893
-1.0229 2.4913 -0.0860 0.9893
-1.0368 2.4812 -0.0859 0.9893
-1.0506 2.4712 -0.0857 0.9893
-1.1054 2.4313 -0.0853 0.9894
-1.1597 2.3918 -0.0849 0.9894
-1.1551 2.3453 -0.0835 0.9896
-1.1685 2.3359 -0.0834 0.9896
-1.1818 2.3265 -0.0833 0.9896
-1.2535 2.3235 -0.0843 0.9895
-1.2934 2.2945 -0.0841 0.9895
-1.3199 2.2753 -0.0840 0.9895
-1.3463 2.2560 -0.0839 0.9895
-1.3727 2.2369 -0.0838 0.9896
-1.4252 2.1986 -0.0836 0.9896
-1.4515 2.1795 -0.0836 0.9896
-1.4646 2.1700 -0.0836 0.9896
-1.4340 2.0419 -0.0797 0.9901
-1.4479 2.0348 -0.0797 0.9901
-1.4618 2.0277 -0.0798 0.9900
-1.4758 2.0206 -0.0799 0.9900
-1.5037 2.0063 -0.0800 0.9900
-1.5878 2.0387 -0.0825 0.9897
-1.6424 2.0300 -0.0834 0.9896
-1.6795 2.0240 -0.0840 0.9895
-1.6983 2.0211 -0.0843 0.9895
-1.7172 2.0181 -0.0846 0.9895
-1.7746 2.0089 -0.0856 0.9893
-1.7941 2.0058 -0.0859 0.9893
-1.8535 1.9964 -0.0870 0.9892
-1.8939 1.9900 -0.0877 0.9891
-1.9349 1.9834 -0.0885 0.9890
-1.9558 1.9801 -0.0889 0.9889
-1.9979 1.9734 -0.0897 0.9888
-2.0223 1.9729 -0.0902 0.9888
-2.0730 1.9729 -0.0914 0.9886
-2.0988 1.9729 -0.0920 0.9885
-2.1250 1.9729 -0.0926 0.9885
-2.1784 1.9728 -0.0938 0.9883
-2.2056 1.9728 -0.0945 0.9882
-2.2332 1.9728 -0.0951 0.9881
-2.2612 1.9728 -0.0958 0.9881
-2.2896 1.9727 -0.0965 0.9880
-2.3184 1.9727 -0.0972 0.9879
-2.4075 1.9727 -0.0994 0.9876
-2.4380 1.9726 -0.1001 0.9875
-2.4691 1.9726 -0.1009 0.9874
-2.5006 1.9726 -0.1017 0.9873
-2.5652 1.9725 -0.1033 0.9871
-2.6319 1.9725 -0.1050 0.9869
-2.7361 1.9724 -0.1077 0.9866
-2.7721 1.9724 -0.1086 0.9865
-2.8086 1.9724 -0.1096 0.9864
-2.8837 1.9723 -0.1115 0.9861
-2.9858 1.9355 -0.1136 0.9859
-3.0444 1.9204 -0.1149 0.9857
-3.3384 2.0771 -0.1255 0.9844
-3.4322 2.0771 -0.1281 0.9841
-3.6845 2.0769 -0.1350 0.9832
-3.7933 2.0768 -0.1381 0.9828
-3.9660 2.0767 -0.1429 0.9822
-4.0263 2.0767 -0.1446 0.9820
-4.0881 2.0766 -0.1464 0.9818
-4.1514 2.0766 -0.1482 0.9816
-4.1531 2.0454 -0.1478 0.9816
-4.3510 2.0764 -0.1539 0.9809
-4.6426 2.0762 -0.1624 0.9799
-4.6509 2.0455 -0.1622 0.9799
-4.6508 2.0112 -0.1618 0.9799
-4.6508 1.9772 -0.1613 0.9800
-4.8859 1.9709 -0.1682 0.9791
-5.0652 1.9708 -0.1735 0.9785
-5.1593 1.9707 -0.1763 0.9781
-5.2564 1.9706 -0.1792 0.9778
-5.9138 1.9702 -0.1990 0.9754
-6.1666 1.9700 -0.2067 0.9744
-6.7358 1.9696 -0.2240 0.9723
-7.2972 2.0361 -0.2419 0.9701
-7.9738 2.0137 -0.2626 0.9676
-8.4260 2.0726 -0.2770 0.9659
-8.4260 2.0174 -0.2766 0.9659
-8.4659 1.9165 -0.2771 0.9659
-8.9498 1.9680 -0.2926 0.9640
-26.8727 5.3885 -0.8750 0.8961
-26.8726 5.2158 -0.8739 0.8962
-26.8725 5.0436 -0.8729 0.8964
-26.8723 4.8717 -0.8719 0.8965
-26.8721 4.5291 -0.8700 0.8967
-26.8719 4.1880 -0.8683 0.8969
-26.8717 4.0179 -0.8674 0.8970
-26.8716 3.8481 -0.8666 0.8971
-26.8715 3.6787 -0.8659 0.8971
-26.8712 3.3406 -0.8645 0.8973
-26.8711 3.1720 -0.8638 0.8974
-26.8709 2.8354 -0.8626 0.8975
-26.8707 2.4998 -0.8616 0.8976
-26.8704 2.1649 -0.8606 0.8977
-26.8702 1.8307 -0.8598 0.8978
-26.8700 1.6638 -0.8595 0.8979
-26.8699 1.4971 -0.8592 0.8979
-53.1773 1.3157 -1.6982 0.8083
-52.9937 0.9833 -1.6921 0.8089
-52.9003 0.0000 -2.0821 0.8092
-26.8686 -0.3323 -1.0576 0.8980
-26.8685 -0.4985 -1.0577 0.8980
-26.8684 -0.6648 -1.0578 0.8980
-26.8680 -1.1638 -1.0585 0.8979
-26.8679 -1.3304 -1.0588 0.8979
-26.8676 -1.6637 -1.0595 0.8978
-26.8674 -1.9975 -1.0604 0.8978
-26.8673 -2.1647 -1.0609 0.8977
-26.8672 -2.3320 -1.0615 0.8977
-26.8670 -2.4995 -1.0620 0.8976
-26.7861 -2.8265 -1.0601 0.8978
-26.8666 -3.1714 -1.0648 0.8974
-26.8663 -3.5089 -1.0664 0.8972
-26.8658 -4.1870 -1.0702 0.8969
-26.8656 -4.5280 -1.0723 0.8967
-26.8652 -5.0422 -1.0759 0.8964
-26.8650 -5.3870 -1.0784 0.8961
-26.8647 -5.7334 -1.0812 0.8959
-26.8646 -5.9074 -1.0826 0.8957
-26.8645 -6.0817 -1.0841 0.8956
-26.8642 -6.4320 -1.0872 0.8953
-8.7997 -2.3385 -0.3584 0.9642
-8.3943 -2.2864 -0.3424 0.9658
-8.3228 -2.3779 -0.3407 0.9659
-8.1675 -2.4432 -0.3355 0.9664
-7.6466 -2.4428 -0.3160 0.9684
-6.6578 -2.3099 -0.2774 0.9722
-6.6035 -2.3369 -0.2757 0.9723
-6.4756 -2.3368 -0.2710 0.9728
-6.2326 -2.3366 -0.2620 0.9737
-6.1171 -2.3366 -0.2577 0.9741
-6.0052 -2.3365 -0.2536 0.9745
-5.8968 -2.3364 -0.2496 0.9749
-5.6899 -2.3363 -0.2421 0.9757
-5.4951 -2.3361 -0.2350 0.9764
-5.2234 -2.3359 -0.2252 0.9774
-4.8173 -2.3356 -0.2107 0.9788
-4.7422 -2.3356 -0.2081 0.9791
-4.5654 -2.2837 -0.2009 0.9798
-4.5478 -2.3101 -0.2008 0.9798
-4.5477 -2.3813 -0.2020 0.9797
-4.5477 -2.4173 -0.2027 0.9796
-4.5238 -2.4406 -0.2023 0.9796
-4.4576 -2.4405 -0.2000 0.9799
-4.3928 -2.4405 -0.1978 0.9801
-4.3294 -2.4404 -0.1956 0.9803
-4.2674 -2.4404 -0.1935 0.9805
-4.0499 -2.3829 -0.1849 0.9814
-4.0499 -2.4168 -0.1856 0.9813
-3.9765 -2.4402 -0.1836 0.9815
-3.9218 -2.4401 -0.1818 0.9817
-3.7641 -2.4400 -0.1766 0.9822
-3.7135 -2.4400 -0.1749 0.9824
-3.6152 -2.4399 -0.1717 0.9827
-3.4336 -2.3797 -0.1644 0.9834
-3.4189 -2.4010 -0.1644 0.9834
-3.2552 -2.4397 -0.1601 0.9838
-2.9683 -2.2825 -0.1474 0.9851
-2.9306 -2.2825 -0.1462 0.9852
-2.8935 -2.2825 -0.1451 0.9854
-2.8827 -2.3324 -0.1459 0.9853
-2.7091 -2.3341 -0.1407 0.9858
-2.6095 -2.3341 -0.1378 0.9861
-2.5772 -2.3340 -0.1369 0.9862
-2.5140 -2.3340 -0.1350 0.9864
-2.4524 -2.3340 -0.1333 0.9865
-2.3924 -2.3339 -0.1315 0.9867
-2.3339 -2.3339 -0.1299 0.9869
-2.2768 -2.3338 -0.1283 0.9870
-2.2488 -2.3338 -0.1276 0.9871
-2.2211 -2.3338 -0.1268 0.9872
-2.1667 -2.3338 -0.1253 0.9873
-2.1400 -2.3337 -0.1246 0.9874
-2.1135 -2.3337 -0.1239 0.9875
-2.0874 -2.3337 -0.1232 0.9875
-2.0615 -2.3337 -0.1226 0.9876
-2.0359 -2.3337 -0.1219 0.9877
-2.0106 -2.3336 -0.1212 0.9877
-1.9856 -2.3336 -0.1206 0.9878
-1.9609 -2.3336 -0.1200 0.9879
-1.9364 -2.3336 -0.1194 0.9879
-1.9121 -2.3336 -0.1187 0.9880
-1.8681 -2.3382 -0.1178 0.9881
-1.8471 -2.3415 -0.1174 0.9881
-1.6843 -2.3672 -0.1144 0.9884
-1.6449 -2.3734 -0.1137 0.9885
-1.6254 -2.3765 -0.1133 0.9885
-1.5294 -2.3916 -0.1117 0.9887
-1.5105 -2.3946 -0.1114 0.9887
-1.4545 -2.4034 -0.1106 0.9888
-1.4094 -2.3618 -0.1082 0.9891
-1.3942 -2.3695 -0.1082 0.9891
-1.3790 -2.3772 -0.1082 0.9891
-1.3487 -2.3926 -0.1081 0.9891
-1.3638 -2.5280 -0.1131 0.9886
-1.3347 -2.5490 -0.1133 0.9885
-1.3202 -2.5596 -0.1134 0.9885
-1.2616 -2.6021 -0.1138 0.9885
-1.2321 -2.6235 -0.1141 0.9885
-1.2173 -2.6342 -0.1142 0.9885
-1.2025 -2.6449 -0.1144 0.9884
-1.1877 -2.6557 -0.1145 0.9884
-1.1728 -2.6665 -0.1147 0.9884
-1.1429 -2.6882 -0.1150 0.9884
-1.1278 -2.6991 -0.1151 0.9884
-1.1120 -2.7084 -0.1152 0.9883
-1.0672 -2.6936 -0.1140 0.9885
-1.0521 -2.7042 -0.1142 0.9885
-1.0213 -2.7764 -0.1164 0.9882
-1.0059 -2.7876 -0.1166 0.9882
-0.9594 -2.8213 -0.1173 0.9881
-0.9437 -2.8327 -0.1175 0.9881
-0.9122 -2.8555 -0.1180 0.9881
-0.8964 -2.8670 -0.1182 0.9880
-0.8485 -2.9018 -0.1190 0.9880
-0.8324 -2.9134 -0.1193 0.9879
-0.7598 -2.8593 -0.1164 0.9882
-0.7343 -2.8338 -0.1152 0.9883
-0.7186 -2.8454 -0.1155 0.9883
-0.6884 -2.8754 -0.1164 0.9882
-0.6732 -2.8906 -0.1168 0.9882
-0.6187 -3.0854 -0.1239 0.9875
-0.6043 -3.1136 -0.1248 0.9874
-0.5897 -3.1421 -0.1258 0.9873
-0.5749 -3.1712 -0.1269 0.9872
-0.5445 -3.2307 -0.1290 0.9870
-0.4806 -3.3560 -0.1334 0.9865
-0.4603 -3.3623 -0.1336 0.9865
-0.4666 -4.1746 -0.1653 0.9833
-0.9096 -10.4796 -0.4140 0.9588
-0.5431 -10.9683 -0.4322 0.9570
-0.4752 -10.9711 -0.4322 0.9570
-0.4117 -11.0901 -0.4368 0.9565
-0.3500 -11.3146 -0.4456 0.9557
-0.3564 -14.4049 -0.5671 0.9440
-0.3713 -20.0086 -0.7877 0.9230
-0.7348 -59.4087 -2.3385 0.7883
0.3673 -59.3774 -2.3371 0.7884
1.8354 -59.3358 -2.3365 0.7885
2.5694 -59.3150 -2.3368 0.7885
2.9365 -59.3046 -2.3371 0.7884
4.0385 -59.2736 -2.3384 0.7883
4.4061 -59.2631 -2.3390 0.7883
5.1421 -59.2422 -2.3405 0.7882
5.5105 -59.2318 -2.3414 0.7881
5.8791 -59.2214 -2.3424 0.7880
6.6174 -59.2004 -2.3446 0.7878
6.9871 -59.1900 -2.3459 0.7877
8.8423 -59.1375 -2.3535 0.7871
9.2150 -59.1270 -2.3553 0.7870
9.5882 -59.1164 -2.3572 0.7868
2.1473 -10.7084 -0.4299 0.9572
2.1470 -10.3739 -0.4170 0.9585
2.1230 -9.9479 -0.4004 0.9601
2.1874 -9.9478 -0.4009 0.9600
2.8424 -12.2045 -0.4932 0.9511
2.1199 -8.8543 -0.3583 0.9642
2.1779 -8.8542 -0.3589 0.9642
2.2931 -8.8491 -0.3598 0.9641
2.3520 -8.8507 -0.3605 0.9640
2.4235 -8.8975 -0.3630 0.9638
2.4827 -8.8975 -0.3636 0.9637
2.5056 -7.8433 -0.3241 0.9676
2.5335 -7.7647 -0.3215 0.9678
3.2593 -8.8599 -0.3716 0.9629
3.3173 -8.8484 -0.3719 0.9629
3.4210 -8.9561 -0.3774 0.9623
3.4446 -8.8533 -0.3739 0.9627
5.1471 -12.7597 -0.5415 0.9464
5.1419 -12.5229 -0.5328 0.9473
5.1321 -12.0719 -0.5163 0.9488
5.1273 -11.8565 -0.5084 0.9496
5.1227 -11.6475 -0.5008 0.9503
5.1095 -11.0565 -0.4794 0.9524
5.1054 -10.8705 -0.4727 0.9531
5.0980 -10.5148 -0.4599 0.9543
5.0948 -10.3446 -0.4539 0.9549
5.0855 -9.8599 -0.4367 0.9566
5.0826 -9.7064 -0.4312 0.9571
5.0769 -9.4105 -0.4209 0.9581
5.0741 -9.2678 -0.4159 0.9586
5.0663 -8.8592 -0.4017 0.9600
5.0638 -8.7291 -0.3972 0.9604
5.0589 -8.4774 -0.3886 0.9613
5.0543 -8.2364 -0.3804 0.9621
5.0415 -7.5704 -0.3580 0.9642
5.0395 -7.4669 -0.3546 0.9646
5.0318 -7.0718 -0.3416 0.9659
5.0300 -6.9775 -0.3386 0.9662
5.0252 -6.7050 -0.3298 0.9670
5.0237 -6.6174 -0.3270 0.9673
5.0220 -6.5309 -0.3243 0.9676
5.0172 -6.2800 -0.3164 0.9683
5.0111 -5.9637 -0.3066 0.9693
5.0097 -5.8876 -0.3043 0.9695
5.0068 -5.7388 -0.2998 0.9700
5.0054 -5.6661 -0.2976 0.9702
5.0040 -5.5944 -0.2954 0.9704
5.0012 -5.4541 -0.2913 0.9708
5.0481 -5.3043 -0.2882 0.9711
5.3621 -5.2961 -0.2966 0.9703
5.4271 -5.2945 -0.2984 0.9701
5.4929 -5.2927 -0.3002 0.9699
5.6952 -5.2875 -0.3059 0.9694
5.7643 -5.2857 -0.3078 0.9692
5.8343 -5.2838 -0.3098 0.9690
5.9771 -5.2801 -0.3139 0.9686
6.0500 -5.2781 -0.3160 0.9684
6.1238 -5.2762 -0.3182 0.9682
6.2744 -5.2722 -0.3226 0.9677
6.3513 -5.2702 -0.3248 0.9675
6.4293 -5.2681 -0.3272 0.9673
6.5084 -5.2660 -0.3295 0.9670
6.5887 -5.2638 -0.3319 0.9668
6.6702 -5.2617 -0.3344 0.9666
7.0084 -5.2526 -0.3447 0.9655
7.0963 -5.2502 -0.3474 0.9653
7.1855 -5.2478 -0.3502 0.9650
7.2762 -5.2454 -0.3530 0.9647
7.6542 -5.2351 -0.3650 0.9636
7.7528 -5.2324 -0.3681 0.9633
7.8530 -5.2297 -0.3714 0.9629
8.0588 -5.2241 -0.3780 0.9623
34.7446 -22.2188 -1.6232 0.8478
34.9995 -21.7766 -1.6224 0.8479
34.1489 -20.9555 -1.5770 0.8518
26.8080 -16.2234 -1.2333 0.8821
26.8131 -15.7767 -1.2245 0.8829
26.8353 -15.3462 -1.2167 0.8836
26.9615 -15.1979 -1.2182 0.8835
27.3021 -15.1682 -1.2293 0.8825
27.7196 -15.1765 -1.2438 0.8812
31.5607 -17.0267 -1.4115 0.8663
33.5181 -17.8160 -1.4940 0.8590
35.5743 -18.3482 -1.5754 0.8519
35.5741 -18.0704 -1.5705 0.8524
35.5736 -17.5202 -1.5608 0.8532
35.5734 -17.2475 -1.5560 0.8536
33.5700 -15.0127 -1.4474 0.8631
34.0995 -14.9971 -1.4662 0.8615
33.9927 -14.4511 -1.4539 0.8626
34.5515 -14.4370 -1.4739 0.8608
35.1945 -14.4507 -1.4974 0.8587
35.5712 -14.0938 -1.5060 0.8580
35.5710 -13.8398 -1.5023 0.8583
35.5708 -13.5871 -1.4987 0.8586
35.5777 -13.0878 -1.4921 0.8592
35.5768 -12.8383 -1.4887 0.8595
35.5701 -12.5878 -1.4851 0.8598
34.0971 -11.5940 -1.4175 0.8657
35.5695 -11.8498 -1.4756 0.8606
34.1210 -10.9003 -1.4098 0.8664
35.5690 -11.1209 -1.4668 0.8614
35.5688 -10.8798 -1.4640 0.8617
35.5687 -10.6397 -1.4613 0.8619
35.5683 -10.1620 -1.4560 0.8624
34.1200 -9.5204 -1.3942 0.8678
35.5677 -9.2167 -1.4462 0.8632
34.1194 -8.6166 -1.3851 0.8686
35.2198 -8.4325 -1.4254 0.8650
35.9502 -8.3726 -1.4528 0.8626
36.9807 -8.3719 -1.4924 0.8592
26.7965 -5.3732 -1.0757 0.8964
26.7794 -4.8549 -1.0712 0.8968
26.7846 -4.3442 -1.0680 0.8971
26.7853 -4.0050 -1.0660 0.8973
26.7689 -3.3279 -1.0617 0.8976
26.7380 -3.1563 -1.0597 0.8978
26.7630 -2.8241 -1.0592 0.8979
26.7611 -2.6566 -1.0585 0.8979
26.7576 -2.1558 -1.0566 0.8981
26.7501 -1.8225 -1.0553 0.8982
26.8817 -1.6646 -1.0601 0.8978
35.5625 -1.9813 -1.4019 0.8671
35.5623 -1.7608 -1.4014 0.8672
35.5621 -1.5404 -1.4010 0.8672
35.5615 -0.6598 -1.3999 0.8673
35.5612 -0.2199 -1.3997 0.8673
35.5610 0.0000 -1.3997 0.8673
35.5609 0.2199 -1.3997 0.8673
35.5607 0.4399 -1.3998 0.8673
35.5604 0.8798 -1.4001 0.8673
33.6575 1.0411 -1.3254 0.8739
35.5599 1.5404 -1.4009 0.8672
35.5596 1.9812 -1.4018 0.8671
26.2470 1.6253 -1.0350 0.9001
27.4680 1.8714 -1.0836 0.8956
27.4757 2.0428 -1.0844 0.8956
27.4788 2.2139 -1.0851 0.8955
27.4860 2.3857 -1.0859 0.8954
27.4949 2.5579 -1.0869 0.8954
27.4944 2.7294 -1.0875 0.8953
27.4990 3.2461 -1.0899 0.8951
33.7367 4.4062 -1.3391 0.8727
35.5247 5.3117 -1.4138 0.8661
35.5660 5.5429 -1.4168 0.8658
35.5657 5.7684 -1.4181 0.8657
35.5655 5.9944 -1.4196 0.8656
35.5564 6.4461 -1.4223 0.8653
35.5562 6.6734 -1.4239 0.8652
35.5558 7.3587 -1.4291 0.8647
35.5554 7.8184 -1.4329 0.8644
35.5551 8.2806 -1.4369 0.8640
35.5549 8.5128 -1.4390 0.8639
34.0813 10.4248 -1.4028 0.8670
34.6304 10.8275 -1.4281 0.8648
34.5495 11.0372 -1.4276 0.8649
34.5615 11.2770 -1.4310 0.8646
35.5668 12.0938 -1.4786 0.8604
35.5681 12.3401 -1.4818 0.8601
35.5694 12.5875 -1.4851 0.8598
35.5721 13.0858 -1.4918 0.8592
56.3377 21.1212 -2.3681 0.7860
56.3375 21.5194 -2.3737 0.7855
35.0958 14.9200 -1.5010 0.8584
34.9575 15.1172 -1.4990 0.8586
34.8196 15.3139 -1.4972 0.8588
34.7709 16.0687 -1.5076 0.8578
54.7079 25.6939 -2.3789 0.7851
54.5465 26.0312 -2.3789 0.7851
33.8580 17.1988 -1.4947 0.8590
33.8576 17.7288 -1.5043 0.8581
35.8748 20.2222 -1.6209 0.8480
33.8450 19.3548 -1.5346 0.8555
33.8215 19.9005 -1.5445 0.8546
34.0742 20.3339 -1.5617 0.8531
34.0980 21.2157 -1.5807 0.8515
34.1145 21.5197 -1.5876 0.8509
34.0976 21.8050 -1.5930 0.8504
34.0774 22.0902 -1.5984 0.8500
34.0770 22.6934 -1.6114 0.8488
35.5110 24.6113 -1.7006 0.8412
33.3278 23.4047 -1.6029 0.8496
35.5364 25.2854 -1.7166 0.8398
30.2615 22.9736 -1.4954 0.8589
34.1475 26.2582 -1.6955 0.8416
33.2781 26.2510 -1.6683 0.8439
26.8667 21.7379 -1.3602 0.8708
25.9636 21.8164 -1.3348 0.8731
25.6112 22.0664 -1.3306 0.8734
25.8097 22.5172 -1.3481 0.8719
25.7803 22.7738 -1.3539 0.8714
25.7098 23.2839 -1.3652 0.8704
25.6119 23.7785 -1.3755 0.8694
25.5686 24.0343 -1.3812 0.8689
25.5758 24.6439 -1.3979 0.8675
36.5133 35.6211 -2.0077 0.8153
36.0643 35.6210 -1.9951 0.8163
35.1767 35.6146 -1.9703 0.8184
34.7444 35.6147 -1.9583 0.8194
34.3172 35.6149 -1.9466 0.8204
33.8952 35.6150 -1.9352 0.8213
33.4780 35.6152 -1.9239 0.8223
33.0657 35.6154 -1.9128 0.8232
32.2551 35.6157 -1.8913 0.8250
31.8565 35.6158 -1.8808 0.8259
30.6868 35.6163 -1.8504 0.8285
29.9109 36.0471 -1.8436 0.8290
29.8985 36.4890 -1.8567 0.8279
29.8860 36.9373 -1.8701 0.8268
29.8733 37.3921 -1.8837 0.8256
29.8473 38.3221 -1.9119 0.8233
29.7929 40.2686 -1.9716 0.8183
29.7787 40.7745 -1.9873 0.8170
29.7556 41.8192 -2.0201 0.8143
29.7077 43.4357 -2.0712 0.8101
29.6744 44.5599 -2.1072 0.8071
29.6399 45.7239 -2.1447 0.8040
29.6222 46.3217 -2.1641 0.8024
29.6014 46.9260 -2.1838 0.8008
29.5842 47.5479 -2.2041 0.7992
29.5666 48.1814 -2.2250 0.7975
29.5119 50.1563 -2.2905 0.7922
29.4929 50.8409 -2.3134 0.7903
29.4511 52.2471 -2.3606 0.7866
29.3188 52.7726 -2.3761 0.7853
28.9919 52.9531 -2.3761 0.7853
28.6640 53.1315 -2.3761 0.7853
28.3350 53.3081 -2.3762 0.7853
27.3414 53.8251 -2.3762 0.7853
27.0225 55.7344 -2.4379 0.7804
26.9955 56.5673 -2.4670 0.7781
26.9679 57.4202 -2.4969 0.7757
26.9389 58.2926 -2.5275 0.7733
26.5781 58.4587 -2.5275 0.7733
26.2161 58.6221 -2.5275 0.7733
25.8533 58.7836 -2.5276 0.7733
25.4894 58.9426 -2.5276 0.7733
24.3922 59.4069 -2.5276 0.7733
24.0244 59.5568 -2.5277 0.7733
22.9161 59.9938 -2.5277 0.7733
21.7998 60.4105 -2.5278 0.7733
21.4259 60.5447 -2.5278 0.7733
21.0513 60.6766 -2.5278 0.7733
20.6759 60.8063 -2.5279 0.7733
19.5450 61.1816 -2.5280 0.7733
19.1664 61.3019 -2.5280 0.7733
18.7872 61.4200 -2.5280 0.7733
18.0266 61.6493 -2.5281 0.7733
17.6452 61.7603 -2.5281 0.7733
17.2632 61.8692 -2.5281 0.7733
16.4971 62.0795 -2.5282 0.7733
15.3432 62.3775 -2.5283 0.7733
14.9574 62.4719 -2.5284 0.7733
14.5710 62.5644 -2.5284 0.7732
14.1840 62.6542 -2.5284 0.7732
13.4085 62.8273 -2.5285 0.7732
12.6308 62.9899 -2.5286 0.7732
12.2412 63.0679 -2.5286 0.7732
11.8511 63.1433 -2.5287 0.7732
11.4606 63.2166 -2.5287 0.7732
11.0696 63.2874 -2.5288 0.7732
2.0107 12.9014 -0.5139 0.9491
1.9398 12.9735 -0.5163 0.9488
8.7152 63.6616 -2.5290 0.7732
8.3215 63.7154 -2.5291 0.7732
7.9275 63.7670 -2.5291 0.7732
7.5331 63.8159 -2.5292 0.7732
7.1385 63.8626 -2.5292 0.7732
6.3483 63.9480 -2.5294 0.7732
5.5571 64.0249 -2.5295 0.7732
5.1613 64.0595 -2.5295 0.7732
4.7650 64.0914 -2.5296 0.7732
4.3687 64.1212 -2.5296 0.7732
3.3614 60.3324 -2.3783 0.7851
2.7786 56.1165 -2.2114 0.7986
2.6151 60.3723 -2.3784 0.7851
2.2418 60.3886 -2.3785 0.7851
1.8683 60.4027 -2.3786 0.7851
1.4232 57.5211 -2.2647 0.7943
-1.0628 57.2783 -2.2548 0.7951
-0.5639 18.2310 -0.7179 0.9296
-0.5362 10.8290 -0.4267 0.9575
-0.6021 10.8059 -0.4260 0.9576
-0.7204 10.5733 -0.4171 0.9585
-0.8310 10.3142 -0.4073 0.9594
-0.8901 10.2550 -0.4052 0.9596
-0.9486 10.1965 -0.4031 0.9598
-1.0065 10.1385 -0.4010 0.9600
-1.0042 8.9837 -0.3558 0.9645
-1.0566 8.9510 -0.3548 0.9646
-0.5235 3.8238 -0.1519 0.9847
-0.5471 3.8201 -0.1519 0.9847
-0.5706 3.8163 -0.1519 0.9847
-0.5942 3.8126 -0.1519 0.9847
-0.6178 3.8088 -0.1519 0.9847
-0.5178 3.0722 -0.1226 0.9876
-0.5440 3.0004 -0.1200 0.9879
-0.5827 3.0022 -0.1204 0.9878
-0.6236 2.9218 -0.1176 0.9881
-0.6368 2.8959 -0.1167 0.9882
-0.6498 2.8703 -0.1158 0.9883
-0.6752 2.8203 -0.1141 0.9885
-0.6877 2.7958 -0.1133 0.9885
-0.7240 2.7244 -0.1110 0.9888
-0.7357 2.7013 -0.1102 0.9889
-0.7619 2.5470 -0.1046 0.9894
-0.7751 2.5338 -0.1043 0.9894
-0.8011 2.5077 -0.1036 0.9895
-0.8269 2.4820 -0.1030 0.9896
-0.9240 2.5606 -0.1071 0.9892
-0.9389 2.5524 -0.1070 0.9892
-0.9530 2.5421 -0.1069 0.9892
-0.9671 2.5319 -0.1067 0.9892
-0.9811 2.5217 -0.1065 0.9892
-1.0090 2.5014 -0.1062 0.9893
-1.0229 2.4913 -0.1060 0.9893
-1.0506 2.4712 -0.1057 0.9893
-1.0643 2.4612 -0.1055 0.9893
-1.1054 2.4313 -0.1051 0.9894
-1.1190 2.4214 -0.1050 0.9894
-1.1326 2.4115 -0.1049 0.9894
-1.1461 2.4017 -0.1047 0.9894
-1.1597 2.3918 -0.1046 0.9894
-1.1551 2.3453 -0.1029 0.9896
-1.2535 2.3236 -0.1039 0.9895
-1.2668 2.3138 -0.1038 0.9895
-1.2934 2.2945 -0.1037 0.9895
-1.3067 2.2849 -0.1036 0.9895
-1.3331 2.2657 -0.1035 0.9895
-1.3595 2.2465 -0.1033 0.9895
-1.3727 2.2369 -0.1033 0.9895
-1.3858 2.2273 -0.1032 0.9896
-1.4252 2.1986 -0.1031 0.9896
-1.4383 2.1891 -0.1031 0.9896
-1.4514 2.1795 -0.1031 0.9896
-1.4646 2.1700 -0.1030 0.9896
-1.4340 2.0420 -0.0982 0.9901
-1.5520 2.0444 -0.1010 0.9898
-1.5698 2.0415 -0.1014 0.9897
-1.5878 2.0387 -0.1017 0.9897
-1.6609 2.0270 -0.1031 0.9896
-1.6983 2.0211 -0.1039 0.9895
-1.7171 2.0181 -0.1043 0.9894
-1.7362 2.0151 -0.1047 0.9894
-1.7553 2.0120 -0.1051 0.9894
-1.7746 2.0089 -0.1055 0.9893
-1.7941 2.0058 -0.1059 0.9893
-1.8137 2.0027 -0.1063 0.9892
-1.8335 1.9996 -0.1068 0.9892
-1.9768 1.9768 -0.1100 0.9889
-2.0475 1.9729 -0.1119 0.9887
-2.0730 1.9729 -0.1126 0.9886
-2.0988 1.9729 -0.1134 0.9885
-2.1515 1.9729 -0.1149 0.9884
-2.1784 1.9728 -0.1157 0.9883
-2.2613 1.9728 -0.1181 0.9881
-2.2896 1.9727 -0.1190 0.9880
-2.3185 1.9727 -0.1198 0.9879
-2.3477 1.9727 -0.1207 0.9878
-2.4075 1.9726 -0.1225 0.9876
-2.4380 1.9726 -0.1234 0.9875
-2.5327 1.9726 -0.1264 0.9872
-2.5652 1.9726 -0.1274 0.9871
-2.5983 1.9725 -0.1284 0.9870
-2.6660 1.9725 -0.1305 0.9868
-2.7008 1.9724 -0.1316 0.9867
-2.8086 1.9723 -0.1351 0.9864
-2.9223 1.9723 -0.1388 0.9860
-2.9616 1.9723 -0.1400 0.9859
-3.0444 1.9204 -0.1417 0.9857
-3.5221 2.0432 -0.1603 0.9838
-3.5269 2.0169 -0.1599 0.9839
-3.7383 2.0769 -0.1683 0.9830
-3.9660 2.0767 -0.1762 0.9822
-4.0263 2.0767 -0.1783 0.9820
-4.0881 2.0766 -0.1805 0.9818
-4.1514 2.0766 -0.1827 0.9816
-4.1531 2.0454 -0.1822 0.9816
-4.1590 2.0165 -0.1819 0.9817
-4.4929 2.0763 -0.1948 0.9804
-4.6509 2.0455 -0.2000 0.9799
-4.6509 2.0112 -0.1994 0.9799
-4.6508 1.9771 -0.1989 0.9800
-4.6743 1.9192 -0.1989 0.9800
-4.8859 1.9709 -0.2074 0.9791
-4.9742 1.9708 -0.2106 0.9788
-5.2564 1.9706 -0.2209 0.9778
-5.3567 1.9706 -0.2247 0.9774
-5.5679 1.9704 -0.2325 0.9766
-5.7944 1.9703 -0.2409 0.9758
-5.9138 1.9702 -0.2453 0.9754
-6.0379 1.9701 -0.2500 0.9749
-6.1666 1.9700 -0.2548 0.9744
-6.3005 1.9699 -0.2598 0.9739
-6.4397 1.9698 -0.2651 0.9734
-6.7358 1.9696 -0.2762 0.9723
-7.2972 2.0361 -0.2982 0.9701
-7.6150 2.0741 -0.3106 0.9689
-7.9282 2.0544 -0.3224 0.9677
-7.9739 2.0137 -0.3237 0.9676
-8.4260 2.0726 -0.3415 0.9659
-8.4259 1.9623 -0.3405 0.9660
-8.4659 1.9166 -0.3416 0.9658
-8.9499 1.9680 -0.3607 0.9640
-26.8727 5.3885 -1.0787 0.8961
-26.8726 5.2158 -1.0774 0.8962
-26.7971 4.0067 -1.0664 0.8972
-26.8716 3.8481 -1.0684 0.8970
-26.8710 3.0036 -1.0642 0.8974
-26.8707 2.6675 -1.0628 0.8975
-26.8705 2.3323 -1.0616 0.8977
-26.8701 1.8307 -1.0600 0.8978
-26.8699 1.4971 -1.0592 0.8979
-26.8698 1.3304 -1.0589 0.8979
-40.4439 1.5013 -1.5929 0.8504
-40.4996 1.2527 -1.5948 0.8503
-40.7080 1.0072 -1.6027 0.8496
-52.9783 0.9830 -2.0856 0.8089
-26.8686 -0.3323 -1.2575 0.8980
-26.8683 -0.6648 -1.2578 0.8980
-26.8682 -0.8311 -1.2580 0.8979
-26.8680 -1.1638 -1.2585 0.8979
-26.8679 -1.3304 -1.2589 0.8979
-26.8677 -1.4970 -1.2593 0.8978
-26.8675 -1.8305 -1.2603 0.8978
-26.8156 -1.9937 -1.2584 0.8979
-26.8153 -2.3275 -1.2596 0.8978
-26.8152 -2.4946 -1.2603 0.8978
-26.8149 -2.9973 -1.2627 0.8976
-26.8147 -3.1653 -1.2636 0.8975
-26.8653 -4.8704 -1.2777 0.8964
-26.8652 -5.0422 -1.2792 0.8963
-26.8650 -5.2144 -1.2807 0.8962
-26.8649 -5.3870 -1.2822 0.8961
-26.8647 -5.7334 -1.2855 0.8958
-26.8645 -5.9074 -1.2872 0.8957
-9.1005 -2.2385 -0.4386 0.9632
-8.9371 -2.2570 -0.4314 0.9638
-8.9232 -2.3123 -0.4314 0.9638
-8.7996 -2.3384 -0.4261 0.9642
-8.3942 -2.2864 -0.4071 0.9658
-7.8177 -2.2860 -0.3812 0.9679
-7.6415 -2.2858 -0.3733 0.9686
-7.4725 -2.2857 -0.3657 0.9692
-7.3102 -2.2856 -0.3584 0.9698
-7.0042 -2.2854 -0.3448 0.9709
-6.6578 -2.3099 -0.3298 0.9722
-6.6035 -2.3369 -0.3278 0.9723
-6.3521 -2.3367 -0.3167 0.9733
-6.2326 -2.3366 -0.3115 0.9737
-6.1170 -2.3365 -0.3064 0.9741
-6.0051 -2.3365 -0.3015 0.9745
-5.8968 -2.3364 -0.2968 0.9749
-5.7917 -2.3363 -0.2923 0.9753
-5.5911 -2.3362 -0.2836 0.9760
-5.4951 -2.3361 -0.2794 0.9764
-5.4019 -2.3360 -0.2754 0.9767
-5.3114 -2.3360 -0.2715 0.9770
-5.0544 -2.3358 -0.2606 0.9780
-4.9733 -2.3357 -0.2571 0.9782
-4.7422 -2.3356 -0.2474 0.9791
-4.5653 -2.2836 -0.2389 0.9798
-4.5477 -2.3456 -0.2395 0.9797
-4.4575 -2.4405 -0.2378 0.9799
-4.3294 -2.4404 -0.2326 0.9803
-4.0499 -2.4168 -0.2207 0.9813
-4.0323 -2.4402 -0.2206 0.9813
-3.9218 -2.4401 -0.2162 0.9817
-3.8682 -2.4401 -0.2140 0.9819
-3.8156 -2.4401 -0.2120 0.9820
-3.7641 -2.4400 -0.2099 0.9822
-3.6639 -2.4400 -0.2060 0.9825
-3.6152 -2.4399 -0.2041 0.9827
-3.4189 -2.4010 -0.1955 0.9834
-3.4289 -2.4398 -0.1969 0.9833
-3.3844 -2.4398 -0.1952 0.9834
-3.2552 -2.4397 -0.1904 0.9838
-2.9683 -2.2825 -0.1752 0.9851
-2.9306 -2.2825 -0.1738 0.9852
-2.8827 -2.3031 -0.1727 0.9853
-2.8827 -2.3324 -0.1735 0.9853
-2.7779 -2.3342 -0.1698 0.9856
-2.7432 -2.3342 -0.1686 0.9857
-2.6422 -2.3341 -0.1650 0.9860
-2.6095 -2.3340 -0.1638 0.9861
-2.5772 -2.3340 -0.1627 0.9862
-2.5454 -2.3340 -0.1616 0.9863
-2.4829 -2.3340 -0.1595 0.9864
-2.3924 -2.3339 -0.1564 0.9867
-2.3052 -2.3338 -0.1535 0.9870
-2.2768 -2.3338 -0.1526 0.9870
-2.2211 -2.3338 -0.1508 0.9872
-2.1937 -2.3338 -0.1499 0.9873
-2.1667 -2.3338 -0.1490 0.9873
-2.1400 -2.3337 -0.1482 0.9874
-2.1135 -2.3337 -0.1473 0.9875
-2.0874 -2.3337 -0.1465 0.9875
-2.0359 -2.3337 -0.1449 0.9877
-1.9856 -2.3336 -0.1434 0.9878
-1.9609 -2.3336 -0.1426 0.9879
-1.9121 -2.3336 -0.1412 0.9880
-1.8263 -2.3448 -0.1391 0.9882
-1.7850 -2.3513 -0.1382 0.9882
-1.7646 -2.3546 -0.1377 0.9883
-1.7444 -2.3577 -0.1373 0.9883
-1.7242 -2.3609 -0.1368 0.9884
-1.7042 -2.3641 -0.1364 0.9884
-1.6646 -2.3703 -0.1355 0.9885
-1.5867 -2.3826 -0.1340 0.9886
-1.5105 -2.3946 -0.1325 0.9887
-1.4917 -2.3976 -0.1321 0.9888
-1.4545 -2.4034 -0.1315 0.9888
-1.4094 -2.3618 -0.1287 0.9890
-1.3790 -2.3772 -0.1286 0.9891
-1.3638 -2.3849 -0.1286 0.9891
-1.3487 -2.3926 -0.1285 0.9891
-1.3336 -2.4003 -0.1285 0.9891
-1.3184 -2.4080 -0.1285 0.9891
-1.3638 -2.5280 -0.1344 0.9886
-1.3347 -2.5490 -0.1347 0.9885
-1.3056 -2.5702 -0.1349 0.9885
-1.2909 -2.5808 -0.1350 0.9885
-1.2616 -2.6021 -0.1353 0.9885
-1.2173 -2.6342 -0.1358 0.9884
-1.2025 -2.6449 -0.1360 0.9884
-1.1728 -2.6665 -0.1363 0.9884
-1.1578 -2.6774 -0.1365 0.9884
-1.1429 -2.6882 -0.1367 0.9884
-1.1278 -2.6991 -0.1369 0.9884
-1.1120 -2.7084 -0.1370 0.9883
-1.0673 -2.6936 -0.1356 0.9885
-1.0213 -2.7764 -0.1384 0.9882
-0.9905 -2.7988 -0.1389 0.9882
-0.9749 -2.8100 -0.1392 0.9882
-0.9594 -2.8213 -0.1395 0.9881
-0.9280 -2.8441 -0.1400 0.9881
-0.8805 -2.8785 -0.1409 0.9880
-0.8125 -2.9121 -0.1415 0.9880
-0.7343 -2.8338 -0.1370 0.9883
-0.6884 -2.8754 -0.1384 0.9882
-0.6732 -2.8906 -0.1389 0.9882
-0.6579 -2.9060 -0.1394 0.9881
-0.6467 -3.0304 -0.1450 0.9877
-0.6328 -3.0577 -0.1461 0.9876
-0.6187 -3.0854 -0.1473 0.9875
-0.5897 -3.1421 -0.1496 0.9873
-0.5599 -3.2007 -0.1521 0.9871
-0.5445 -3.2307 -0.1533 0.9870
-0.5290 -3.2613 -0.1546 0.9869
-0.4970 -3.3238 -0.1573 0.9866
-0.4806 -3.3560 -0.1587 0.9865
-0.4603 -3.3623 -0.1588 0.9865
-0.4387 -3.3588 -0.1585 0.9865
-0.4206 -3.3836 -0.1596 0.9864
-0.4152 -4.1827 -0.1967 0.9833
-0.9041 -10.4166 -0.4893 0.9590
-0.7264 -10.6625 -0.5001 0.9581
-0.6087 -10.9246 -0.5120 0.9571
-0.5469 -11.0455 -0.5175 0.9567
-0.4160 -11.2074 -0.5248 0.9561
-0.3579 -11.5725 -0.5418 0.9547
-0.4509 -18.2250 -0.8532 0.9296
-0.6760 -54.6526 -2.5578 0.8034
-0.3373 -54.5538 -2.5530 0.8038
0.3362 -54.3514 -2.5436 0.8044
0.6710 -54.2449 -2.5387 0.8047
1.0046 -54.1389 -2.5340 0.8051
1.3368 -54.0254 -2.5290 0.8054
1.6676 -53.9115 -2.5241 0.8057
1.9971 -53.7970 -2.5193 0.8061
2.6518 -53.5538 -2.5093 0.8068
3.6228 -53.1726 -2.4941 0.8078
3.9435 -53.0403 -2.4890 0.8082
4.8960 -52.6275 -2.4735 0.8092
5.2103 -52.4842 -2.4682 0.8096
5.5232 -52.3416 -2.4631 0.8100
7.6643 -51.2582 -2.4254 0.8126
8.2613 -50.9355 -2.4148 0.8133
2.1455 -11.0541 -0.5270 0.9559
2.1472 -10.7084 -0.5111 0.9572
2.1470 -10.3740 -0.4958 0.9585
2.1875 -9.9478 -0.4767 0.9600
2.1199 -8.8542 -0.4261 0.9642
2.1779 -8.8542 -0.4267 0.9641
2.3520 -8.8507 -0.4286 0.9640
2.5421 -8.8974 -0.4330 0.9636
2.6615 -8.8973 -0.4346 0.9635
2.7818 -8.8973 -0.4362 0.9634
2.5498 -7.6536 -0.3775 0.9682
2.6022 -7.6530 -0.3783 0.9681
3.4446 -8.8533 -0.4446 0.9627
5.1434 -12.5266 -0.6337 0.9472
5.1338 -12.0761 -0.6141 0.9488
5.1290 -11.8606 -0.6047 0.9496
5.1199 -11.4485 -0.5869 0.9510
5.1155 -11.2515 -0.5784 0.9517
5.0991 -10.5170 -0.5470 0.9543
5.0953 -10.3456 -0.5397 0.9549
5.0879 -10.0162 -0.5257 0.9560
5.0810 -9.7034 -0.5126 0.9571
5.0776 -9.5528 -0.5063 0.9576
5.0744 -9.4058 -0.5001 0.9581
5.0711 -9.2623 -0.4942 0.9586
5.0680 -9.1222 -0.4884 0.9591
5.0650 -8.9854 -0.4827 0.9595
5.0563 -8.5932 -0.4666 0.9609
5.0538 -8.4688 -0.4615 0.9613
5.0493 -8.2282 -0.4518 0.9621
5.0471 -8.1117 -0.4471 0.9625
5.0450 -7.9976 -0.4425 0.9628
5.0429 -7.8857 -0.4380 0.9632
5.0387 -7.6687 -0.4294 0.9639
5.0368 -7.5633 -0.4252 0.9643
5.0329 -7.3586 -0.4172 0.9649
5.0310 -7.2591 -0.4133 0.9653
5.0291 -7.1614 -0.4095 0.9656
5.0255 -6.9713 -0.4022 0.9662
5.0238 -6.8788 -0.3986 0.9665
5.0207 -6.6991 -0.3918 0.9670
5.0191 -6.6113 -0.3885 0.9673
5.0159 -6.4401 -0.3820 0.9678
5.0097 -6.1140 -0.3699 0.9688
5.0068 -5.9586 -0.3642 0.9693
5.0025 -5.7341 -0.3561 0.9700
4.9971 -5.4497 -0.3460 0.9708
4.9946 -5.3134 -0.3413 0.9712
5.0951 -5.2878 -0.3436 0.9710
5.2826 -5.2827 -0.3496 0.9705
5.4769 -5.2773 -0.3559 0.9700
5.5432 -5.2755 -0.3581 0.9698
5.7471 -5.2699 -0.3649 0.9693
5.9589 -5.2639 -0.3721 0.9687
6.0314 -5.2620 -0.3746 0.9685
6.1048 -5.2599 -0.3771 0.9682
6.1793 -5.2578 -0.3797 0.9680
6.2548 -5.2557 -0.3823 0.9678
6.4089 -5.2513 -0.3877 0.9674
6.5675 -5.2469 -0.3934 0.9669
6.6485 -5.2446 -0.3963 0.9667
6.7307 -5.2422 -0.3992 0.9664
7.1611 -5.2300 -0.4150 0.9651
7.2513 -5.2274 -0.4183 0.9648
7.3429 -5.2247 -0.4217 0.9646
7.6271 -5.2165 -0.4324 0.9637
7.9261 -5.2079 -0.4438 0.9627
26.7135 -16.6210 -1.4724 0.8816
26.7484 -16.1873 -1.4631 0.8823
26.7593 -15.9687 -1.4583 0.8827
26.7484 -15.7387 -1.4524 0.8831
26.7736 -15.5314 -1.4485 0.8834
27.3165 -14.7370 -1.4525 0.8831
33.9232 -17.7631 -1.7920 0.8578
33.9231 -17.4966 -1.7862 0.8583
33.9231 -17.2318 -1.7806 0.8587
33.9371 -15.4294 -1.7446 0.8613
33.9798 -15.1959 -1.7419 0.8615
34.0218 -14.9629 -1.7393 0.8617
33.3109 -14.4051 -1.6984 0.8647
33.9925 -14.4510 -1.7285 0.8625
34.3093 -14.0872 -1.7357 0.8620
34.5140 -13.6749 -1.7373 0.8619
34.6141 -13.4675 -1.7382 0.8618
34.8099 -13.0503 -1.7397 0.8617
34.8901 -12.8349 -1.7398 0.8617
34.9670 -12.6182 -1.7397 0.8617
35.0424 -12.4010 -1.7396 0.8617
34.1012 -11.1268 -1.6787 0.8662
34.1007 -10.4307 -1.6688 0.8669
