ply
format ascii 1.0
element vertex 1549
property float32 x
property float32 y
property float32 z
property float32 I
end_header
-15.5415 -1.5428 -1.3132 0.9392
-15.2433 -1.6085 -1.2888 0.9403
-14.6387 -1.6363 -1.2385 0.9426
-14.0796 -1.6620 -1.1921 0.9447
-13.5608 -1.6859 -1.1490 0.9466
-13.0782 -1.7081 -1.1090 0.9484
-12.6282 -1.7288 -1.0717 0.9501
-11.0845 -1.7275 -0.9433 0.9560
-9.6202 -1.8672 -0.8240 0.9614
-9.3695 -1.8788 -0.8035 0.9624
-9.0364 -1.9285 -0.7769 0.9636
-8.8992 -1.9569 -0.7662 0.9641
-8.7037 -1.9704 -0.7504 0.9648
-8.5260 -2.2657 -0.7418 0.9652
-8.4214 -2.3498 -0.7351 0.9655
-8.3185 -2.4324 -0.7287 0.9658
-8.2678 -2.4731 -0.7256 0.9660
-8.0425 -2.5146 -0.7085 0.9667
-8.0656 -2.5766 -0.7120 0.9666
-8.0441 -2.6247 -0.7115 0.9666
-8.0225 -2.6727 -0.7110 0.9666
-8.0010 -2.7205 -0.7106 0.9666
-7.9795 -2.7684 -0.7102 0.9667
-7.9580 -2.8162 -0.7098 0.9667
-7.9151 -2.9117 -0.7091 0.9667
-7.8937 -2.9594 -0.7088 0.9667
-7.8244 -3.0443 -0.7060 0.9669
-7.9471 -3.1488 -0.7188 0.9663
-7.9527 -3.2654 -0.7229 0.9661
-7.9555 -3.3241 -0.7250 0.9660
-7.9584 -3.3833 -0.7271 0.9659
-7.9343 -3.4312 -0.7269 0.9659
-7.9669 -3.5629 -0.7338 0.9656
-7.9499 -3.6739 -0.7364 0.9655
-7.8501 -3.7463 -0.7314 0.9657
-7.8678 -3.8749 -0.7374 0.9654
-8.0230 -4.0754 -0.7567 0.9645
-8.0734 -4.1640 -0.7638 0.9642
-8.1247 -4.2543 -0.7711 0.9639
-8.3841 -4.5903 -0.8037 0.9624
-9.3945 -5.2193 -0.9036 0.9578
-9.4092 -5.5364 -0.9180 0.9571
-8.9759 -5.5848 -0.8889 0.9585
-8.4260 -5.6112 -0.8512 0.9602
-8.2187 -5.6211 -0.8372 0.9608
-8.1176 -5.6260 -0.8305 0.9611
-7.8694 -5.5993 -0.8121 0.9620
-7.8145 -5.6334 -0.8100 0.9621
-7.8113 -5.7048 -0.8133 0.9619
-7.8079 -5.7767 -0.8167 0.9618
-7.6553 -5.7374 -0.8044 0.9623
-8.8557 -6.9857 -0.9484 0.9557
-8.6937 -7.1235 -0.9451 0.9559
-8.5906 -7.1282 -0.9386 0.9562
-8.4888 -7.1329 -0.9323 0.9565
-8.3884 -7.1375 -0.9261 0.9568
-8.2893 -7.1420 -0.9200 0.9570
-8.1915 -7.1465 -0.9141 0.9573
-8.0949 -7.1509 -0.9082 0.9576
-7.9996 -7.1552 -0.9024 0.9578
-7.9053 -7.1594 -0.8968 0.9581
-7.7721 -7.1268 -0.8867 0.9586
-7.7328 -7.1793 -0.8872 0.9585
-7.7276 -7.2639 -0.8918 0.9583
-7.5592 -7.2838 -0.8827 0.9587
-7.7124 -7.5239 -0.9060 0.9577
-8.6933 -8.6933 -1.0337 0.9518
-8.6981 -8.8064 -1.0408 0.9515
-8.5405 -8.8635 -1.0350 0.9518
-8.1442 -8.8817 -1.0132 0.9528
-8.0476 -8.8861 -1.0081 0.9530
-7.9520 -8.8904 -1.0029 0.9532
-7.6388 -8.8659 -0.9840 0.9541
-7.6230 -8.9590 -0.9891 0.9539
-7.6158 -9.0635 -0.9954 0.9536
-7.4714 -9.0041 -0.9838 0.9541
-8.3972 -10.5107 -1.1312 0.9474
-8.3587 -10.5962 -1.1348 0.9473
-8.3200 -10.6824 -1.1385 0.9471
-8.2180 -10.8249 -1.1428 0.9469
-8.3019 -11.2209 -1.1737 0.9455
-8.3378 -11.4165 -1.1887 0.9448
-8.2832 -11.6413 -1.2013 0.9443
-8.9966 -12.9809 -1.3280 0.9386
-4.8678 -7.5093 -0.7525 0.9647
-4.8319 -7.5559 -0.7541 0.9646
-5.3577 -8.6109 -0.8527 0.9601
-5.2438 -8.6651 -0.8516 0.9602
-5.1729 -8.6685 -0.8488 0.9603
-5.1025 -8.6718 -0.8460 0.9604
-5.0325 -8.6752 -0.8433 0.9605
-4.9629 -8.6785 -0.8406 0.9607
-4.7569 -8.6883 -0.8329 0.9610
-4.6216 -8.6948 -0.8280 0.9612
-4.5545 -8.6980 -0.8256 0.9614
-4.4879 -8.7013 -0.8232 0.9615
-4.3368 -8.6698 -0.8151 0.9618
-4.2690 -8.6680 -0.8125 0.9620
-2.4917 -5.1393 -0.4802 0.9773
-2.4148 -5.1416 -0.4776 0.9775
-2.3766 -5.1428 -0.4764 0.9775
-2.3387 -5.1439 -0.4751 0.9776
-2.3009 -5.1451 -0.4739 0.9776
-2.2633 -5.1462 -0.4727 0.9777
-2.2260 -5.1474 -0.4715 0.9777
-2.1888 -5.1485 -0.4704 0.9778
-2.1517 -5.1496 -0.4693 0.9778
-2.1149 -5.1508 -0.4682 0.9779
-2.0782 -5.1519 -0.4671 0.9779
-2.0417 -5.1530 -0.4661 0.9780
-2.0054 -5.1541 -0.4650 0.9780
-1.6849 -5.1640 -0.4567 0.9784
-1.6500 -5.1651 -0.4559 0.9785
-1.6152 -5.1662 -0.4551 0.9785
-1.4089 -5.1726 -0.4508 0.9787
-1.3409 -5.1747 -0.4495 0.9788
-1.3071 -5.1757 -0.4489 0.9788
-1.2734 -5.1768 -0.4483 0.9788
-1.2397 -5.1778 -0.4477 0.9789
-1.1727 -5.1799 -0.4466 0.9789
-1.1393 -5.1810 -0.4460 0.9789
-1.1059 -5.1820 -0.4455 0.9790
-1.0727 -5.1831 -0.4450 0.9790
-1.0395 -5.1841 -0.4446 0.9790
-0.9734 -5.1862 -0.4437 0.9790
-0.9075 -5.1883 -0.4429 0.9791
-0.8746 -5.1893 -0.4425 0.9791
-0.8091 -5.1913 -0.4418 0.9791
-0.7437 -5.1934 -0.4411 0.9792
-0.6785 -5.1955 -0.4406 0.9792
-0.6460 -5.1965 -0.4403 0.9792
-0.6135 -5.1975 -0.4401 0.9792
-0.5811 -5.1986 -0.4398 0.9792
-0.5487 -5.1996 -0.4396 0.9792
-0.5163 -5.2006 -0.4394 0.9792
-0.4516 -5.2027 -0.4391 0.9793
-0.4193 -5.2037 -0.4390 0.9793
-0.3224 -5.2068 -0.4386 0.9793
-0.2902 -5.2078 -0.4386 0.9793
-0.2579 -5.2088 -0.4385 0.9793
-0.2257 -5.2098 -0.4385 0.9793
-0.1934 -5.2109 -0.4385 0.9793
-0.1612 -5.2119 -0.4384 0.9793
-0.1290 -5.2129 -0.4385 0.9793
-0.0968 -5.2140 -0.4385 0.9793
-0.0645 -5.2150 -0.4385 0.9793
-0.0323 -5.2160 -0.4386 0.9793
0.0000 -5.2171 -0.4387 0.9793
0.0969 -5.2202 -0.4390 0.9793
0.1292 -5.2213 -0.4392 0.9793
0.1615 -5.2223 -0.4393 0.9792
0.2263 -5.2244 -0.4397 0.9792
0.2587 -5.2254 -0.4399 0.9792
0.2912 -5.2265 -0.4401 0.9792
0.3237 -5.2275 -0.4404 0.9792
0.3562 -5.2286 -0.4407 0.9792
0.4214 -5.2307 -0.4412 0.9792
0.4541 -5.2318 -0.4416 0.9791
0.5524 -5.2350 -0.4426 0.9791
0.5853 -5.2360 -0.4430 0.9791
2.5650 -18.7361 -1.5901 0.9269
2.9064 -18.6486 -1.5870 0.9270
3.1329 -18.5881 -1.5850 0.9271
3.2462 -18.5572 -1.5840 0.9272
3.4711 -18.4941 -1.5822 0.9272
3.5834 -18.4620 -1.5813 0.9273
3.6955 -18.4294 -1.5805 0.9273
3.8074 -18.3963 -1.5796 0.9274
4.0306 -18.3291 -1.5780 0.9274
4.1418 -18.2947 -1.5772 0.9275
4.2528 -18.2600 -1.5765 0.9275
4.4741 -18.1894 -1.5750 0.9276
4.5845 -18.1534 -1.5743 0.9276
5.0240 -18.0053 -1.5718 0.9277
5.1334 -17.9672 -1.5712 0.9277
5.3514 -17.8899 -1.5701 0.9278
5.6770 -17.7707 -1.5686 0.9279
5.8930 -17.6891 -1.5677 0.9279
6.0008 -17.6477 -1.5673 0.9279
6.1083 -17.6059 -1.5669 0.9279
6.2156 -17.5637 -1.5666 0.9279
6.3227 -17.5210 -1.5662 0.9280
6.4296 -17.4780 -1.5659 0.9280
6.5363 -17.4345 -1.5656 0.9280
6.7491 -17.3463 -1.5651 0.9280
6.8552 -17.3016 -1.5648 0.9280
6.9611 -17.2565 -1.5646 0.9280
7.0668 -17.2109 -1.5644 0.9280
7.1722 -17.1650 -1.5642 0.9280
7.2775 -17.1186 -1.5641 0.9281
7.3827 -17.0719 -1.5639 0.9281
7.5923 -16.9771 -1.5637 0.9281
8.0091 -16.7824 -1.5636 0.9281
8.5257 -16.5299 -1.5639 0.9281
9.2408 -16.1588 -1.5652 0.9280
9.3421 -16.1042 -1.5655 0.9280
9.4433 -16.0491 -1.5657 0.9280
9.5442 -15.9936 -1.5661 0.9280
9.7457 -15.8813 -1.5667 0.9279
9.8460 -15.8246 -1.5671 0.9279
9.9462 -15.7674 -1.5675 0.9279
10.0463 -15.7098 -1.5679 0.9279
10.2457 -15.5934 -1.5688 0.9278
10.4444 -15.4752 -1.5698 0.9278
10.7410 -15.2948 -1.5715 0.9277
10.9377 -15.1724 -1.5727 0.9277
11.1337 -15.0484 -1.5740 0.9276
11.2313 -14.9857 -1.5747 0.9276
11.4262 -14.8590 -1.5761 0.9275
11.8134 -14.6006 -1.5792 0.9274
12.0059 -14.4688 -1.5809 0.9273
12.1019 -14.4022 -1.5818 0.9273
12.1976 -14.3353 -1.5827 0.9272
12.2931 -14.2678 -1.5836 0.9272
12.3885 -14.2000 -1.5845 0.9271
12.6734 -13.9938 -1.5875 0.9270
12.8624 -13.8541 -1.5896 0.9269
12.9566 -13.7837 -1.5906 0.9269
13.0506 -13.7127 -1.5917 0.9268
13.2380 -13.5695 -1.5940 0.9267
13.3313 -13.4972 -1.5952 0.9267
13.4245 -13.4245 -1.5963 0.9266
13.6103 -13.2777 -1.5988 0.9265
13.8876 -13.0542 -1.6026 0.9263
13.9796 -12.9788 -1.6039 0.9263
14.1630 -12.8266 -1.6067 0.9262
14.4366 -12.5948 -1.6109 0.9260
14.5274 -12.5167 -1.6124 0.9259
14.6180 -12.4381 -1.6139 0.9258
14.7084 -12.3590 -1.6154 0.9258
14.7985 -12.2794 -1.6169 0.9257
14.9783 -12.1189 -1.6200 0.9256
15.1572 -11.9566 -1.6233 0.9254
15.2464 -11.8747 -1.6249 0.9254
15.3353 -11.7923 -1.6266 0.9253
15.4240 -11.7095 -1.6283 0.9252
15.6008 -11.5424 -1.6318 0.9251
15.6890 -11.4581 -1.6335 0.9250
15.7768 -11.3734 -1.6353 0.9249
15.9520 -11.2024 -1.6390 0.9247
16.0392 -11.1162 -1.6409 0.9247
16.2131 -10.9423 -1.6447 0.9245
16.3861 -10.7665 -1.6486 0.9243
16.6439 -10.4991 -1.6547 0.9240
16.8146 -10.3183 -1.6588 0.9239
16.9846 -10.1356 -1.6631 0.9237
17.0692 -10.0434 -1.6653 0.9236
17.1536 -9.9508 -1.6674 0.9235
17.2377 -9.8576 -1.6697 0.9234
18.3103 -8.5996 -1.7009 0.9220
18.3911 -8.4991 -1.7035 0.9219
18.4717 -8.3981 -1.7062 0.9218
18.5520 -8.2966 -1.7088 0.9217
18.6322 -8.1945 -1.7115 0.9215
18.7119 -8.0919 -1.7142 0.9214
18.8708 -7.8850 -1.7197 0.9212
18.9499 -7.7807 -1.7225 0.9211
19.0287 -7.6759 -1.7253 0.9209
19.1072 -7.5706 -1.7281 0.9208
19.2636 -7.3582 -1.7339 0.9206
19.3413 -7.2511 -1.7368 0.9204
19.4188 -7.1435 -1.7398 0.9203
19.7260 -6.7074 -1.7519 0.9198
19.3053 -5.6450 -1.6912 0.9224
20.3272 -5.8076 -1.7776 0.9186
20.6208 -5.3435 -1.7911 0.9180
20.9810 -4.7499 -1.8088 0.9173
21.0520 -4.6292 -1.8124 0.9171
21.1179 -4.5069 -1.8157 0.9170
21.1225 -4.3715 -1.8137 0.9171
21.1270 -4.2364 -1.8118 0.9171
19.3643 -3.7585 -1.6586 0.9239
19.3604 -3.5099 -1.6544 0.9241
19.3307 -3.1352 -1.6466 0.9244
21.1666 -3.0312 -1.7979 0.9177
21.1709 -2.8983 -1.7967 0.9178
21.1795 -2.6330 -1.7946 0.9179
21.1879 -2.3683 -1.7927 0.9180
21.1922 -2.2362 -1.7918 0.9180
21.1964 -2.1042 -1.7910 0.9181
21.2006 -1.9723 -1.7903 0.9181
21.2048 -1.8405 -1.7897 0.9181
21.2211 -1.5778 -1.7893 0.9181
21.2312 -1.4465 -1.7893 0.9181
21.2896 -1.3183 -1.7935 0.9179
21.3476 -1.1894 -1.7978 0.9178
21.4053 -1.0599 -1.8020 0.9176
21.4626 -0.9297 -1.8063 0.9174
18.6984 -0.6941 -1.5733 0.9276
18.7319 -0.5794 -1.5758 0.9275
18.7667 -0.3482 -1.5782 0.9274
18.7368 0.0000 -1.5755 0.9275
18.7654 0.1161 -1.5779 0.9274
18.7734 0.3483 -1.5788 0.9274
18.7856 0.4648 -1.5800 0.9273
18.8096 0.6983 -1.5827 0.9272
18.8310 0.9324 -1.5853 0.9271
18.8502 1.1672 -1.5880 0.9270
18.8604 1.4022 -1.5902 0.9269
18.7716 1.6293 -1.5843 0.9272
18.8115 1.7501 -1.5886 0.9270
18.7852 1.8649 -1.5873 0.9270
18.7866 1.9824 -1.5884 0.9270
18.8216 2.1039 -1.5925 0.9268
18.7885 2.2179 -1.5908 0.9269
18.9097 2.4697 -1.6035 0.9263
22.9866 3.2918 -1.9525 0.9110
23.0302 3.4435 -1.9580 0.9108
23.1994 4.0578 -1.9803 0.9098
23.2404 4.2133 -1.9860 0.9095
23.2808 4.3695 -1.9917 0.9093
23.3207 4.5265 -1.9975 0.9090
23.3600 4.6842 -2.0033 0.9088
23.5117 5.3227 -2.0270 0.9078
23.5481 5.4843 -2.0330 0.9075
23.5840 5.6466 -2.0391 0.9072
23.6539 5.9736 -2.0514 0.9067
23.6880 6.1383 -2.0576 0.9064
23.7865 6.6371 -2.0765 0.9056
23.8181 6.8049 -2.0828 0.9053
23.8490 6.9736 -2.0893 0.9051
23.9088 7.3133 -2.1023 0.9045
23.9378 7.4843 -2.1089 0.9042
23.9660 7.6562 -2.1155 0.9039
23.9936 7.8288 -2.1222 0.9037
24.1212 8.7044 -2.1562 0.9022
24.1446 8.8820 -2.1632 0.9019
24.1672 9.0604 -2.1702 0.9016
24.1892 9.2396 -2.1772 0.9013
24.2307 9.6005 -2.1915 0.9007
24.2692 9.9648 -2.2060 0.9000
24.2873 10.1482 -2.2133 0.8997
24.3211 10.5175 -2.2280 0.8991
24.3517 10.8902 -2.2430 0.8985
24.3658 11.0778 -2.2506 0.8981
24.4029 11.6457 -2.2736 0.8971
24.4235 12.0287 -2.2892 0.8965
24.4324 12.2214 -2.2970 0.8961
24.4404 12.4149 -2.3050 0.8958
24.4476 12.6094 -2.3130 0.8955
24.4538 12.8047 -2.3210 0.8951
24.4671 13.3957 -2.3454 0.8941
24.4696 13.5945 -2.3537 0.8937
24.4718 13.9946 -2.3704 0.8930
24.4643 14.8051 -2.4044 0.8916
24.4600 15.0099 -2.4131 0.8912
24.4546 15.2156 -2.4218 0.8908
24.4482 15.4221 -2.4305 0.8904
24.4118 16.2569 -2.4661 0.8889
24.4000 16.4677 -2.4752 0.8886
24.3871 16.6795 -2.4843 0.8882
24.3730 16.8920 -2.4935 0.8878
24.3579 17.1055 -2.5027 0.8874
24.3241 17.5349 -2.5213 0.8866
24.2647 18.1856 -2.5497 0.8854
24.2425 18.4042 -2.5593 0.8850
24.1944 18.8439 -2.5786 0.8842
24.1685 19.0650 -2.5884 0.8838
24.1414 19.2870 -2.5982 0.8833
24.0833 19.7335 -2.6180 0.8825
23.9515 20.6365 -2.6583 0.8808
23.9152 20.8643 -2.6686 0.8804
23.8776 21.0929 -2.6789 0.8800
23.8386 21.3224 -2.6893 0.8795
21.0327 19.2862 -2.3995 0.8918
20.4183 19.1931 -2.3563 0.8936
19.9733 19.2456 -2.3322 0.8946
19.4725 19.7148 -2.3300 0.8947
19.4636 19.9511 -2.3436 0.8941
19.4462 20.1815 -2.3565 0.8936
19.4542 20.4413 -2.3728 0.8929
19.4409 20.6820 -2.3867 0.8923
19.4165 21.1748 -2.4157 0.8911
19.4148 21.4376 -2.4319 0.8904
19.4137 21.7046 -2.4485 0.8897
19.4110 21.9736 -2.4653 0.8890
19.3452 23.0226 -2.5285 0.8863
22.2960 27.5565 -2.9805 0.8674
22.1313 28.0555 -3.0046 0.8664
22.0461 28.3058 -3.0168 0.8659
21.9593 28.5568 -3.0290 0.8654
21.9584 29.2985 -3.0786 0.8633
21.9740 30.0877 -3.1328 0.8611
21.9819 30.4928 -3.1607 0.8599
21.9982 31.3250 -3.2185 0.8576
22.0066 31.7526 -3.2484 0.8563
22.0237 32.6321 -3.3103 0.8538
21.9232 34.2823 -3.4216 0.8493
21.4149 35.3865 -3.4779 0.8470
21.2821 35.6633 -3.4921 0.8464
21.1473 35.9406 -3.5063 0.8459
20.8707 36.4957 -3.5350 0.8447
20.7288 36.7735 -3.5495 0.8441
20.5847 37.0517 -3.5640 0.8435
20.4382 37.3300 -3.5785 0.8430
20.1382 37.8870 -3.6078 0.8418
19.9846 38.1658 -3.6225 0.8412
19.8286 38.4445 -3.6372 0.8406
19.1804 39.5601 -3.6967 0.8382
19.0123 39.8389 -3.7117 0.8376
18.3145 40.9531 -3.7721 0.8352
17.9505 41.5092 -3.8026 0.8340
17.7646 41.7869 -3.8179 0.8334
17.5761 42.0642 -3.8333 0.8328
16.9953 42.8942 -3.8795 0.8309
16.5951 43.4455 -3.9105 0.8297
16.3910 43.7206 -3.9260 0.8291
15.7627 44.5419 -3.9729 0.8272
15.3307 45.0864 -4.0042 0.8260
15.1106 45.3576 -4.0199 0.8254
14.6625 45.8978 -4.0514 0.8241
13.9698 46.7013 -4.0988 0.8223
13.4946 47.2325 -4.1304 0.8210
13.2529 47.4965 -4.1462 0.8204
12.5112 48.2816 -4.1938 0.8186
12.2586 48.5408 -4.2096 0.8179
12.0033 48.7990 -4.2255 0.8173
11.4844 49.3111 -4.2572 0.8161
10.9546 49.8174 -4.2889 0.8149
10.6856 50.0686 -4.3048 0.8142
10.4139 50.3179 -4.3206 0.8136
10.1394 50.5657 -4.3364 0.8130
9.0149 51.5397 -4.3995 0.8106
8.7270 51.7788 -4.4152 0.8100
6.6381 53.3952 -4.5242 0.8057
6.3293 53.6175 -4.5397 0.8052
6.0179 53.8372 -4.5550 0.8046
5.7039 54.0547 -4.5704 0.8040
5.0685 54.4824 -4.6009 0.8028
4.4232 54.8996 -4.6311 0.8016
3.7681 55.3061 -4.6611 0.8005
3.1035 55.7017 -4.6909 0.7994
2.7676 55.8953 -4.7056 0.7988
2.0890 56.2732 -4.7349 0.7977
1.7463 56.4575 -4.7494 0.7971
0.7050 56.9920 -4.7925 0.7955
0.3535 57.1636 -4.8066 0.7950
-0.3556 57.4968 -4.8346 0.7939
-2.0269 54.6015 -4.5943 0.8031
-2.7167 54.8669 -4.6191 0.8021
-3.6450 53.4990 -4.5088 0.8063
-4.6466 53.5339 -4.5183 0.8060
-5.3168 53.5573 -4.5254 0.8057
-5.9892 53.5806 -4.5333 0.8054
-6.3263 53.5923 -4.5375 0.8052
-6.6640 53.6041 -4.5419 0.8051
-7.0025 53.6158 -4.5465 0.8049
-7.3416 53.6276 -4.5513 0.8047
-7.6814 53.6393 -4.5562 0.8045
-8.3634 53.6629 -4.5667 0.8041
-9.0486 53.6866 -4.5778 0.8037
-9.7372 53.7104 -4.5898 0.8032
-10.0829 53.7223 -4.5961 0.8030
-10.7773 53.7463 -4.6092 0.8025
-12.1722 53.7676 -4.6354 0.8015
-13.2290 53.7822 -4.6570 0.8007
-15.0375 53.8925 -4.7046 0.7988
-6.5956 22.5565 -1.9761 0.9100
-6.6904 22.3660 -1.9630 0.9105
-6.8573 21.9324 -1.9322 0.9119
-6.9532 21.7655 -1.9213 0.9124
-7.0643 21.6505 -1.9149 0.9126
-4.4633 13.1263 -1.1658 0.9459
-4.5526 13.1219 -1.1679 0.9458
-7.1554 20.2194 -1.8034 0.9175
-6.6994 18.5651 -1.6596 0.9238
-6.9153 18.4455 -1.6564 0.9240
-7.0632 18.4913 -1.6644 0.9236
-7.0773 16.9377 -1.5435 0.9290
-7.3467 16.9888 -1.5563 0.9284
-7.4744 16.9948 -1.5611 0.9282
-7.1636 14.7751 -1.3807 0.9362
-7.0719 14.3591 -1.3459 0.9378
-7.2692 14.0938 -1.3334 0.9383
-7.3663 13.8585 -1.3197 0.9389
-7.8303 13.6925 -1.3263 0.9386
-7.9120 13.6390 -1.3258 0.9387
-7.3997 12.5760 -1.2269 0.9431
-7.1782 12.0288 -1.1778 0.9453
-7.2162 11.2844 -1.1263 0.9477
-7.3667 11.0620 -1.1175 0.9480
-7.4576 10.9037 -1.1108 0.9484
-7.5026 10.8253 -1.1075 0.9485
-7.6628 10.7694 -1.1114 0.9483
-7.7312 10.7246 -1.1117 0.9483
-7.8682 10.6349 -1.1124 0.9483
-8.0055 10.5450 -1.1132 0.9482
-8.0742 10.5000 -1.1137 0.9482
-7.4772 9.3592 -1.0073 0.9531
-8.3236 10.2874 -1.1127 0.9483
-8.4206 10.2767 -1.1171 0.9481
-7.8507 9.3430 -1.0261 0.9522
-8.0081 9.2945 -1.0316 0.9519
-8.1134 9.2997 -1.0377 0.9517
-8.3277 9.3104 -1.0503 0.9511
-8.5472 9.3212 -1.0634 0.9505
-8.6590 9.3267 -1.0701 0.9502
-8.7508 9.3094 -1.0743 0.9500
-7.5728 7.8592 -0.9177 0.9571
-7.6384 7.6384 -0.9083 0.9576
-7.7382 7.6431 -0.9145 0.9573
-7.9399 7.5565 -0.9216 0.9570
-8.2692 7.5825 -0.9434 0.9560
-8.4895 7.5934 -0.9577 0.9553
-8.6021 7.5989 -0.9651 0.9550
-8.8327 7.6102 -0.9803 0.9543
-8.8364 7.5187 -0.9756 0.9545
-8.8709 7.4539 -0.9743 0.9546
-8.9375 7.4162 -0.9765 0.9545
-8.9463 7.2385 -0.9676 0.9549
-8.0018 6.3122 -0.8570 0.9599
-7.9254 6.1727 -0.8447 0.9605
-8.0088 6.1585 -0.8495 0.9603
-8.3045 6.0650 -0.8647 0.9596
-8.5383 6.0753 -0.8811 0.9588
-8.6586 6.0806 -0.8896 0.9584
-8.9064 6.0915 -0.9073 0.9576
-8.9519 5.9615 -0.9043 0.9577
-8.9559 5.8845 -0.9011 0.9579
-8.9638 5.7322 -0.8946 0.9582
-7.7760 4.6404 -0.7614 0.9643
-7.7364 4.5521 -0.7548 0.9646
-7.6590 4.3799 -0.7419 0.9652
-7.5721 4.2683 -0.7309 0.9657
-7.5650 4.2029 -0.7277 0.9659
-7.5510 4.0737 -0.7214 0.9661
-7.5304 3.8840 -0.7124 0.9666
-7.5308 3.8254 -0.7102 0.9667
-7.5418 3.7725 -0.7091 0.9667
-7.5529 3.7198 -0.7079 0.9668
-7.5748 3.6149 -0.7057 0.9669
-7.5857 3.5627 -0.7047 0.9669
-7.5966 3.5106 -0.7037 0.9670
-7.6074 3.4587 -0.7027 0.9670
-7.6817 3.3785 -0.7056 0.9669
-7.7336 3.2877 -0.7066 0.9668
-7.7596 3.2422 -0.7071 0.9668
-7.8901 3.0138 -0.7102 0.9667
-7.9118 2.9105 -0.7088 0.9667
-7.9554 2.8708 -0.7111 0.9666
-7.9992 2.8309 -0.7135 0.9665
-8.0435 2.7906 -0.7159 0.9664
-8.1327 2.7094 -0.7208 0.9662
-8.1778 2.6683 -0.7233 0.9661
-8.2232 2.6270 -0.7259 0.9659
-8.3701 2.5603 -0.7360 0.9655
-8.5988 2.4567 -0.7519 0.9647
-8.8220 2.4616 -0.7701 0.9639
-9.1325 2.4269 -0.7946 0.9628
-9.7089 2.4519 -0.8420 0.9606
-10.0278 2.4666 -0.8683 0.9594
-11.1168 2.5167 -0.9584 0.9553
-11.5318 2.5358 -0.9928 0.9537
-11.9777 2.5563 -1.0298 0.9520
-12.4583 2.5784 -1.0697 0.9502
-12.9776 2.6023 -1.1129 0.9483
-13.5405 2.6281 -1.1598 0.9461
-14.8219 2.6871 -1.2666 0.9413
-15.5553 2.7208 -1.3278 0.9386
-33.9568 5.5075 -2.8925 0.8710
-33.9879 4.8672 -2.8870 0.8713
-33.8939 4.6400 -2.8765 0.8717
-33.9042 4.4280 -2.8750 0.8718
-33.9248 4.0046 -2.8723 0.8719
-33.9351 3.7932 -2.8712 0.8719
-33.9761 2.9490 -2.8676 0.8721
-37.2337 2.9999 -3.1409 0.8608
-37.0999 2.7583 -3.1281 0.8613
-36.9653 2.5185 -3.1154 0.8618
-36.8299 2.2806 -3.1027 0.8623
-36.5566 1.8101 -3.0776 0.8634
-34.0476 1.4748 -2.8655 0.8721
-34.0987 0.4218 -2.8674 0.8721
-31.6118 -0.1955 -2.8946 0.8808
-31.3796 -0.5823 -2.8738 0.8816
-31.2625 -0.7735 -2.8635 0.8820
-31.1447 -0.9634 -2.8532 0.8824
-31.0263 -1.1518 -2.8429 0.8828
-30.6673 -1.7087 -2.8124 0.8839
-30.3029 -2.2529 -2.7824 0.8851
-30.1804 -2.4316 -2.7724 0.8855
-30.0572 -2.6089 -2.7626 0.8859
-29.9337 -2.7848 -2.7527 0.8863
-15.6551 -1.5541 -1.4405 0.9388
-14.3375 -1.6026 -1.3210 0.9437
-13.5854 -1.6889 -1.2535 0.9465
-13.1011 -1.7111 -1.2098 0.9483
-12.6495 -1.7317 -1.1691 0.9500
-12.2273 -1.7510 -1.1310 0.9516
-11.4602 -1.7861 -1.0620 0.9545
-11.1107 -1.8021 -1.0307 0.9558
-10.7813 -1.8171 -1.0011 0.9570
-10.4702 -1.8313 -0.9733 0.9582
-9.8972 -1.8576 -0.9221 0.9604
-9.1840 -1.9007 -0.8588 0.9630
-9.0426 -1.9299 -0.8466 0.9635
-8.6859 -2.0229 -0.8166 0.9648
-8.6415 -2.1256 -0.8148 0.9649
-8.5988 -2.1716 -0.8121 0.9650
-8.5561 -2.2172 -0.8093 0.9651
-8.5133 -2.2623 -0.8066 0.9652
-8.4270 -2.2953 -0.7997 0.9655
-8.3713 -2.3917 -0.7972 0.9656
-8.2693 -2.4736 -0.7903 0.9659
-8.0434 -2.5148 -0.7717 0.9667
-8.0440 -2.6246 -0.7748 0.9666
-7.9365 -2.8640 -0.7726 0.9667
-7.9150 -2.9117 -0.7722 0.9667
-7.8936 -2.9594 -0.7719 0.9667
-7.8293 -2.9906 -0.7674 0.9669
-7.8118 -3.1512 -0.7713 0.9667
-7.8059 -3.2050 -0.7727 0.9667
-7.8000 -3.2591 -0.7741 0.9666
-7.7821 -3.4226 -0.7784 0.9664
-7.8111 -3.6098 -0.7879 0.9660
-7.8246 -3.6749 -0.7915 0.9659
-7.8382 -3.7406 -0.7952 0.9657
-7.8519 -3.8069 -0.7990 0.9656
-7.8657 -3.8739 -0.8028 0.9654
-8.0189 -4.0733 -0.8236 0.9645
-8.1205 -4.2521 -0.8393 0.9639
-9.3892 -5.1406 -0.9801 0.9579
-9.3962 -5.2966 -0.9876 0.9576
-9.4036 -5.4551 -0.9954 0.9573
-9.4074 -5.5353 -0.9995 0.9571
-9.3348 -5.5706 -0.9954 0.9573
-9.2147 -5.5764 -0.9862 0.9577
-9.0967 -5.5822 -0.9773 0.9580
-8.7552 -5.5988 -0.9516 0.9591
-8.6450 -5.6040 -0.9434 0.9595
-8.5367 -5.6091 -0.9353 0.9598
-8.4303 -5.6141 -0.9274 0.9601
-8.3257 -5.6191 -0.9197 0.9605
-8.1217 -5.6288 -0.9048 0.9611
-8.0221 -5.6336 -0.8976 0.9614
-7.9242 -5.6383 -0.8905 0.9617
-7.7383 -5.6515 -0.8774 0.9622
-7.7347 -5.7226 -0.8810 0.9621
-8.7777 -6.8366 -1.0188 0.9563
-8.7871 -7.0202 -1.0299 0.9558
-8.6978 -7.1268 -1.0296 0.9558
-8.4926 -7.1361 -1.0157 0.9564
-8.2930 -7.1452 -1.0023 0.9570
-8.1951 -7.1496 -0.9958 0.9573
-7.6840 -7.1339 -0.9601 0.9588
-7.4760 -7.2933 -0.9563 0.9589
-7.6269 -7.5331 -0.9816 0.9579
-8.6409 -8.7485 -1.1259 0.9518
-8.4433 -8.8717 -1.1214 0.9520
-8.1474 -8.8852 -1.1038 0.9527
-7.9552 -8.8940 -1.0926 0.9532
-7.8605 -8.8982 -1.0872 0.9534
-7.5503 -8.8735 -1.0668 0.9543
-7.5217 -9.0647 -1.0786 0.9538
-7.3842 -9.0118 -1.0668 0.9543
-7.3251 -9.0533 -1.0663 0.9543
-8.3971 -10.5106 -1.2318 0.9474
-5.1741 -6.6432 -0.7710 0.9667
-5.0158 -6.6926 -0.7658 0.9670
-4.9633 -6.7084 -0.7641 0.9670
-4.9108 -6.7241 -0.7624 0.9671
-4.8583 -6.7394 -0.7607 0.9672
-4.8060 -6.7544 -0.7591 0.9673
-4.7538 -6.7692 -0.7574 0.9673
-4.5975 -6.8120 -0.7525 0.9675
-4.5926 -6.9896 -0.7658 0.9670
-4.5974 -7.0921 -0.7739 0.9666
-4.8319 -7.5559 -0.8212 0.9646
-4.8123 -7.6287 -0.8259 0.9644
-5.3072 -8.6486 -0.9291 0.9601
-5.2457 -8.6681 -0.9277 0.9601
-5.1042 -8.6748 -0.9216 0.9604
-5.0342 -8.6781 -0.9186 0.9605
-4.8955 -8.6847 -0.9129 0.9607
-4.8268 -8.6880 -0.9101 0.9609
-4.6906 -8.6946 -0.9046 0.9611
-4.4894 -8.7042 -0.8968 0.9614
-4.3988 -8.6597 -0.8894 0.9617
-4.3372 -8.6707 -0.8878 0.9618
-2.4927 -5.1412 -0.5232 0.9773
-2.4541 -5.1424 -0.5217 0.9774
-2.4157 -5.1436 -0.5203 0.9774
-2.3775 -5.1447 -0.5190 0.9775
-2.3018 -5.1470 -0.5163 0.9776
-2.1896 -5.1504 -0.5125 0.9778
-2.1157 -5.1527 -0.5100 0.9779
-2.0424 -5.1549 -0.5077 0.9780
-1.9338 -5.1582 -0.5044 0.9781
-1.7912 -5.1626 -0.5004 0.9783
-1.7558 -5.1637 -0.4994 0.9783
-1.6506 -5.1670 -0.4967 0.9784
-1.5812 -5.1691 -0.4950 0.9785
-1.5466 -5.1702 -0.4941 0.9786
-1.4094 -5.1744 -0.4911 0.9787
-1.3414 -5.1765 -0.4896 0.9787
-1.2738 -5.1787 -0.4883 0.9788
-1.2066 -5.1807 -0.4871 0.9789
-1.1731 -5.1818 -0.4865 0.9789
-1.1397 -5.1828 -0.4859 0.9789
-1.1063 -5.1838 -0.4854 0.9789
-1.0731 -5.1849 -0.4848 0.9790
-0.9737 -5.1880 -0.4833 0.9790
-0.9407 -5.1890 -0.4829 0.9790
-0.9078 -5.1901 -0.4824 0.9791
-0.8749 -5.1911 -0.4820 0.9791
-0.8094 -5.1932 -0.4813 0.9791
-0.7440 -5.1952 -0.4806 0.9791
-0.6788 -5.1973 -0.4799 0.9792
-0.6463 -5.1983 -0.4797 0.9792
-0.5813 -5.2004 -0.4791 0.9792
-0.5488 -5.2014 -0.4789 0.9792
-0.5165 -5.2024 -0.4787 0.9792
-0.4517 -5.2045 -0.4783 0.9792
-0.3871 -5.2065 -0.4781 0.9792
-0.2258 -5.2117 -0.4777 0.9793
-0.1935 -5.2127 -0.4776 0.9793
-0.1290 -5.2148 -0.4776 0.9793
-0.0968 -5.2158 -0.4777 0.9793
-0.0645 -5.2168 -0.4777 0.9793
-0.0322 -5.2179 -0.4778 0.9793
0.0646 -5.2210 -0.4781 0.9792
0.1940 -5.2252 -0.4788 0.9792
0.2588 -5.2272 -0.4792 0.9792
0.3564 -5.2304 -0.4800 0.9792
0.4216 -5.2325 -0.4807 0.9791
0.5197 -5.2357 -0.4818 0.9791
0.5526 -5.2368 -0.4822 0.9791
2.4236 -17.7029 -1.6361 0.9307
2.5314 -17.6764 -1.6351 0.9308
2.6390 -17.6495 -1.6341 0.9308
2.7464 -17.6221 -1.6331 0.9309
2.8537 -17.5943 -1.6321 0.9309
2.9608 -17.5662 -1.6311 0.9309
3.0675 -17.5375 -1.6302 0.9310
3.1742 -17.5085 -1.6293 0.9310
3.3869 -17.4492 -1.6276 0.9311
3.9150 -17.2936 -1.6236 0.9313
4.3341 -17.1617 -1.6208 0.9314
4.4384 -17.1277 -1.6201 0.9314
4.6463 -17.0584 -1.6189 0.9314
4.9567 -16.9515 -1.6172 0.9315
5.1627 -16.8782 -1.6161 0.9316
5.3679 -16.8032 -1.6152 0.9316
5.5724 -16.7266 -1.6143 0.9316
5.6744 -16.6877 -1.6139 0.9316
5.7761 -16.6484 -1.6136 0.9317
5.9789 -16.5686 -1.6129 0.9317
6.0801 -16.5280 -1.6126 0.9317
6.1811 -16.4871 -1.6123 0.9317
6.5830 -16.3193 -1.6113 0.9318
6.6830 -16.2763 -1.6111 0.9318
6.7828 -16.2330 -1.6109 0.9318
6.9819 -16.1450 -1.6106 0.9318
7.0811 -16.1005 -1.6105 0.9318
7.1801 -16.0555 -1.6104 0.9318
7.2790 -16.0101 -1.6104 0.9318
7.3776 -15.9644 -1.6103 0.9318
7.6725 -15.8246 -1.6103 0.9318
8.1600 -15.5835 -1.6107 0.9318
8.4502 -15.4341 -1.6112 0.9318
8.5466 -15.3834 -1.6114 0.9318
8.8345 -15.2291 -1.6121 0.9317
8.9301 -15.1769 -1.6124 0.9317
9.1207 -15.0712 -1.6130 0.9317
9.2157 -15.0177 -1.6134 0.9317
9.3105 -14.9639 -1.6137 0.9317
9.4996 -14.8549 -1.6145 0.9316
9.5938 -14.7998 -1.6150 0.9316
9.9688 -14.5754 -1.6169 0.9315
10.0621 -14.5183 -1.6174 0.9315
10.2480 -14.4028 -1.6186 0.9315
10.5255 -14.2264 -1.6204 0.9314
10.6176 -14.1669 -1.6211 0.9314
10.8013 -14.0464 -1.6225 0.9313
11.4378 -13.6120 -1.6280 0.9311
11.7076 -13.4195 -1.6307 0.9310
11.7971 -13.3545 -1.6316 0.9309
11.9756 -13.2233 -1.6335 0.9308
12.3302 -12.9558 -1.6377 0.9307
12.5062 -12.8195 -1.6399 0.9306
12.6815 -12.6815 -1.6422 0.9305
12.7688 -12.6118 -1.6433 0.9304
12.8559 -12.5417 -1.6445 0.9304
12.9428 -12.4713 -1.6458 0.9303
13.2023 -12.2572 -1.6496 0.9302
13.2884 -12.1849 -1.6509 0.9301
13.6306 -11.8917 -1.6563 0.9299
13.7156 -11.8173 -1.6577 0.9299
13.8005 -11.7425 -1.6592 0.9298
13.8851 -11.6672 -1.6606 0.9297
14.3882 -11.2063 -1.6699 0.9294
14.6368 -10.9698 -1.6749 0.9292
14.8015 -10.8099 -1.6783 0.9290
14.9652 -10.6482 -1.6818 0.9289
15.2092 -10.4023 -1.6872 0.9287
15.2900 -10.3194 -1.6891 0.9286
15.6112 -9.9832 -1.6967 0.9283
15.8496 -9.7262 -1.7027 0.9280
16.0074 -9.5524 -1.7069 0.9279
16.3201 -9.1994 -1.7154 0.9275
16.3976 -9.1100 -1.7176 0.9274
16.4749 -9.0200 -1.7198 0.9273
16.5520 -8.9296 -1.7221 0.9272
16.9337 -8.4704 -1.7337 0.9268
17.0845 -8.2833 -1.7385 0.9266
17.1595 -8.1890 -1.7410 0.9265
17.2343 -8.0942 -1.7434 0.9264
17.3088 -7.9990 -1.7460 0.9263
17.3831 -7.9032 -1.7485 0.9262
17.4571 -7.8069 -1.7510 0.9261
17.5308 -7.7101 -1.7536 0.9260
17.6775 -7.5151 -1.7588 0.9257
17.7504 -7.4168 -1.7615 0.9256
17.8231 -7.3181 -1.7642 0.9255
17.8955 -7.2188 -1.7669 0.9254
17.9676 -7.1190 -1.7696 0.9253
18.0394 -7.0187 -1.7724 0.9252
18.1822 -6.8166 -1.7780 0.9250
18.2532 -6.7147 -1.7809 0.9249
18.3239 -6.6124 -1.7837 0.9247
18.4644 -6.4061 -1.7896 0.9245
18.5342 -6.3022 -1.7925 0.9244
18.6038 -6.1978 -1.7955 0.9243
19.0821 -5.4518 -1.8172 0.9234
19.2160 -5.2339 -1.8236 0.9231
19.2825 -5.1241 -1.8269 0.9230
19.4146 -4.9030 -1.8335 0.9227
19.4801 -4.7915 -1.8369 0.9226
19.6747 -4.4540 -1.8471 0.9222
19.7389 -4.3404 -1.8506 0.9220
19.8028 -4.2263 -1.8541 0.9219
19.9296 -3.9963 -1.8612 0.9216
19.3308 -3.6281 -1.8009 0.9240
19.3060 -3.5000 -1.7966 0.9242
19.3115 -3.3778 -1.7951 0.9243
19.3279 -3.2576 -1.7947 0.9243
20.3014 -3.2927 -1.8832 0.9207
20.4826 -2.9332 -1.8946 0.9202
20.6015 -2.6906 -1.9024 0.9199
20.7771 -2.3224 -1.9143 0.9195
21.0057 -1.8232 -1.9306 0.9188
21.0619 -1.6971 -1.9348 0.9186
21.1177 -1.5700 -1.9390 0.9185
21.1730 -1.4426 -1.9432 0.9183
18.7019 -0.6942 -1.7136 0.9276
18.7435 -0.5797 -1.7171 0.9274
18.7204 -0.4632 -1.7147 0.9275
18.7476 0.0000 -1.7166 0.9275
21.2405 0.1313 -1.9449 0.9182
21.2445 0.2628 -1.9454 0.9182
21.2484 0.3943 -1.9460 0.9182
21.2524 0.5258 -1.9466 0.9182
21.2603 0.7892 -1.9481 0.9181
21.2800 1.4498 -1.9530 0.9179
18.7914 1.7482 -1.7281 0.9270
18.8304 2.3410 -1.7375 0.9266
21.3269 2.7854 -1.9694 0.9172
21.3334 2.9205 -1.9716 0.9171
21.3897 3.1982 -1.9803 0.9168
21.4255 3.3392 -1.9855 0.9166
21.4607 3.4807 -1.9907 0.9164
21.4953 3.6229 -1.9960 0.9162
21.5960 4.0533 -2.0120 0.9155
21.6284 4.1980 -2.0174 0.9153
21.6604 4.3433 -2.0228 0.9151
21.6917 4.4893 -2.0283 0.9149
21.7526 4.7833 -2.0394 0.9144
21.7822 4.9312 -2.0450 0.9142
21.8397 5.2290 -2.0563 0.9137
21.9473 5.8323 -2.0794 0.9128
21.9726 5.9847 -2.0852 0.9126
21.9974 6.1379 -2.0911 0.9123
22.0449 6.4461 -2.1031 0.9119
22.0677 6.6011 -2.1091 0.9116
22.1522 7.2280 -2.1336 0.9107
22.1717 7.3863 -2.1399 0.9104
22.2086 7.7051 -2.1525 0.9099
22.2260 7.8654 -2.1588 0.9096
22.2586 8.1882 -2.1717 0.9091
22.2738 8.3505 -2.1781 0.9089
22.2883 8.5135 -2.1847 0.9086
22.3274 9.0066 -2.2045 0.9078
22.3389 9.1722 -2.2112 0.9076
22.3597 9.5056 -2.2247 0.9070
22.3849 10.0107 -2.2453 0.9062
22.3918 10.1804 -2.2523 0.9059
22.4110 10.8658 -2.2805 0.9048
22.4136 11.0388 -2.2877 0.9045
22.4155 11.2125 -2.2950 0.9042
22.4165 11.3869 -2.3022 0.9039
22.4166 11.5619 -2.3095 0.9037
22.4143 11.9139 -2.3243 0.9031
22.4084 12.2686 -2.3392 0.9025
22.3988 12.6260 -2.3544 0.9019
22.3926 12.8056 -2.3620 0.9016
22.3776 13.1669 -2.3774 0.9010
22.3586 13.5308 -2.3930 0.9003
22.3477 13.7137 -2.4008 0.9000
22.3358 13.8973 -2.4088 0.8997
22.3230 14.0815 -2.4167 0.8994
22.3091 14.2664 -2.4247 0.8991
22.2942 14.4519 -2.4328 0.8988
22.2435 15.0123 -2.4572 0.8978
22.2044 15.3890 -2.4737 0.8972
22.1832 15.5783 -2.4821 0.8968
22.1378 15.9589 -2.4989 0.8962
22.0879 16.3418 -2.5159 0.8955
22.0614 16.5343 -2.5244 0.8952
22.0337 16.7273 -2.5331 0.8948
21.9748 17.1152 -2.5504 0.8942
21.9438 17.3100 -2.5592 0.8938
21.9114 17.5055 -2.5680 0.8935
21.8780 17.7015 -2.5769 0.8931
21.8433 17.8981 -2.5858 0.8928
21.8075 18.0953 -2.5947 0.8924
21.7322 18.4914 -2.6128 0.8917
21.7179 19.1850 -2.6534 0.8901
21.7249 19.6750 -2.6838 0.8889
21.4020 19.6249 -2.6588 0.8899
20.2805 19.3012 -2.5636 0.8936
20.0669 19.3358 -2.5516 0.8941
19.5783 19.3376 -2.5197 0.8954
19.4971 19.4971 -2.5247 0.8952
19.4762 19.7185 -2.5378 0.8946
19.4619 20.4493 -2.5849 0.8928
19.4480 20.6896 -2.6000 0.8922
19.4386 20.9375 -2.6160 0.8916
19.4296 21.1891 -2.6324 0.8909
19.4214 21.4449 -2.6492 0.8903
21.8259 24.7074 -3.0186 0.8760
19.3491 23.0273 -2.7541 0.8862
21.3912 26.1064 -3.0904 0.8732
21.3060 26.3329 -3.1016 0.8728
21.2192 26.5598 -3.1128 0.8724
21.1306 26.7870 -3.1241 0.8719
21.0405 27.0146 -3.1354 0.8715
20.8549 27.4706 -3.1581 0.8706
20.6626 27.9278 -3.1810 0.8698
20.5637 28.1568 -3.1926 0.8693
20.4632 28.3860 -3.2042 0.8689
20.1508 29.0749 -3.2392 0.8675
20.0431 29.3050 -3.2509 0.8671
19.9335 29.5351 -3.2627 0.8666
19.8222 29.7655 -3.2746 0.8662
19.1151 31.1497 -3.3465 0.8635
18.8642 31.6114 -3.3707 0.8625
18.4736 32.3041 -3.4075 0.8612
18.2034 32.7654 -3.4321 0.8602
17.9254 33.2264 -3.4569 0.8593
17.4932 33.9165 -3.4943 0.8579
17.1951 34.3756 -3.5195 0.8569
17.0430 34.6047 -3.5321 0.8565
16.8888 34.8335 -3.5447 0.8560
16.7326 35.0620 -3.5573 0.8555
16.5743 35.2903 -3.5700 0.8550
16.2516 35.7455 -3.5955 0.8541
16.0871 35.9725 -3.6082 0.8536
15.5811 36.6507 -3.6466 0.8522
15.0561 37.3242 -3.6852 0.8507
14.6956 37.7703 -3.7110 0.8498
14.3265 38.2137 -3.7369 0.8488
14.1387 38.4344 -3.7498 0.8483
13.9488 38.6542 -3.7628 0.8478
13.7568 38.8734 -3.7758 0.8474
13.3663 39.3090 -3.8017 0.8464
12.5594 40.1697 -3.8538 0.8445
12.3522 40.3824 -3.8668 0.8440
12.1430 40.5943 -3.8798 0.8435
11.5023 41.2228 -3.9188 0.8421
11.2845 41.4301 -3.9318 0.8416
10.3915 42.2466 -3.9836 0.8397
10.1630 42.4475 -3.9966 0.8392
9.6995 42.8450 -4.0224 0.8382
9.4646 43.0416 -4.0353 0.8378
9.2275 43.2367 -4.0482 0.8373
8.9884 43.4304 -4.0610 0.8368
8.7472 43.6224 -4.0738 0.8364
8.5038 43.8128 -4.0866 0.8359
8.0110 44.1887 -4.1121 0.8349
7.7615 44.3742 -4.1248 0.8345
7.2563 44.7397 -4.1502 0.8336
7.0008 44.9198 -4.1628 0.8331
6.4835 45.2742 -4.1879 0.8322
5.1559 46.1254 -4.2498 0.8299
4.8846 46.2895 -4.2621 0.8295
3.5000 47.0761 -4.3225 0.8273
3.2177 47.2265 -4.3344 0.8268
2.6476 47.5198 -4.3579 0.8260
2.3600 47.6629 -4.3696 0.8256
1.7797 47.9412 -4.3928 0.8247
1.1928 48.2092 -4.4157 0.8239
0.8969 48.3392 -4.4270 0.8235
0.5995 48.4664 -4.4382 0.8231
0.0000 48.7125 -4.4604 0.8223
-1.2166 49.1706 -4.5037 0.8207
-1.5242 49.2778 -4.5143 0.8203
-1.8331 49.3819 -4.5248 0.8200
-2.7677 49.6758 -4.5557 0.8189
-3.0817 49.7676 -4.5657 0.8185
-4.3487 50.1023 -4.6049 0.8171
-4.6681 50.1777 -4.6144 0.8168
-5.3097 50.3185 -4.6330 0.8161
-5.6318 50.3839 -4.6422 0.8158
-5.9548 50.4457 -4.6512 0.8154
-6.2786 50.5041 -4.6600 0.8151
-6.6032 50.5591 -4.6688 0.8148
-6.9285 50.6103 -4.6774 0.8145
-7.5811 50.7024 -4.6942 0.8139
-8.5643 50.8134 -4.7184 0.8130
-10.5417 50.9355 -4.7628 0.8115
-11.2027 50.9461 -4.7764 0.8110
-11.5333 50.9455 -4.7829 0.8107
-12.8556 50.9049 -4.8075 0.8099
-13.1858 50.8849 -4.8132 0.8097
-13.8456 50.8334 -4.8242 0.8093
-14.1751 50.8017 -4.8294 0.8091
-6.6743 22.3121 -2.1325 0.9107
-6.7577 22.0925 -2.1154 0.9114
-6.8546 21.9239 -2.1033 0.9119
-6.5274 20.4328 -1.9641 0.9174
-6.5733 20.1456 -1.9403 0.9184
-4.3896 13.1765 -1.2717 0.9457
-4.4616 13.1212 -1.2690 0.9459
-6.7085 18.5903 -1.8097 0.9237
-6.7808 18.4329 -1.7984 0.9241
-6.9277 18.4786 -1.8070 0.9238
-7.3293 18.4984 -1.8219 0.9232
-6.8610 17.0085 -1.6793 0.9290
-6.9498 16.9263 -1.6754 0.9291
-7.3442 16.9830 -1.6942 0.9284
-7.7295 17.0010 -1.7100 0.9277
-7.0229 15.1967 -1.5329 0.9350
-6.9889 14.8807 -1.5054 0.9361
-7.0695 14.3542 -1.4651 0.9378
-7.1495 14.2930 -1.4633 0.9378
-7.2083 14.1906 -1.4574 0.9381
-7.5000 13.9021 -1.4464 0.9385
-7.6640 13.7949 -1.4450 0.9386
-7.7458 13.7413 -1.4444 0.9386
-7.9093 13.6344 -1.4433 0.9386
-7.3972 12.5718 -1.3356 0.9431
-7.3127 11.7529 -1.2675 0.9459
-7.3185 11.1384 -1.2203 0.9479
-7.4099 10.9792 -1.2129 0.9482
-7.5002 10.8219 -1.2056 0.9485
-7.5251 10.7156 -1.1990 0.9488
-7.7286 10.7209 -1.2102 0.9483
-7.8656 10.6312 -1.2109 0.9483
-7.9102 10.5545 -1.2077 0.9484
-7.3763 9.3508 -1.0905 0.9533
-8.3204 10.2835 -1.2112 0.9483
-7.8178 9.5410 -1.1294 0.9517
-7.8426 9.4514 -1.1246 0.9519
-7.8487 9.3406 -1.1171 0.9522
-8.2163 9.3010 -1.1364 0.9514
-8.5434 9.3170 -1.1575 0.9505
-8.7489 9.3074 -1.1696 0.9500
-7.4862 7.8660 -0.9943 0.9573
-8.8531 9.0748 -1.1609 0.9504
-7.5365 7.6304 -0.9820 0.9578
-7.8358 7.6443 -1.0024 0.9570
-7.9381 7.5548 -1.0034 0.9569
-8.0084 7.5278 -1.0064 0.9568
-8.1576 7.5736 -1.0192 0.9563
-8.3744 7.5843 -1.0345 0.9556
-8.8282 7.6063 -1.0670 0.9543
-8.8666 7.4503 -1.0605 0.9545
-8.9357 7.4146 -1.0632 0.9544
-8.9402 7.3254 -1.0583 0.9546
-7.6034 6.1519 -0.8956 0.9615
-8.9532 7.0626 -1.0442 0.9552
-8.0105 6.0813 -0.9209 0.9604
-8.0204 6.0110 -0.9178 0.9605
-8.1864 6.0567 -0.9324 0.9599
-8.2999 6.0617 -0.9411 0.9596
-8.4157 6.0668 -0.9499 0.9592
-8.5336 6.0719 -0.9590 0.9588
-8.6538 6.0772 -0.9683 0.9584
-8.7763 6.0825 -0.9777 0.9580
-8.9462 6.0379 -0.9883 0.9576
-8.9542 5.8834 -0.9810 0.9579
-8.9621 5.7312 -0.9741 0.9582
-8.9660 5.6558 -0.9707 0.9583
-8.4407 5.2518 -0.9103 0.9609
-7.7887 4.7796 -0.8367 0.9640
-7.8163 4.7302 -0.8366 0.9640
-7.7759 4.6403 -0.8292 0.9643
-7.7362 4.5520 -0.8219 0.9646
-7.6972 4.4652 -0.8148 0.9649
-7.5710 4.2677 -0.7958 0.9657
-7.5430 4.0094 -0.7822 0.9663
-7.5362 3.9462 -0.7789 0.9664
-7.5291 3.8246 -0.7733 0.9666
-7.5512 3.7190 -0.7707 0.9668
-7.5949 3.5099 -0.7661 0.9670
-7.6166 3.4062 -0.7640 0.9670
-7.7054 3.3322 -0.7687 0.9668
-7.8094 3.1502 -0.7711 0.9667
-7.8355 3.1045 -0.7717 0.9667
-7.8878 3.0129 -0.7732 0.9667
-7.9524 2.8697 -0.7741 0.9666
-8.1542 2.8857 -0.7920 0.9659
-8.2674 2.8112 -0.7996 0.9655
-8.3828 2.7352 -0.8074 0.9652
-8.4413 2.6967 -0.8114 0.9650
-8.5955 2.5712 -0.8215 0.9646
-8.5656 2.5046 -0.8172 0.9648
-8.5942 2.4554 -0.8184 0.9647
-8.8143 2.4594 -0.8379 0.9639
-9.1243 2.4247 -0.8645 0.9628
-9.3948 2.4345 -0.8887 0.9618
-9.6941 2.4482 -0.9155 0.9606
-10.7115 2.4947 -1.0071 0.9568
-11.5111 2.5312 -1.0792 0.9538
-11.9555 2.5515 -1.1194 0.9521
-12.4342 2.5734 -1.1627 0.9503
-15.5180 2.7143 -1.4425 0.9387
-33.8469 5.4896 -3.1397 0.8713
-33.8780 4.8515 -3.1337 0.8716
-33.6576 3.7622 -3.1011 0.8728
-33.5581 3.5411 -3.0898 0.8732
-33.4578 3.3214 -3.0786 0.8737
-32.9410 2.2443 -3.0233 0.8758
-32.8348 2.0332 -3.0123 0.8762
-32.7277 1.8234 -3.0014 0.8766
-32.6198 1.6151 -2.9905 0.8771
-32.5110 1.4083 -2.9797 0.8775
-32.4013 1.2028 -2.9689 0.8779
-32.2909 0.9988 -2.9582 0.8783
-28.7217 0.0000 -2.8451 0.8910
-28.6274 -0.1770 -2.8358 0.8913
-28.5322 -0.3529 -2.8266 0.8916
-28.2426 -0.8736 -2.7990 0.8926
-28.0460 -1.2149 -2.7808 0.8933
-27.9467 -1.3838 -2.7717 0.8936
-27.8467 -1.5515 -2.7627 0.8939
-27.7462 -1.7181 -2.7537 0.8943
-27.3375 -2.3728 -2.7182 0.8956
-27.2340 -2.5336 -2.7094 0.8959
-15.6572 -1.6521 -1.5596 0.9387
-15.1618 -1.6947 -1.5113 0.9405
-13.9934 -1.6518 -1.3958 0.9449
-13.1241 -1.7141 -1.3111 0.9482
-12.6709 -1.7346 -1.2669 0.9499
-11.8505 -1.7719 -1.1869 0.9530
-11.4778 -1.7888 -1.1507 0.9544
-10.7969 -1.8198 -1.0846 0.9569
-10.1899 -1.8473 -1.0258 0.9592
-9.9104 -1.8600 -0.9988 0.9603
-9.6452 -1.8721 -0.9733 0.9613
-9.0489 -1.9312 -0.9165 0.9635
-8.6382 -2.0118 -0.8786 0.9650
-8.5686 -2.0516 -0.8728 0.9652
-8.5000 -2.0907 -0.8671 0.9654
-8.3652 -2.1677 -0.8560 0.9659
-8.2402 -2.2992 -0.8474 0.9662
-8.1611 -2.3863 -0.8423 0.9664
-8.1219 -2.4295 -0.8398 0.9665
-8.0440 -2.6246 -0.8382 0.9666
-7.9794 -2.7684 -0.8366 0.9666
-7.9364 -2.8639 -0.8358 0.9667
-7.9150 -2.9117 -0.8354 0.9667
-7.8936 -2.9593 -0.8351 0.9667
-7.8050 -3.2047 -0.8358 0.9667
-7.7931 -3.3130 -0.8388 0.9665
-7.7871 -3.3675 -0.8404 0.9665
-7.7812 -3.4222 -0.8420 0.9664
-7.9085 -3.8344 -0.8706 0.9653
-8.1162 -4.2499 -0.9075 0.9638
-9.3909 -5.2173 -1.0642 0.9577
-9.3981 -5.3744 -1.0724 0.9574
-9.4057 -5.5343 -1.0810 0.9571
-9.1017 -5.5853 -1.0578 0.9580
-8.9857 -5.5909 -1.0483 0.9584
-8.8718 -5.5964 -1.0391 0.9587
-8.7597 -5.6017 -1.0300 0.9591
-8.5411 -5.6120 -1.0124 0.9598
-8.3300 -5.6220 -0.9955 0.9604
-8.2271 -5.6269 -0.9873 0.9607
-8.1258 -5.6317 -0.9793 0.9610
-8.0262 -5.6364 -0.9715 0.9613
-7.7812 -5.6094 -0.9502 0.9622
-7.6869 -5.6140 -0.9429 0.9625
-7.6628 -5.6693 -0.9442 0.9624
-7.6589 -5.7401 -0.9481 0.9623
-7.6549 -5.8114 -0.9520 0.9621
-7.4936 -5.7623 -0.9364 0.9627
-8.5983 -6.6968 -1.0796 0.9571
-8.6075 -6.8767 -1.0913 0.9567
-8.6122 -6.9681 -1.0974 0.9564
-8.5984 -7.1348 -1.1068 0.9561
-8.3959 -7.1439 -1.0920 0.9567
-8.2967 -7.1484 -1.0848 0.9569
-8.1987 -7.1528 -1.0778 0.9572
-8.1021 -7.1572 -1.0709 0.9575
-8.0066 -7.1615 -1.0641 0.9577
-7.9123 -7.1657 -1.0574 0.9580
-7.8191 -7.1698 -1.0509 0.9583
-7.7271 -7.1739 -1.0445 0.9585
-7.5969 -7.1411 -1.0328 0.9590
-7.5660 -7.2007 -1.0346 0.9589
-7.5599 -7.2845 -1.0399 0.9587
-7.3934 -7.3025 -1.0294 0.9591
-7.4005 -7.4926 -1.0432 0.9586
-8.5121 -8.7253 -1.2075 0.9522
-8.5170 -8.8390 -1.2159 0.9519
-8.4467 -8.8753 -1.2137 0.9519
-8.2484 -8.8844 -1.2009 0.9524
-8.0540 -8.8932 -1.1885 0.9529
-7.5532 -8.8770 -1.1546 0.9542
-7.4625 -8.8811 -1.1491 0.9544
-7.2091 -9.0236 -1.1441 0.9546
-5.1563 -6.6204 -0.8312 0.9668
-5.0305 -6.6263 -0.8241 0.9671
-4.5991 -6.7243 -0.8070 0.9678
-4.6036 -6.8211 -0.8152 0.9675
-4.6177 -7.1235 -0.8409 0.9665
-4.8319 -7.5559 -0.8884 0.9646
-5.3614 -8.6169 -1.0053 0.9600
-5.2475 -8.6711 -1.0040 0.9601
-5.1060 -8.6778 -0.9974 0.9603
-4.6922 -8.6975 -0.9789 0.9611
-4.6247 -8.7007 -0.9761 0.9612
-4.5576 -8.7039 -0.9732 0.9613
-4.4909 -8.7071 -0.9705 0.9614
-4.3377 -8.6717 -0.9605 0.9618
-2.4551 -5.1444 -0.5646 0.9773
-2.3784 -5.1467 -0.5616 0.9775
-2.1533 -5.1535 -0.5533 0.9778
-2.1165 -5.1546 -0.5520 0.9779
-2.0797 -5.1557 -0.5507 0.9779
-2.0432 -5.1568 -0.5495 0.9780
-2.0068 -5.1579 -0.5482 0.9780
-1.9706 -5.1591 -0.5471 0.9780
-1.9346 -5.1602 -0.5459 0.9781
-1.8272 -5.1634 -0.5426 0.9782
-1.6512 -5.1688 -0.5375 0.9784
-1.6164 -5.1699 -0.5366 0.9785
-1.5817 -5.1710 -0.5357 0.9785
-1.5471 -5.1721 -0.5348 0.9785
-1.4440 -5.1752 -0.5322 0.9786
-1.4099 -5.1763 -0.5314 0.9787
-1.3419 -5.1784 -0.5299 0.9787
-1.3080 -5.1794 -0.5292 0.9788
-1.2743 -5.1805 -0.5285 0.9788
-1.1735 -5.1836 -0.5265 0.9789
-1.1401 -5.1846 -0.5259 0.9789
-1.1067 -5.1857 -0.5253 0.9789
-1.0735 -5.1867 -0.5247 0.9789
-1.0402 -5.1878 -0.5241 0.9790
-0.9740 -5.1898 -0.5231 0.9790
-0.9411 -5.1909 -0.5226 0.9790
-0.9081 -5.1919 -0.5221 0.9790
-0.7442 -5.1971 -0.5201 0.9791
-0.7116 -5.1981 -0.5197 0.9791
-0.6790 -5.1991 -0.5194 0.9791
-0.6140 -5.2012 -0.5188 0.9792
-0.5490 -5.2032 -0.5183 0.9792
-0.3872 -5.2083 -0.5174 0.9792
-0.3226 -5.2104 -0.5171 0.9792
-0.2903 -5.2114 -0.5170 0.9792
-0.2581 -5.2125 -0.5170 0.9792
-0.1936 -5.2145 -0.5169 0.9792
-0.1291 -5.2166 -0.5169 0.9792
-0.0968 -5.2176 -0.5169 0.9792
-0.0646 -5.2187 -0.5170 0.9792
-0.0323 -5.2197 -0.5171 0.9792
0.0000 -5.2207 -0.5172 0.9792
0.0646 -5.2228 -0.5174 0.9792
0.0969 -5.2238 -0.5176 0.9792
0.1293 -5.2249 -0.5177 0.9792
0.1940 -5.2270 -0.5181 0.9792
0.2589 -5.2291 -0.5186 0.9792
0.3891 -5.2333 -0.5198 0.9791
0.4544 -5.2354 -0.5206 0.9791
0.4871 -5.2365 -0.5210 0.9791
0.5200 -5.2375 -0.5214 0.9791
0.5528 -5.2386 -0.5218 0.9790
0.5857 -5.2397 -0.5223 0.9790
2.0917 -16.8244 -1.6794 0.9341
2.1943 -16.8006 -1.6784 0.9342
2.2967 -16.7765 -1.6773 0.9342
2.3990 -16.7519 -1.6763 0.9342
2.5011 -16.7269 -1.6754 0.9343
2.6029 -16.7015 -1.6744 0.9343
2.8062 -16.6495 -1.6725 0.9344
2.9075 -16.6229 -1.6716 0.9344
3.0087 -16.5958 -1.6707 0.9345
3.1097 -16.5684 -1.6699 0.9345
3.3111 -16.5123 -1.6682 0.9345
3.4115 -16.4836 -1.6674 0.9346
3.5118 -16.4545 -1.6667 0.9346
3.6118 -16.4251 -1.6659 0.9346
3.8113 -16.3649 -1.6645 0.9347
4.1093 -16.2716 -1.6624 0.9348
5.0904 -15.9346 -1.6570 0.9350
5.3812 -15.8256 -1.6558 0.9350
5.7663 -15.6749 -1.6544 0.9351
5.9577 -15.5971 -1.6539 0.9351
6.0531 -15.5577 -1.6536 0.9351
6.1484 -15.5178 -1.6534 0.9351
6.2435 -15.4776 -1.6532 0.9351
6.4331 -15.3959 -1.6529 0.9351
6.5276 -15.3545 -1.6527 0.9351
6.6219 -15.3126 -1.6526 0.9351
6.9037 -15.1848 -1.6523 0.9351
6.9973 -15.1413 -1.6523 0.9352
7.1839 -15.0534 -1.6523 0.9352
7.3698 -14.9638 -1.6523 0.9352
7.4625 -14.9185 -1.6524 0.9351
7.5549 -14.8727 -1.6524 0.9351
7.8312 -14.7331 -1.6528 0.9351
7.9229 -14.6857 -1.6529 0.9351
8.1057 -14.5899 -1.6533 0.9351
8.3786 -14.4433 -1.6540 0.9351
8.5596 -14.3435 -1.6546 0.9351
8.9192 -14.1393 -1.6560 0.9350
9.0087 -14.0872 -1.6564 0.9350
9.1869 -13.9820 -1.6572 0.9350
9.2758 -13.9288 -1.6577 0.9349
9.4529 -13.8211 -1.6587 0.9349
9.5412 -13.7667 -1.6592 0.9349
9.8049 -13.6011 -1.6609 0.9348
9.8924 -13.5451 -1.6615 0.9348
9.9797 -13.4887 -1.6621 0.9348
10.1538 -13.3747 -1.6634 0.9347
10.5854 -13.0829 -1.6670 0.9346
11.0121 -12.7811 -1.6712 0.9344
11.2657 -12.5951 -1.6739 0.9343
11.6844 -12.2772 -1.6789 0.9341
11.8503 -12.1471 -1.6810 0.9341
12.0155 -12.0155 -1.6832 0.9340
12.1799 -11.8822 -1.6855 0.9339
12.2617 -11.8150 -1.6867 0.9338
12.4248 -11.6792 -1.6892 0.9338
12.5061 -11.6107 -1.6904 0.9337
12.5871 -11.5418 -1.6917 0.9337
13.0687 -11.1198 -1.6998 0.9334
13.2274 -10.9758 -1.7026 0.9332
13.3854 -10.8301 -1.7056 0.9331
13.4640 -10.7566 -1.7071 0.9331
13.5423 -10.6827 -1.7086 0.9330
13.6205 -10.6084 -1.7102 0.9330
13.8537 -10.3829 -1.7150 0.9328
14.0080 -10.2304 -1.7183 0.9327
14.1614 -10.0763 -1.7217 0.9325
14.6909 -9.5232 -1.7343 0.9320
14.7656 -9.4424 -1.7361 0.9320
14.9143 -9.2796 -1.7400 0.9318
15.0620 -9.1150 -1.7439 0.9317
15.3544 -8.7806 -1.7521 0.9314
15.5711 -8.5252 -1.7585 0.9311
15.7143 -8.3526 -1.7629 0.9310
15.7855 -8.2657 -1.7651 0.9309
15.8564 -8.1783 -1.7673 0.9308
15.9271 -8.0904 -1.7696 0.9307
16.2072 -7.7345 -1.7789 0.9304
16.2766 -7.6444 -1.7813 0.9303
16.4144 -7.4628 -1.7861 0.9301
16.4830 -7.3713 -1.7886 0.9300
16.5512 -7.2793 -1.7911 0.9299
16.6869 -7.0940 -1.7961 0.9297
16.7544 -7.0006 -1.7987 0.9296
16.8215 -6.9068 -1.8013 0.9295
17.0212 -6.6225 -1.8092 0.9292
17.0871 -6.5268 -1.8119 0.9291
17.1528 -6.4306 -1.8146 0.9290
17.3481 -6.1393 -1.8229 0.9287
17.4127 -6.0412 -1.8257 0.9286
17.4769 -5.9426 -1.8286 0.9285
17.6044 -5.7441 -1.8343 0.9283
17.6677 -5.6441 -1.8373 0.9282
17.7306 -5.5436 -1.8402 0.9280
17.7933 -5.4426 -1.8432 0.9279
17.9177 -5.2392 -1.8492 0.9277
18.1626 -4.8265 -1.8616 0.9272
18.2831 -4.6173 -1.8679 0.9270
18.3429 -4.5119 -1.8712 0.9269
18.4023 -4.4060 -1.8744 0.9268
18.4614 -4.2996 -1.8777 0.9266
18.5785 -4.0853 -1.8843 0.9264
18.6943 -3.8690 -1.8911 0.9261
18.7516 -3.7601 -1.8945 0.9260
18.8652 -3.5407 -1.9014 0.9257
19.0882 -3.0959 -1.9155 0.9252
19.1430 -2.9834 -1.9192 0.9251
19.3585 -2.5283 -1.9339 0.9245
19.5161 -2.1814 -1.9453 0.9241
19.6701 -1.8299 -1.9569 0.9237
19.7709 -1.5929 -1.9648 0.9234
20.0153 -0.9910 -1.9851 0.9226
20.0629 -0.8690 -1.9893 0.9225
18.6981 -0.4626 -1.8528 0.9276
18.7098 -0.2314 -1.8535 0.9275
20.3841 0.0000 -2.0192 0.9213
20.4718 0.2532 -2.0280 0.9210
20.5149 0.3806 -2.0325 0.9208
20.5576 0.5086 -2.0370 0.9207
20.5998 0.6372 -2.0415 0.9205
20.6828 0.8959 -2.0507 0.9202
20.7236 1.0261 -2.0553 0.9200
20.7638 1.1569 -2.0600 0.9198
20.8037 1.2882 -2.0647 0.9196
20.8429 1.4201 -2.0694 0.9195
20.3773 1.6418 -2.0251 0.9211
18.7681 1.7460 -1.8672 0.9270
18.8009 1.8664 -1.8715 0.9269
18.8053 1.9844 -1.8732 0.9268
18.7851 2.0998 -1.8724 0.9268
21.1735 2.6323 -2.1135 0.9178
21.2076 2.7696 -2.1186 0.9176
21.2411 2.9079 -2.1237 0.9174
21.3079 3.3208 -2.1362 0.9170
21.3117 3.4566 -2.1387 0.9169
21.3155 3.5926 -2.1412 0.9168
21.3458 4.6938 -2.1650 0.9159
21.3495 4.8332 -2.1684 0.9158
21.3533 4.9731 -2.1718 0.9156
21.3683 5.5372 -2.1866 0.9151
21.3721 5.6794 -2.1905 0.9149
21.3796 5.9655 -2.1987 0.9146
21.3834 6.1093 -2.2029 0.9145
21.3947 6.5442 -2.2162 0.9140
21.4022 6.8371 -2.2256 0.9136
21.4097 7.1325 -2.2354 0.9133
21.4212 7.5806 -2.2509 0.9127
21.4325 8.0351 -2.2674 0.9121
21.4363 8.1881 -2.2731 0.9119
21.4401 8.3418 -2.2789 0.9117
21.4477 8.6517 -2.2909 0.9112
21.4592 9.1228 -2.3098 0.9105
21.4631 9.2816 -2.3164 0.9103
21.4669 9.4413 -2.3230 0.9100
21.4708 9.6019 -2.3298 0.9098
21.4824 10.0894 -2.3510 0.9090
21.4863 10.2539 -2.3583 0.9087
21.4902 10.4194 -2.3658 0.9085
21.4942 10.5860 -2.3734 0.9082
21.5299 12.1362 -2.4482 0.9054
21.5421 12.6753 -2.4759 0.9044
21.5462 12.8578 -2.4855 0.9041
21.5585 13.4137 -2.5152 0.9030
21.5627 13.6019 -2.5254 0.9026
21.5711 13.9831 -2.5465 0.9018
21.5795 14.3707 -2.5682 0.9010
21.5880 14.7650 -2.5908 0.9002
21.5923 14.9648 -2.6024 0.8998
21.6053 15.5750 -2.6383 0.8985
21.5475 16.3581 -2.6798 0.8970
21.5132 16.5429 -2.6883 0.8967
21.4777 16.7280 -2.6967 0.8963
21.4411 16.9135 -2.7052 0.8960
21.4033 17.0995 -2.7137 0.8957
21.2830 17.6601 -2.7395 0.8948
21.1969 18.0359 -2.7569 0.8942
21.1060 18.4135 -2.7745 0.8935
21.0102 18.7925 -2.7923 0.8929
20.9604 18.9827 -2.8012 0.8926
20.9094 19.1731 -2.8102 0.8922
20.8571 19.3641 -2.8192 0.8919
20.6354 20.1311 -2.8557 0.8906
20.5767 20.3237 -2.8649 0.8903
20.3287 21.0973 -2.9022 0.8889
20.2634 21.2915 -2.9116 0.8886
20.1967 21.4859 -2.9210 0.8882
20.1286 21.6806 -2.9305 0.8879
19.9161 22.2663 -2.9592 0.8868
19.7674 22.6579 -2.9785 0.8862
19.6910 22.8540 -2.9883 0.8858
19.3707 23.6405 -3.0275 0.8844
19.2869 23.8375 -3.0374 0.8840
19.1151 24.2320 -3.0573 0.8833
19.0270 24.4294 -3.0673 0.8830
18.8461 24.8246 -3.0874 0.8822
18.3673 25.8137 -3.1383 0.8804
18.1649 26.2096 -3.1588 0.8797
17.9559 26.6053 -3.1795 0.8790
17.8495 26.8032 -3.1899 0.8786
17.4064 27.5938 -3.2318 0.8771
17.2916 27.7912 -3.2423 0.8767
17.1752 27.9884 -3.2529 0.8763
17.0571 28.1855 -3.2635 0.8760
16.9373 28.3825 -3.2741 0.8756
16.8160 28.5792 -3.2847 0.8752
16.6929 28.7758 -3.2954 0.8748
16.5682 28.9720 -3.3060 0.8745
16.1839 29.5595 -3.3382 0.8733
15.9193 29.9496 -3.3598 0.8726
15.5094 30.5323 -3.3923 0.8714
15.3695 30.7258 -3.4032 0.8710
15.2276 30.9188 -3.4141 0.8706
15.0842 31.1114 -3.4250 0.8702
14.9389 31.3036 -3.4359 0.8699
14.6433 31.6865 -3.4578 0.8691
14.4929 31.8771 -3.4687 0.8687
13.8736 32.6342 -3.5127 0.8672
13.5534 33.0089 -3.5347 0.8664
13.0598 33.5661 -3.5678 0.8652
12.7219 33.9338 -3.5899 0.8644
12.5503 34.1164 -3.6009 0.8641
12.3769 34.2983 -3.6120 0.8637
12.2018 34.4793 -3.6230 0.8633
11.6658 35.0171 -3.6561 0.8621
11.2995 35.3709 -3.6782 0.8613
10.3532 36.2374 -3.7332 0.8594
10.1587 36.4074 -3.7442 0.8590
9.9624 36.5762 -3.7552 0.8587
9.1600 37.2396 -3.7988 0.8571
8.9550 37.4022 -3.8097 0.8568
8.7485 37.5636 -3.8205 0.8564
8.5401 37.7236 -3.8314 0.8560
7.4731 38.5022 -3.8851 0.8541
7.2547 38.6535 -3.8958 0.8538
7.0347 38.8032 -3.9064 0.8534
6.8130 38.9513 -3.9170 0.8530
6.3648 39.2427 -3.9381 0.8523
5.9102 39.5276 -3.9590 0.8516
5.6806 39.6673 -3.9694 0.8512
5.4493 39.8053 -3.9798 0.8509
5.2166 39.9415 -3.9901 0.8505
4.9822 40.0760 -4.0004 0.8502
4.5091 40.3393 -4.0208 0.8495
4.2702 40.4680 -4.0309 0.8491
4.0299 40.5950 -4.0410 0.8488
3.7882 40.7199 -4.0510 0.8484
3.5450 40.8428 -4.0610 0.8481
3.3004 40.9637 -4.0709 0.8477
3.0544 41.0826 -4.0808 0.8474
2.8070 41.1994 -4.0906 0.8471
2.5583 41.3140 -4.1003 0.8467
2.3081 41.4265 -4.1100 0.8464
2.0567 41.5370 -4.1196 0.8461
1.2946 41.8547 -4.1480 0.8451
0.2613 42.2466 -4.1849 0.8438
-0.2624 42.4283 -4.2029 0.8432
-0.5259 42.5155 -4.2118 0.8429
-0.7904 42.6003 -4.2206 0.8426
-1.0560 42.6826 -4.2293 0.8423
-1.3227 42.7623 -4.2380 0.8420
-1.5903 42.8394 -4.2465 0.8417
-2.3988 43.0556 -4.2716 0.8409
-2.9424 43.1866 -4.2879 0.8403
-3.2153 43.2480 -4.2959 0.8400
-4.0390 43.4160 -4.3193 0.8392
-4.3150 43.4665 -4.3269 0.8390
-4.5916 43.5142 -4.3343 0.8387
-4.8689 43.5590 -4.3417 0.8385
-5.9839 43.7100 -4.3702 0.8375
-6.5442 43.7680 -4.3838 0.8370
