ply
format ascii 1.0
element vertex 1559
property float32 x
property float32 y
property float32 z
property float32 I
end_header
0.1078 -17.4198 -0.0386 0.9327
0.4310 -17.4200 -0.0386 0.9327
0.5388 -17.4200 -0.0386 0.9327
0.8626 -17.4202 -0.0387 0.9326
1.0787 -17.4203 -0.0387 0.9326
1.2952 -17.4204 -0.0387 0.9325
1.5121 -17.4205 -0.0388 0.9324
1.6206 -17.4206 -0.0388 0.9324
1.7294 -17.4206 -0.0388 0.9324
1.9473 -17.4207 -0.0388 0.9323
2.0564 -17.4208 -0.0389 0.9322
2.1657 -17.4209 -0.0389 0.9322
2.4948 -17.4210 -0.0390 0.9320
2.6048 -17.4211 -0.0390 0.9320
2.7151 -17.4212 -0.0391 0.9319
2.8255 -17.4212 -0.0391 0.9318
2.9363 -17.4212 -0.0392 0.9318
3.0349 -17.3513 -0.0390 0.9320
2.9886 -16.4852 -0.0371 0.9352
3.1031 -15.9874 -0.0361 0.9369
2.9844 -14.8832 -0.0336 0.9411
3.0363 -14.6709 -0.0332 0.9418
3.0365 -14.2280 -0.0322 0.9435
3.0369 -13.4150 -0.0305 0.9465
3.0373 -12.6860 -0.0289 0.9492
3.0375 -12.3489 -0.0282 0.9504
3.1331 -11.2288 -0.0258 0.9544
3.1434 -11.0021 -0.0254 0.9553
3.1378 -10.7310 -0.0248 0.9563
3.1436 -10.5092 -0.0243 0.9571
3.0391 -9.3141 -0.0217 0.9616
3.0392 -9.1227 -0.0213 0.9623
3.0393 -8.9383 -0.0209 0.9629
3.0397 -8.1080 -0.0192 0.9660
3.0400 -7.5362 -0.0180 0.9680
3.0403 -7.0304 -0.0170 0.9698
3.0403 -6.9129 -0.0167 0.9702
3.0405 -6.5793 -0.0161 0.9714
3.0406 -6.3714 -0.0156 0.9722
3.0407 -6.1740 -0.0153 0.9728
3.0012 -5.8189 -0.0145 0.9742
3.0469 -5.8189 -0.0146 0.9741
3.0872 -5.7224 -0.0144 0.9743
3.0893 -5.5606 -0.0141 0.9749
3.0913 -5.4056 -0.0138 0.9754
3.0923 -5.3305 -0.0137 0.9757
3.0941 -5.1849 -0.0134 0.9761
3.0950 -5.1143 -0.0132 0.9764
3.0968 -4.9772 -0.0130 0.9768
3.0985 -4.8453 -0.0127 0.9773
3.0994 -4.7812 -0.0126 0.9775
3.0975 -4.7143 -0.0125 0.9777
3.1010 -4.6565 -0.0124 0.9779
3.1025 -4.5362 -0.0122 0.9783
3.1033 -4.4776 -0.0121 0.9784
2.9945 -4.1538 -0.0113 0.9797
3.0418 -4.0068 -0.0111 0.9801
3.0419 -3.8562 -0.0109 0.9805
3.0420 -3.8075 -0.0108 0.9807
3.0420 -3.6661 -0.0106 0.9811
3.0420 -3.6203 -0.0105 0.9813
3.0421 -3.4437 -0.0102 0.9818
3.0421 -3.4011 -0.0101 0.9819
3.0421 -3.3591 -0.0100 0.9820
3.0422 -3.2364 -0.0098 0.9824
3.0422 -3.1966 -0.0098 0.9825
3.0423 -3.1185 -0.0097 0.9827
3.0424 -2.9315 -0.0094 0.9832
3.0424 -2.8955 -0.0093 0.9833
3.0424 -2.8599 -0.0093 0.9834
3.0424 -2.8246 -0.0092 0.9835
3.0425 -2.6214 -0.0089 0.9841
3.0427 -2.3397 -0.0085 0.9848
3.0637 -2.3258 -0.0085 0.9847
3.4009 -2.3260 -0.0091 0.9837
3.4464 -2.3260 -0.0092 0.9835
3.5401 -2.3261 -0.0094 0.9832
3.5884 -2.3261 -0.0095 0.9830
3.6375 -2.3261 -0.0096 0.9829
3.8982 -2.3263 -0.0101 0.9820
3.9333 -2.3144 -0.0101 0.9819
3.9773 -2.2745 -0.0102 0.9818
4.3838 -2.3650 -0.0110 0.9803
4.5200 -2.3668 -0.0113 0.9798
4.6630 -2.3687 -0.0116 0.9793
4.7372 -2.3696 -0.0117 0.9790
4.8915 -2.3716 -0.0120 0.9785
5.0541 -2.3737 -0.0124 0.9779
5.2259 -2.3759 -0.0127 0.9773
5.3154 -2.3771 -0.0129 0.9770
5.4076 -2.3783 -0.0131 0.9766
5.5025 -2.3795 -0.0133 0.9763
5.5984 -2.2987 -0.0134 0.9761
5.6406 -2.2754 -0.0135 0.9760
5.8738 -2.3273 -0.0140 0.9750
6.2081 -2.3275 -0.0147 0.9738
6.3271 -2.3275 -0.0149 0.9734
6.4501 -2.3276 -0.0152 0.9729
6.7092 -2.3277 -0.0157 0.9720
6.9875 -2.3279 -0.0163 0.9710
7.6113 -2.3282 -0.0176 0.9687
7.7084 -2.3058 -0.0178 0.9683
8.2906 -2.3687 -0.0191 0.9661
8.7167 -2.3742 -0.0200 0.9645
8.9454 -2.3772 -0.0205 0.9637
9.3734 -2.3672 -0.0214 0.9621
9.3735 -2.3056 -0.0214 0.9621
10.0018 -2.3294 -0.0228 0.9598
47.9495 -10.2333 -0.1087 0.8219
47.9518 -9.9241 -0.1085 0.8221
47.9519 -9.6153 -0.1084 0.8223
47.9026 -9.2977 -0.1081 0.8227
47.9028 -8.9906 -0.1080 0.8229
47.9029 -8.6844 -0.1079 0.8231
51.7664 -8.3960 -0.1162 0.8108
46.9731 -4.9567 -0.1047 0.8278
46.9732 -4.6631 -0.1046 0.8279
46.9734 -4.3699 -0.1046 0.8280
65.3892 -4.0490 -0.1452 0.7695
47.9063 -2.0752 -0.1063 0.8255
47.9066 -1.4818 -0.1062 0.8255
47.9566 -0.5932 -0.1063 0.8254
47.9072 -0.2963 -0.1062 0.8256
47.9074 0.0000 -0.1062 0.8256
47.9075 0.2963 -0.1062 0.8256
47.9077 0.5926 -0.1062 0.8256
47.9078 0.8889 -0.1062 0.8256
47.9080 1.1853 -0.1062 0.8256
47.9082 1.4819 -0.1062 0.8255
47.9083 1.7785 -0.1063 0.8255
47.9086 2.3722 -0.1063 0.8254
47.9088 2.6693 -0.1063 0.8254
43.2201 2.6762 -0.0960 0.8410
47.9091 3.2641 -0.1064 0.8252
47.9094 3.8600 -0.1065 0.8251
47.9097 4.4571 -0.1066 0.8249
47.9100 5.0555 -0.1068 0.8247
47.9101 5.3553 -0.1068 0.8246
47.9106 6.2573 -0.1071 0.8243
46.4389 7.2375 -0.1042 0.8286
47.9114 7.7708 -0.1076 0.8235
47.9115 8.0752 -0.1077 0.8234
9.8606 1.9772 -0.0223 0.9606
9.2757 1.9796 -0.0210 0.9628
9.2349 2.0307 -0.0210 0.9629
8.9554 2.0274 -0.0204 0.9639
8.6915 2.0242 -0.0198 0.9649
8.4421 2.0212 -0.0192 0.9659
8.2059 2.0184 -0.0187 0.9668
7.6288 1.9266 -0.0174 0.9690
7.4452 1.9785 -0.0171 0.9697
7.2643 1.9786 -0.0167 0.9703
7.0913 1.9787 -0.0163 0.9710
6.3298 1.9791 -0.0147 0.9738
6.0658 1.9792 -0.0141 0.9748
5.9412 1.9793 -0.0139 0.9753
5.8211 1.9793 -0.0136 0.9757
5.5561 1.9277 -0.0130 0.9768
5.5006 1.9849 -0.0130 0.9769
5.5006 2.0235 -0.0130 0.9768
5.4205 2.0321 -0.0128 0.9771
5.3170 2.0309 -0.0126 0.9775
5.2168 2.0297 -0.0124 0.9779
5.0194 2.0248 -0.0120 0.9786
4.9352 2.0264 -0.0118 0.9789
4.8471 2.0253 -0.0116 0.9792
4.5201 2.0214 -0.0110 0.9804
4.3703 2.0196 -0.0107 0.9809
4.2285 2.0179 -0.0104 0.9814
4.1604 2.0171 -0.0102 0.9817
3.9157 1.9285 -0.0097 0.9827
3.8554 1.9285 -0.0096 0.9829
3.7258 1.9804 -0.0094 0.9833
3.6709 1.9804 -0.0092 0.9835
3.5135 1.9805 -0.0089 0.9840
3.4633 1.9805 -0.0088 0.9842
3.3190 1.9806 -0.0086 0.9847
3.1833 1.9807 -0.0083 0.9851
3.1399 1.9807 -0.0082 0.9853
3.0556 1.9807 -0.0081 0.9855
2.9449 2.0142 -0.0079 0.9858
2.9450 2.0954 -0.0080 0.9856
2.9450 2.1508 -0.0081 0.9855
2.9451 2.2646 -0.0082 0.9852
2.9451 2.3232 -0.0083 0.9851
2.9451 2.3529 -0.0084 0.9850
2.9451 2.3829 -0.0084 0.9850
2.9451 2.4132 -0.0084 0.9849
2.9452 2.4438 -0.0085 0.9848
2.9452 2.5060 -0.0086 0.9847
2.9452 2.5376 -0.0086 0.9846
2.9453 2.6344 -0.0088 0.9843
2.9453 2.7007 -0.0089 0.9841
2.9453 2.7345 -0.0089 0.9841
2.9454 2.9092 -0.0092 0.9836
2.9455 3.1726 -0.0096 0.9828
2.9456 3.2932 -0.0098 0.9825
2.9456 3.3763 -0.0099 0.9822
2.9456 3.4188 -0.0100 0.9821
2.9457 3.4619 -0.0101 0.9820
2.9457 3.5056 -0.0101 0.9819
2.9457 3.5500 -0.0102 0.9817
2.9458 3.6872 -0.0105 0.9813
2.9458 3.7823 -0.0106 0.9810
2.8940 3.8121 -0.0106 0.9810
2.8941 3.8615 -0.0107 0.9809
3.0079 4.1185 -0.0113 0.9798
3.0066 4.2255 -0.0115 0.9795
3.0022 4.3895 -0.0118 0.9790
3.0039 4.4509 -0.0119 0.9788
3.0032 4.5097 -0.0120 0.9786
3.0025 4.5696 -0.0121 0.9784
3.0003 4.7562 -0.0125 0.9778
2.9987 4.8867 -0.0127 0.9773
2.9979 4.9538 -0.0128 0.9771
2.9963 5.0923 -0.0131 0.9766
2.9937 5.3109 -0.0135 0.9759
2.9928 5.3869 -0.0137 0.9757
2.9918 5.4645 -0.0138 0.9754
2.9531 5.4738 -0.0138 0.9754
2.8949 5.5286 -0.0138 0.9753
2.9469 5.8913 -0.0146 0.9740
2.9470 5.9836 -0.0148 0.9737
2.9470 6.1753 -0.0152 0.9730
2.9471 6.2750 -0.0154 0.9727
2.9472 6.4824 -0.0158 0.9719
2.9472 6.5904 -0.0160 0.9715
2.9473 6.7014 -0.0162 0.9711
2.9474 6.9331 -0.0167 0.9703
2.9475 7.0541 -0.0169 0.9699
2.9475 7.1787 -0.0172 0.9694
2.9477 7.4396 -0.0177 0.9685
2.9478 7.5763 -0.0180 0.9680
2.9479 7.8631 -0.0186 0.9670
2.9480 8.0137 -0.0189 0.9664
2.9482 8.4977 -0.0199 0.9647
2.9483 8.6707 -0.0203 0.9640
2.9450 9.2187 -0.0214 0.9620
3.0545 10.6911 -0.0246 0.9565
2.9498 11.6806 -0.0267 0.9530
2.9500 11.9931 -0.0274 0.9518
2.9501 12.3218 -0.0281 0.9506
2.9505 13.0332 -0.0296 0.9480
2.9507 13.4189 -0.0304 0.9465
2.9509 13.8270 -0.0313 0.9450
2.9512 14.2595 -0.0323 0.9434
2.9158 15.0226 -0.0339 0.9406
2.7235 15.0227 -0.0338 0.9408
2.6276 15.0227 -0.0338 0.9408
2.5320 15.0228 -0.0338 0.9409
2.1513 15.0230 -0.0336 0.9411
2.0566 15.0230 -0.0336 0.9412
1.9621 15.0231 -0.0336 0.9412
1.7734 15.0232 -0.0335 0.9413
1.5964 15.1284 -0.0337 0.9410
1.4074 15.1285 -0.0337 0.9410
1.1248 15.1287 -0.0336 0.9411
1.0307 15.1287 -0.0336 0.9411
0.8429 15.1288 -0.0336 0.9412
0.6553 15.1289 -0.0336 0.9412
0.4679 15.1290 -0.0335 0.9413
0.2807 15.1291 -0.0335 0.9413
0.1871 15.1291 -0.0335 0.9413
0.0000 14.9723 -0.0332 0.9419
-0.0929 15.0241 -0.0333 0.9417
-0.1859 15.0242 -0.0333 0.9417
-0.3717 15.0243 -0.0333 0.9417
-0.4647 15.0243 -0.0333 0.9416
-0.7439 15.0245 -0.0333 0.9416
-0.8371 15.0245 -0.0334 0.9416
-0.9304 15.0246 -0.0334 0.9416
-1.3041 15.0248 -0.0334 0.9415
-1.4916 15.0249 -0.0335 0.9414
-1.6795 15.0249 -0.0335 0.9413
-1.8679 15.0250 -0.0336 0.9412
-2.4370 15.0253 -0.0337 0.9409
-2.5324 15.0254 -0.0338 0.9409
-2.6281 15.0254 -0.0338 0.9408
-2.7240 15.0255 -0.0338 0.9407
-2.9164 15.0256 -0.0339 0.9406
-3.1097 15.0257 -0.0340 0.9405
-3.2068 15.0257 -0.0341 0.9404
-3.3041 15.0258 -0.0341 0.9403
-3.4016 15.0258 -0.0341 0.9402
-3.4995 15.0259 -0.0342 0.9402
-3.6832 14.9741 -0.0342 0.9402
-4.0210 15.1313 -0.0347 0.9393
-4.1214 15.1313 -0.0348 0.9392
-4.2084 15.0823 -0.0347 0.9393
-4.2822 14.9883 -0.0345 0.9396
-4.5847 14.9885 -0.0347 0.9392
-4.6863 14.9885 -0.0348 0.9391
-4.7883 14.9886 -0.0349 0.9390
-4.8906 14.9887 -0.0349 0.9389
-4.9934 14.9887 -0.0350 0.9388
-5.0966 14.9887 -0.0351 0.9386
-5.3044 14.9888 -0.0352 0.9384
-5.4039 14.9750 -0.0353 0.9383
-5.5140 14.9890 -0.0354 0.9381
-5.6195 14.9890 -0.0355 0.9380
-6.1333 14.9375 -0.0358 0.9375
-6.8323 15.0275 -0.0366 0.9361
-6.9447 15.0276 -0.0367 0.9359
-7.1716 15.0278 -0.0369 0.9356
-7.4344 15.0951 -0.0373 0.9349
-7.5508 15.0952 -0.0374 0.9347
-7.6679 15.0952 -0.0375 0.9345
-8.2073 14.9903 -0.0379 0.9339
-8.3282 14.9904 -0.0380 0.9337
-8.5726 14.9905 -0.0383 0.9333
-8.6961 14.9906 -0.0384 0.9330
-9.0720 14.9908 -0.0388 0.9323
-9.4565 14.9910 -0.0393 0.9316
-9.8501 14.9912 -0.0398 0.9308
-10.1178 14.9913 -0.0401 0.9302
-10.2533 14.9914 -0.0403 0.9299
-10.5279 14.9915 -0.0406 0.9293
-10.6670 14.9916 -0.0408 0.9290
-10.8073 14.9917 -0.0410 0.9287
-11.0918 14.9918 -0.0413 0.9281
-11.2360 14.9919 -0.0415 0.9278
-11.3815 14.9920 -0.0417 0.9275
-11.4885 14.9402 -0.0418 0.9274
-11.7586 15.0973 -0.0424 0.9263
-11.9094 15.0974 -0.0426 0.9260
-12.0245 15.0509 -0.0427 0.9258
-12.2155 15.0975 -0.0430 0.9253
-12.5277 15.0977 -0.0435 0.9245
-13.0083 15.0979 -0.0442 0.9234
-13.4105 14.9930 -0.0446 0.9227
-13.9200 14.9933 -0.0453 0.9214
-14.2694 14.9934 -0.0459 0.9205
-14.6198 14.9860 -0.0464 0.9197
-14.5709 14.7522 -0.0460 0.9204
-14.6200 14.6200 -0.0458 0.9206
-14.6201 14.4404 -0.0455 0.9211
-14.5155 13.4763 -0.0439 0.9238
-14.5156 13.1460 -0.0434 0.9247
-14.5157 12.9836 -0.0432 0.9251
-14.5160 12.5069 -0.0425 0.9262
-14.5162 12.0452 -0.0418 0.9273
-14.5163 11.8944 -0.0416 0.9277
-14.5164 11.5974 -0.0412 0.9284
-14.5165 11.4511 -0.0410 0.9287
-14.5170 10.4651 -0.0397 0.9309
-14.5965 10.2505 -0.0395 0.9311
-14.6224 10.0009 -0.0393 0.9316
-14.6225 9.7378 -0.0389 0.9321
-14.6227 9.4789 -0.0386 0.9327
-14.6228 9.2242 -0.0383 0.9332
-14.6229 9.0983 -0.0382 0.9334
-14.4662 8.6327 -0.0373 0.9348
-14.5184 7.8325 -0.0366 0.9361
-14.5185 7.6022 -0.0363 0.9365
-14.5188 7.0393 -0.0358 0.9375
-14.5188 6.9288 -0.0357 0.9377
-14.5189 6.7096 -0.0354 0.9380
-14.5190 6.4930 -0.0352 0.9384
-14.5191 6.3855 -0.0352 0.9385
-14.5192 6.1724 -0.0350 0.9388
-14.5193 6.0667 -0.0349 0.9390
-14.5193 5.9615 -0.0348 0.9391
-14.5194 5.7528 -0.0346 0.9394
-14.5195 5.6492 -0.0345 0.9396
-14.5196 5.4434 -0.0344 0.9399
-14.5197 5.2396 -0.0342 0.9401
-14.5197 5.1383 -0.0341 0.9403
-14.5198 5.0375 -0.0341 0.9404
-14.4680 4.9195 -0.0339 0.9407
-14.6251 4.7720 -0.0341 0.9403
-14.6252 4.5726 -0.0340 0.9405
-14.6253 4.2765 -0.0338 0.9409
-14.6254 4.0809 -0.0337 0.9411
-14.6254 3.9836 -0.0336 0.9412
-14.6255 3.8866 -0.0335 0.9413
-14.6256 3.7900 -0.0335 0.9414
-14.6257 3.5975 -0.0334 0.9415
-14.6257 3.5018 -0.0333 0.9416
-14.6258 3.4063 -0.0333 0.9417
-14.6258 3.3111 -0.0332 0.9418
-14.4689 3.1816 -0.0328 0.9425
-14.5208 3.0052 -0.0329 0.9424
-14.5209 2.9117 -0.0328 0.9425
-14.5210 2.6325 -0.0327 0.9427
-14.5211 2.4474 -0.0326 0.9428
-14.5212 2.2631 -0.0326 0.9429
-14.5212 2.1712 -0.0325 0.9430
-14.5213 2.0795 -0.0325 0.9430
-14.5213 1.9879 -0.0325 0.9431
-14.5214 1.8966 -0.0325 0.9431
-14.5214 1.8053 -0.0324 0.9431
-14.5215 1.7142 -0.0324 0.9432
-14.5215 1.6232 -0.0324 0.9432
-14.5216 1.4416 -0.0323 0.9433
-14.5217 1.3509 -0.0323 0.9433
-17.0773 1.3759 -0.0380 0.9338
-18.1500 1.3494 -0.0403 0.9298
-63.5815 3.5424 -0.1411 0.7751
-63.2832 3.1333 -0.1404 0.7761
-62.3509 2.3146 -0.1383 0.7791
-62.0774 1.5359 -0.1376 0.7801
-62.5199 1.1600 -0.1386 0.7787
-62.5280 0.7734 -0.1386 0.7787
-14.5226 -0.0898 -0.1400 0.9436
-14.5227 -0.1796 -0.1400 0.9436
-14.5227 -0.2695 -0.1400 0.9436
-14.5228 -0.3593 -0.1401 0.9435
-14.5228 -0.4492 -0.1401 0.9435
-14.5229 -0.6291 -0.1401 0.9435
-14.5230 -0.7191 -0.1402 0.9435
-14.5230 -0.8993 -0.1403 0.9435
-14.5231 -0.9895 -0.1403 0.9434
-14.5231 -1.0798 -0.1404 0.9434
-14.5234 -1.6234 -0.1409 0.9432
-14.5235 -1.8056 -0.1411 0.9431
-14.5236 -1.8969 -0.1412 0.9431
-14.4718 -1.9812 -0.1408 0.9432
-14.6288 -2.0949 -0.1425 0.9426
-14.6289 -2.1873 -0.1426 0.9425
-14.6289 -2.2799 -0.1427 0.9425
-14.5799 -2.4574 -0.1425 0.9426
-14.6291 -2.5588 -0.1432 0.9423
-14.6292 -2.8395 -0.1437 0.9421
-14.6293 -3.0277 -0.1440 0.9420
-14.6294 -3.2169 -0.1444 0.9418
-14.6295 -3.3119 -0.1446 0.9418
-14.6295 -3.5027 -0.1450 0.9416
-14.5358 -3.5754 -0.1443 0.9419
-14.4727 -3.6550 -0.1439 0.9420
-14.5247 -4.0528 -0.1454 0.9415
-14.5248 -4.3448 -0.1462 0.9412
-14.5249 -4.5413 -0.1467 0.9409
-14.5250 -4.6401 -0.1470 0.9408
-14.5250 -4.7394 -0.1473 0.9407
-14.5251 -4.9390 -0.1479 0.9405
-14.5253 -5.1403 -0.1485 0.9402
-14.5253 -5.2416 -0.1489 0.9401
-14.5254 -5.3434 -0.1492 0.9400
-14.5254 -5.4456 -0.1496 0.9398
-14.5256 -5.7552 -0.1506 0.9394
-14.5256 -5.8594 -0.1510 0.9393
-14.5258 -6.1753 -0.1522 0.9388
-14.5259 -6.3886 -0.1530 0.9385
-14.5260 -6.4961 -0.1534 0.9383
-14.5261 -6.7130 -0.1543 0.9380
-14.5261 -6.8223 -0.1547 0.9378
-14.5262 -6.9323 -0.1552 0.9376
-14.5263 -7.1543 -0.1561 0.9373
-14.4746 -7.3526 -0.1565 0.9371
-14.6318 -7.7773 -0.1598 0.9359
-14.5827 -7.8673 -0.1597 0.9359
-14.6319 -8.0110 -0.1608 0.9354
-14.6320 -8.2479 -0.1619 0.9350
-14.6321 -8.3676 -0.1625 0.9348
-14.6309 -8.4874 -0.1631 0.9346
-14.6323 -8.8551 -0.1649 0.9339
-14.6324 -8.9792 -0.1655 0.9336
-14.5275 -9.4172 -0.1669 0.9331
-14.5277 -9.8049 -0.1690 0.9323
-14.5277 -9.9362 -0.1697 0.9320
-14.5278 -10.0687 -0.1704 0.9317
-14.5279 -10.2023 -0.1712 0.9315
-14.5280 -10.3371 -0.1719 0.9312
-14.5281 -10.6103 -0.1734 0.9306
-14.5282 -10.7487 -0.1742 0.9303
-14.5283 -10.8885 -0.1750 0.9299
-16.3321 -12.3988 -0.1977 0.9212
-16.1242 -12.3989 -0.1961 0.9219
-15.9196 -12.3991 -0.1945 0.9225
-15.0044 -12.2944 -0.1870 0.9253
-14.5290 -12.3624 -0.1839 0.9265
-14.5292 -12.6757 -0.1859 0.9258
-14.5293 -12.8349 -0.1869 0.9254
-14.5295 -13.1585 -0.1890 0.9246
-14.5295 -13.3231 -0.1901 0.9242
-14.5296 -13.4895 -0.1911 0.9238
-14.5297 -13.6578 -0.1923 0.9233
-14.5298 -13.8282 -0.1934 0.9229
-14.5299 -14.0005 -0.1945 0.9225
-14.4782 -14.1244 -0.1950 0.9223
-14.6353 -14.4554 -0.1983 0.9210
-14.6354 -14.6354 -0.1996 0.9205
-14.6357 -15.1891 -0.2034 0.9191
-14.5867 -15.3268 -0.2040 0.9188
-14.5310 -16.0449 -0.2087 0.9171
-14.5316 -17.2940 -0.2178 0.9136
-14.5318 -17.5129 -0.2194 0.9130
-14.5319 -17.7351 -0.2211 0.9124
-14.5320 -17.9607 -0.2227 0.9117
-14.5321 -18.1897 -0.2245 0.9111
-14.5322 -18.4224 -0.2262 0.9104
-14.5324 -18.6587 -0.2280 0.9097
-14.5325 -18.8988 -0.2298 0.9090
-14.5326 -19.1427 -0.2317 0.9083
-14.5328 -19.3908 -0.2336 0.9076
-12.7174 -17.4132 -0.2079 0.9174
-12.5531 -17.4133 -0.2070 0.9177
-12.3902 -17.4134 -0.2060 0.9181
-12.2288 -17.4135 -0.2051 0.9184
-11.9100 -17.4137 -0.2034 0.9191
-11.7527 -17.4137 -0.2025 0.9194
-11.5966 -17.4138 -0.2017 0.9197
-11.4419 -17.4139 -0.2009 0.9200
-11.2884 -17.4140 -0.2001 0.9203
-10.6863 -17.4143 -0.1970 0.9215
-9.8165 -17.4147 -0.1927 0.9231
-9.5347 -17.4149 -0.1914 0.9237
-9.3952 -17.4150 -0.1908 0.9239
-8.9823 -17.4152 -0.1889 0.9246
-8.4438 -17.4154 -0.1866 0.9255
-8.1794 -17.4156 -0.1855 0.9259
-7.9180 -17.4157 -0.1844 0.9263
-7.6596 -17.4159 -0.1834 0.9267
-7.5314 -17.4159 -0.1829 0.9269
-7.4039 -17.4160 -0.1825 0.9271
-7.1510 -17.4161 -0.1815 0.9275
-6.9006 -17.4162 -0.1806 0.9278
-6.7763 -17.4163 -0.1802 0.9280
-6.6526 -17.4164 -0.1797 0.9281
-6.5295 -17.4164 -0.1793 0.9283
-6.1635 -17.4166 -0.1781 0.9288
-6.0426 -17.4167 -0.1777 0.9289
-5.6829 -17.4169 -0.1766 0.9293
-5.5640 -17.4169 -0.1763 0.9295
-5.4455 -17.4170 -0.1759 0.9296
-5.2100 -17.4171 -0.1753 0.9299
-5.0929 -17.4171 -0.1750 0.9300
-4.3987 -17.4175 -0.1732 0.9307
-4.2843 -17.4176 -0.1729 0.9308
-3.7173 -17.4179 -0.1717 0.9312
-3.4927 -17.4180 -0.1713 0.9314
-3.3808 -17.4180 -0.1711 0.9315
-3.0466 -17.4182 -0.1705 0.9317
-2.7146 -17.4184 -0.1700 0.9319
-2.6044 -17.4184 -0.1698 0.9320
-2.4944 -17.4185 -0.1696 0.9320
-2.1655 -17.4187 -0.1692 0.9322
-1.9470 -17.4188 -0.1690 0.9323
-1.6205 -17.4189 -0.1687 0.9324
-1.5119 -17.4190 -0.1686 0.9324
-1.2951 -17.4191 -0.1684 0.9325
-1.1868 -17.4192 -0.1683 0.9325
-0.8625 -17.4193 -0.1681 0.9326
-0.7546 -17.4194 -0.1681 0.9326
-0.6466 -17.4194 -0.1681 0.9326
-0.5388 -17.4195 -0.1680 0.9327
-0.4310 -17.4195 -0.1680 0.9327
-0.2154 -17.4196 -0.1680 0.9327
-0.1077 -17.4197 -0.1679 0.9327
0.3232 -17.4199 -0.1680 0.9327
0.4310 -17.4200 -0.1680 0.9327
0.5388 -17.4200 -0.1680 0.9327
0.6467 -17.4201 -0.1681 0.9326
0.8626 -17.4202 -0.1682 0.9326
1.1869 -17.4204 -0.1683 0.9325
1.2952 -17.4204 -0.1684 0.9325
1.4036 -17.4205 -0.1685 0.9325
1.6206 -17.4206 -0.1687 0.9324
1.7294 -17.4207 -0.1688 0.9324
1.8383 -17.4207 -0.1689 0.9323
2.1657 -17.4209 -0.1692 0.9322
2.2752 -17.4209 -0.1694 0.9321
2.3849 -17.4210 -0.1695 0.9321
2.4948 -17.4211 -0.1697 0.9320
2.6048 -17.4211 -0.1698 0.9320
2.9363 -17.4213 -0.1703 0.9318
3.0346 -17.3496 -0.1698 0.9320
2.9886 -16.4852 -0.1615 0.9352
3.0941 -16.4853 -0.1617 0.9351
3.1031 -15.9875 -0.1570 0.9369
2.9841 -14.8820 -0.1463 0.9411
3.0361 -14.6697 -0.1444 0.9418
3.0367 -13.4139 -0.1326 0.9465
3.0373 -12.3481 -0.1226 0.9504
3.0375 -12.0276 -0.1196 0.9516
3.0377 -11.7224 -0.1168 0.9527
2.9861 -11.2369 -0.1121 0.9546
3.0584 -11.2288 -0.1122 0.9545
3.1331 -11.2288 -0.1124 0.9544
3.1432 -11.0015 -0.1103 0.9553
3.0946 -10.1169 -0.1020 0.9586
2.9902 -9.5637 -0.0966 0.9607
3.0391 -8.9379 -0.0910 0.9629
3.0392 -8.7600 -0.0894 0.9636
3.0394 -8.4227 -0.0863 0.9648
3.0395 -8.2625 -0.0849 0.9654
3.0396 -8.1076 -0.0835 0.9660
3.0397 -7.9578 -0.0821 0.9665
3.0398 -7.6721 -0.0796 0.9675
3.0400 -7.2755 -0.0760 0.9690
3.0401 -7.1511 -0.0749 0.9694
3.0402 -7.0301 -0.0738 0.9698
3.0402 -6.9126 -0.0728 0.9702
3.0403 -6.7984 -0.0718 0.9706
3.0404 -6.5790 -0.0699 0.9714
3.0404 -6.4737 -0.0690 0.9718
3.0405 -6.3712 -0.0681 0.9722
3.0405 -6.2712 -0.0672 0.9725
3.0406 -6.1737 -0.0663 0.9728
2.9889 -5.8841 -0.0636 0.9739
3.0469 -5.8189 -0.0633 0.9741
3.1460 -5.6627 -0.0625 0.9744
3.1309 -5.3211 -0.0595 0.9756
3.1463 -5.1990 -0.0586 0.9760
3.1463 -5.1272 -0.0580 0.9762
3.1463 -5.0568 -0.0574 0.9765
3.1463 -4.9878 -0.0569 0.9767
3.1464 -4.8538 -0.0558 0.9771
3.0974 -4.7141 -0.0544 0.9777
3.1465 -4.6622 -0.0542 0.9778
3.1465 -4.6006 -0.0537 0.9780
2.9898 -4.2020 -0.0497 0.9796
2.9945 -4.1538 -0.0494 0.9797
3.0337 -4.1538 -0.0496 0.9796
3.0417 -4.1112 -0.0493 0.9798
3.0417 -4.0585 -0.0489 0.9799
3.0418 -4.0067 -0.0485 0.9801
3.0418 -3.9557 -0.0481 0.9802
3.0418 -3.9055 -0.0477 0.9804
3.0418 -3.8561 -0.0474 0.9805
3.0419 -3.8074 -0.0470 0.9807
3.0419 -3.6660 -0.0459 0.9811
3.0420 -3.4868 -0.0446 0.9817
3.0421 -3.3176 -0.0434 0.9822
3.0421 -3.2363 -0.0428 0.9824
3.0421 -3.1965 -0.0425 0.9825
3.0422 -3.1572 -0.0423 0.9826
3.0422 -3.0801 -0.0417 0.9828
3.0422 -3.0422 -0.0415 0.9829
3.0422 -3.0049 -0.0412 0.9830
3.0423 -2.9679 -0.0410 0.9831
3.0423 -2.8954 -0.0405 0.9833
3.0423 -2.8598 -0.0403 0.9834
3.0423 -2.8246 -0.0400 0.9835
3.0424 -2.7553 -0.0396 0.9837
3.0425 -2.4930 -0.0379 0.9844
3.0426 -2.4001 -0.0374 0.9846
3.0426 -2.3697 -0.0372 0.9847
3.0637 -2.3258 -0.0371 0.9847
3.1034 -2.3259 -0.0374 0.9846
3.1437 -2.3259 -0.0377 0.9845
3.1847 -2.3259 -0.0380 0.9843
3.3121 -2.3260 -0.0390 0.9839
3.4009 -2.3260 -0.0397 0.9837
3.4464 -2.3261 -0.0401 0.9835
3.4929 -2.3261 -0.0405 0.9834
3.5402 -2.3261 -0.0408 0.9832
3.6375 -2.3262 -0.0416 0.9829
3.7386 -2.3262 -0.0425 0.9825
3.7907 -2.3262 -0.0429 0.9824
3.8439 -2.3262 -0.0433 0.9822
3.8982 -2.3263 -0.0438 0.9820
4.3138 -2.4316 -0.0477 0.9804
4.3769 -2.4317 -0.0483 0.9802
4.4414 -2.4317 -0.0488 0.9799
4.6442 -2.4318 -0.0505 0.9792
4.7149 -2.4318 -0.0511 0.9790
4.7875 -2.4319 -0.0518 0.9787
4.9379 -2.4320 -0.0531 0.9782
5.3495 -2.4322 -0.0567 0.9768
5.5303 -2.4323 -0.0582 0.9761
5.5983 -2.3392 -0.0585 0.9760
5.6406 -2.2754 -0.0586 0.9760
6.0931 -2.3274 -0.0629 0.9742
6.3271 -2.3275 -0.0650 0.9734
6.4501 -2.3276 -0.0661 0.9729
6.5774 -2.3276 -0.0673 0.9725
6.7092 -2.3277 -0.0685 0.9720
6.8458 -2.3278 -0.0697 0.9715
6.9875 -2.3279 -0.0710 0.9710
8.5185 -2.4338 -0.0854 0.9652
8.7228 -2.4339 -0.0873 0.9644
8.8755 -2.4174 -0.0887 0.9639
9.3733 -2.3056 -0.0931 0.9621
10.0019 -2.3294 -0.0990 0.9598
10.2902 -2.3296 -0.1017 0.9587
47.9510 -9.9240 -0.4721 0.8221
47.9511 -9.6151 -0.4715 0.8223
47.9018 -9.2975 -0.4704 0.8227
47.9020 -8.9905 -0.4699 0.8229
49.6912 -8.3752 -0.4858 0.8174
68.6848 -9.8360 -0.6690 0.7576
68.6862 -8.9707 -0.6678 0.7580
68.6138 -8.0994 -0.6661 0.7585
46.9721 -5.2504 -0.4557 0.8277
46.9723 -4.9566 -0.4554 0.8278
46.9724 -4.6630 -0.4551 0.8279
46.9726 -4.3699 -0.4548 0.8280
46.9728 -4.0771 -0.4546 0.8281
65.3879 -4.4550 -0.6319 0.7694
68.6945 -3.8273 -0.6633 0.7594
68.6942 -3.4012 -0.6631 0.7595
47.9055 -2.0751 -0.4623 0.8255
47.9059 -1.4818 -0.4621 0.8255
47.8500 -1.1839 -0.4615 0.8257
47.9556 -0.8898 -0.4624 0.8254
47.9558 -0.5931 -0.4624 0.8254
47.9071 0.8889 -0.4620 0.8256
47.9072 1.1853 -0.4620 0.8256
47.9075 1.7784 -0.4622 0.8255
47.9077 2.0752 -0.4623 0.8255
47.9113 2.3723 -0.4625 0.8254
43.2178 2.6761 -0.4175 0.8410
47.9083 3.2641 -0.4630 0.8252
47.9084 3.5619 -0.4632 0.8252
47.9086 3.8599 -0.4634 0.8251
48.9469 4.2484 -0.4737 0.8216
47.9089 4.4570 -0.4639 0.8249
47.9090 4.7560 -0.4642 0.8248
47.9124 5.3556 -0.4648 0.8246
47.9126 5.6558 -0.4651 0.8245
47.9098 6.2572 -0.4658 0.8243
47.9101 6.8610 -0.4666 0.8240
47.9106 7.7706 -0.4679 0.8235
10.1862 1.9771 -0.1000 0.9593
9.3048 1.9257 -0.0916 0.9627
9.2755 1.9796 -0.0914 0.9628
8.7778 2.0443 -0.0869 0.9646
8.4688 2.0831 -0.0841 0.9657
7.6105 1.9721 -0.0758 0.9690
7.0913 1.9787 -0.0710 0.9710
6.7674 1.9788 -0.0680 0.9722
6.6155 1.9789 -0.0666 0.9728
6.3298 1.9790 -0.0639 0.9738
5.9412 1.9792 -0.0604 0.9753
5.5004 1.9465 -0.0563 0.9769
5.4576 2.0846 -0.0563 0.9769
5.3581 2.0847 -0.0554 0.9773
5.2617 2.0847 -0.0546 0.9776
4.9897 2.0849 -0.0521 0.9786
4.8214 2.0850 -0.0506 0.9792
4.7408 2.0850 -0.0499 0.9795
4.6624 2.0851 -0.0492 0.9798
4.5862 2.0851 -0.0486 0.9800
4.3718 2.0532 -0.0466 0.9809
3.8554 1.9285 -0.0416 0.9829
3.8354 1.9483 -0.0415 0.9829
3.8354 1.9782 -0.0416 0.9829
3.7820 1.9804 -0.0412 0.9831
3.6172 1.9804 -0.0398 0.9836
3.5648 1.9805 -0.0393 0.9838
3.5135 1.9805 -0.0389 0.9840
3.4633 1.9805 -0.0385 0.9842
3.4141 1.9806 -0.0381 0.9843
3.3661 1.9806 -0.0377 0.9845
3.2728 1.9806 -0.0369 0.9848
3.1833 1.9807 -0.0361 0.9851
3.0146 1.9808 -0.0348 0.9857
2.9448 1.9875 -0.0343 0.9859
2.9449 2.0141 -0.0344 0.9858
2.9449 2.0954 -0.0348 0.9856
2.9449 2.1230 -0.0350 0.9856
2.9449 2.1788 -0.0353 0.9855
2.9450 2.2938 -0.0360 0.9852
2.9450 2.3232 -0.0362 0.9851
2.9450 2.3529 -0.0363 0.9850
2.9451 2.4438 -0.0369 0.9848
2.9451 2.5375 -0.0375 0.9846
2.9451 2.5695 -0.0377 0.9845
2.9452 2.6017 -0.0379 0.9844
2.9452 2.6343 -0.0381 0.9843
2.9453 2.8030 -0.0392 0.9839
2.9453 2.8380 -0.0394 0.9838
2.9453 2.9091 -0.0399 0.9836
2.9454 2.9453 -0.0402 0.9835
2.9454 3.0191 -0.0407 0.9833
2.9454 3.0568 -0.0409 0.9832
2.9454 3.0949 -0.0412 0.9831
2.9454 3.1335 -0.0415 0.9829
2.9455 3.2122 -0.0420 0.9827
2.9455 3.2524 -0.0423 0.9826
2.9455 3.2931 -0.0426 0.9825
2.9456 3.4187 -0.0435 0.9821
2.9456 3.5055 -0.0441 0.9819
2.9457 3.5950 -0.0448 0.9816
2.9457 3.6407 -0.0452 0.9814
2.9457 3.6871 -0.0455 0.9813
2.9457 3.7343 -0.0459 0.9812
2.8940 3.8120 -0.0461 0.9810
2.8940 3.8614 -0.0465 0.9809
3.0511 4.1777 -0.0499 0.9795
3.0511 4.2324 -0.0503 0.9793
3.0512 4.2881 -0.0507 0.9792
3.0113 4.3450 -0.0510 0.9791
3.0021 4.3894 -0.0513 0.9790
3.0513 4.5210 -0.0526 0.9784
3.0513 4.6439 -0.0536 0.9780
3.0515 4.9727 -0.0562 0.9769
3.0113 4.9760 -0.0561 0.9770
3.0516 5.2605 -0.0586 0.9760
3.0517 5.4138 -0.0599 0.9754
2.9531 5.4738 -0.0600 0.9754
2.8948 5.5284 -0.0602 0.9753
2.9467 5.8010 -0.0627 0.9743
2.9470 6.3770 -0.0677 0.9723
2.9471 6.5901 -0.0696 0.9715
2.9472 6.7011 -0.0706 0.9711
2.9472 6.8153 -0.0716 0.9707
2.9473 7.0538 -0.0737 0.9699
2.9474 7.1784 -0.0748 0.9694
2.9475 7.3069 -0.0760 0.9690
2.9475 7.4393 -0.0771 0.9685
2.9478 7.8627 -0.0810 0.9670
2.9478 8.0133 -0.0823 0.9664
2.9480 8.3303 -0.0852 0.9653
2.9481 8.4973 -0.0867 0.9647
2.9482 8.6703 -0.0883 0.9640
2.9482 8.8497 -0.0899 0.9634
2.9450 9.2186 -0.0933 0.9620
3.0540 10.2098 -0.1027 0.9583
3.0543 10.6904 -0.1072 0.9565
2.9644 10.8837 -0.1088 0.9559
2.9495 11.3822 -0.1134 0.9541
2.9496 11.6797 -0.1161 0.9530
2.9498 11.9923 -0.1191 0.9518
2.9511 14.7174 -0.1447 0.9417
2.9158 15.0226 -0.1475 0.9406
2.8195 15.0226 -0.1474 0.9407
2.6276 15.0227 -0.1470 0.9408
1.6735 14.9714 -0.1452 0.9415
1.5963 15.1284 -0.1467 0.9410
1.4074 15.1285 -0.1465 0.9410
1.3131 15.1286 -0.1464 0.9411
1.2189 15.1286 -0.1463 0.9411
1.1248 15.1286 -0.1463 0.9411
0.9368 15.1287 -0.1461 0.9412
0.7491 15.1288 -0.1460 0.9412
0.5598 15.0798 -0.1455 0.9414
0.4679 15.1290 -0.1459 0.9412
0.3743 15.1290 -0.1459 0.9413
0.1871 15.1291 -0.1459 0.9413
-0.0000 14.9723 -0.1443 0.9419
-0.2788 15.0242 -0.1449 0.9417
-0.9304 15.0246 -0.1451 0.9416
-1.0237 15.0246 -0.1452 0.9415
-1.1171 15.0246 -0.1453 0.9415
-1.3978 15.0248 -0.1455 0.9414
-1.4916 15.0248 -0.1456 0.9414
-1.9624 15.0251 -0.1461 0.9412
-2.0570 15.0251 -0.1462 0.9411
-2.5324 15.0254 -0.1469 0.9409
-2.7240 15.0254 -0.1472 0.9407
-3.0129 15.0256 -0.1477 0.9405
-3.4016 15.0258 -0.1485 0.9402
-3.4995 15.0258 -0.1487 0.9402
-3.9210 15.1312 -0.1507 0.9394
-4.1214 15.1313 -0.1512 0.9392
-4.2822 14.9883 -0.1503 0.9395
-4.4835 14.9884 -0.1508 0.9393
-4.5847 14.9885 -0.1511 0.9392
-4.6863 14.9885 -0.1514 0.9391
-4.8906 14.9886 -0.1520 0.9389
-5.2003 14.9888 -0.1530 0.9385
-5.3044 14.9888 -0.1533 0.9384
-5.4039 14.9750 -0.1535 0.9383
-5.9389 14.9892 -0.1554 0.9375
-6.0465 14.9892 -0.1558 0.9374
-6.1333 14.9375 -0.1557 0.9374
-6.2790 15.0273 -0.1570 0.9369
-6.3885 15.0273 -0.1574 0.9368
-6.4985 15.0274 -0.1578 0.9366
-6.6092 15.0274 -0.1583 0.9364
-6.7204 15.0275 -0.1587 0.9363
-7.0579 15.0276 -0.1601 0.9357
-7.2949 15.0459 -0.1612 0.9353
-7.4344 15.0951 -0.1622 0.9349
-7.5508 15.0951 -0.1627 0.9347
-7.6679 15.0952 -0.1632 0.9345
-7.9678 14.9902 -0.1637 0.9343
-8.0871 14.9903 -0.1642 0.9341
-8.2072 14.9904 -0.1648 0.9339
-9.3273 14.9909 -0.1702 0.9318
-9.4565 14.9910 -0.1709 0.9316
-9.5866 14.9910 -0.1716 0.9313
-9.7178 14.9911 -0.1722 0.9310
-9.9834 14.9913 -0.1737 0.9305
-10.1178 14.9913 -0.1744 0.9302
-10.2533 14.9914 -0.1751 0.9299
-10.5279 14.9915 -0.1766 0.9293
-10.8073 14.9916 -0.1782 0.9287
-10.9489 14.9917 -0.1790 0.9284
-11.0918 14.9918 -0.1798 0.9281
-11.2359 14.9919 -0.1806 0.9278
-11.3815 14.9920 -0.1815 0.9275
-11.4886 14.9403 -0.1817 0.9274
-11.7586 15.0973 -0.1845 0.9263
-12.0248 15.0514 -0.1857 0.9258
-12.2154 15.0975 -0.1872 0.9253
-12.3708 15.0976 -0.1882 0.9249
-12.8464 15.0979 -0.1911 0.9238
-13.0083 15.0979 -0.1921 0.9234
-13.1536 15.0770 -0.1929 0.9231
-13.1987 14.9411 -0.1922 0.9233
-13.4105 14.9930 -0.1939 0.9227
-13.7482 14.9932 -0.1961 0.9218
-14.2694 14.9934 -0.1996 0.9205
-14.4473 14.9935 -0.2007 0.9201
-14.5712 14.7525 -0.1999 0.9204
-14.6205 14.4407 -0.1981 0.9211
-14.5155 14.1607 -0.1955 0.9221
-14.5156 13.9867 -0.1943 0.9225
-14.5157 13.6447 -0.1921 0.9234
-14.5158 13.4766 -0.1910 0.9238
-14.5160 13.1463 -0.1888 0.9246
-14.5162 12.6643 -0.1857 0.9258
-14.5332 12.3660 -0.1840 0.9265
-14.5165 12.0454 -0.1819 0.9273
-14.5167 11.5977 -0.1791 0.9284
-14.5168 11.4514 -0.1783 0.9287
-14.5170 11.1630 -0.1766 0.9294
-14.5171 11.0209 -0.1757 0.9297
-14.5172 10.7406 -0.1741 0.9303
-14.5172 10.6023 -0.1733 0.9306
-14.5173 10.4653 -0.1725 0.9309
-14.4656 10.2927 -0.1711 0.9314
-14.6226 10.1344 -0.1715 0.9313
-14.6227 9.8690 -0.1701 0.9319
-14.6229 9.4791 -0.1680 0.9327
-14.6231 9.2244 -0.1667 0.9332
-14.6232 8.9735 -0.1654 0.9337
-14.5183 8.5425 -0.1624 0.9348
-14.5183 8.4221 -0.1618 0.9351
-14.5186 7.9489 -0.1596 0.9359
-14.5186 7.8326 -0.1590 0.9361
-14.5187 7.6024 -0.1580 0.9365
-14.5188 7.4884 -0.1575 0.9367
-14.5189 7.3751 -0.1570 0.9369
-14.5190 7.1507 -0.1560 0.9373
-14.5191 6.9289 -0.1551 0.9377
-14.5193 6.4931 -0.1533 0.9384
-14.5194 6.2788 -0.1525 0.9387
-14.5195 6.0668 -0.1517 0.9390
-14.5196 5.9617 -0.1513 0.9391
-14.5197 5.7529 -0.1506 0.9394
-14.5197 5.6493 -0.1502 0.9396
-14.5199 5.3414 -0.1492 0.9400
-14.4683 4.9196 -0.1473 0.9407
-14.5300 4.8406 -0.1477 0.9406
-14.6253 4.7721 -0.1483 0.9403
-14.6254 4.6722 -0.1480 0.9404
-14.6255 4.4737 -0.1475 0.9407
-14.6256 4.2766 -0.1469 0.9409
-14.6257 3.9837 -0.1461 0.9412
-14.6258 3.8867 -0.1459 0.9413
-14.6258 3.7900 -0.1457 0.9414
-14.6260 3.5018 -0.1450 0.9416
-14.6260 3.4063 -0.1448 0.9417
-14.5211 2.9117 -0.1428 0.9425
-14.5212 2.8185 -0.1426 0.9425
-14.5212 2.7254 -0.1424 0.9426
-14.5213 2.6325 -0.1423 0.9427
-14.5215 2.0795 -0.1414 0.9430
-14.5216 1.8966 -0.1412 0.9431
-14.5217 1.8053 -0.1411 0.9431
-14.5217 1.7142 -0.1410 0.9432
-14.5218 1.6232 -0.1409 0.9432
-14.5219 1.4416 -0.1407 0.9433
-14.5219 1.3510 -0.1406 0.9433
-15.4126 1.3377 -0.1492 0.9400
-17.0776 1.3759 -0.1652 0.9338
-21.8222 1.3512 -0.2108 0.9163
-63.2843 3.1334 -0.6109 0.7761
-62.3520 2.3146 -0.6016 0.7791
-62.0785 1.5359 -0.5987 0.7800
-62.5209 1.1600 -0.6029 0.7787
-62.5370 0.3867 -0.6029 0.7787
-62.5462 -0.0000 -1.0675 0.7786
-14.5229 -0.0898 -0.2479 0.9436
-14.5229 -0.1796 -0.2479 0.9436
-14.5230 -0.2695 -0.2479 0.9435
-14.5231 -0.4492 -0.2480 0.9435
-14.5232 -0.6291 -0.2481 0.9435
-14.5234 -1.0798 -0.2486 0.9434
-14.5236 -1.4418 -0.2491 0.9433
-14.5237 -1.6234 -0.2494 0.9432
-14.6292 -2.2800 -0.2527 0.9425
-14.5802 -2.4574 -0.2524 0.9426
-14.6295 -2.8395 -0.2543 0.9421
-14.6295 -3.0277 -0.2550 0.9420
-14.5805 -3.1118 -0.2544 0.9421
-14.6296 -3.2170 -0.2556 0.9418
-14.6297 -3.3120 -0.2560 0.9418
-14.4729 -3.6550 -0.2548 0.9420
-14.5248 -3.7638 -0.2561 0.9417
-14.5249 -3.8599 -0.2565 0.9416
-14.5251 -4.3449 -0.2588 0.9411
-14.5252 -4.5414 -0.2597 0.9409
-14.5253 -4.6402 -0.2602 0.9408
-14.5253 -4.7394 -0.2608 0.9407
-14.5254 -4.8390 -0.2613 0.9406
-14.5254 -4.9391 -0.2618 0.9405
-14.5255 -5.0395 -0.2624 0.9403
-14.5256 -5.2417 -0.2636 0.9401
-14.5258 -5.7553 -0.2667 0.9394
-14.5259 -5.8596 -0.2673 0.9393
-14.5260 -5.9643 -0.2680 0.9391
-14.5261 -6.1754 -0.2694 0.9388
-14.5262 -6.3887 -0.2708 0.9385
-14.5263 -6.6043 -0.2723 0.9382
-14.5264 -6.8224 -0.2739 0.9378
-14.5265 -6.9324 -0.2747 0.9376
-14.5265 -7.0431 -0.2755 0.9375
-14.5266 -7.1544 -0.2764 0.9373
-14.5266 -7.2664 -0.2772 0.9371
-14.6319 -7.5468 -0.2810 0.9363
-14.6320 -7.6617 -0.2819 0.9361
-14.5830 -7.8674 -0.2828 0.9359
-14.6322 -8.0111 -0.2847 0.9354
-14.6323 -8.2480 -0.2867 0.9350
-14.6324 -8.3678 -0.2877 0.9348
-14.6326 -8.8553 -0.2919 0.9339
-14.5277 -9.2903 -0.2943 0.9333
-14.5278 -9.4174 -0.2955 0.9331
-14.5279 -9.5456 -0.2967 0.9328
-14.5281 -10.0689 -0.3017 0.9317
-14.5283 -10.3373 -0.3043 0.9312
-14.5283 -10.4733 -0.3057 0.9309
-14.5286 -10.8887 -0.3099 0.9299
-16.1255 -12.2420 -0.3455 0.9222
-15.9202 -12.2421 -0.3428 0.9228
-15.5195 -12.2423 -0.3374 0.9240
-15.1950 -12.2943 -0.3336 0.9248
-14.6317 -12.2946 -0.3262 0.9264
-14.5294 -12.3627 -0.3256 0.9265
-14.5294 -12.5185 -0.3273 0.9261
-14.5295 -12.6760 -0.3291 0.9258
-14.5296 -12.8352 -0.3309 0.9254
-14.5300 -13.6582 -0.3403 0.9233
-14.5302 -13.8285 -0.3423 0.9229
-14.4787 -14.4787 -0.3495 0.9213
-14.4790 -15.0265 -0.3561 0.9199
-14.4792 -15.4035 -0.3608 0.9189
-14.4793 -15.5957 -0.3632 0.9184
-14.4794 -15.7906 -0.3656 0.9179
-14.5315 -16.2462 -0.3720 0.9165
-14.5318 -16.8661 -0.3800 0.9148
-14.5319 -17.0787 -0.3827 0.9142
-14.5320 -17.2944 -0.3855 0.9136
-14.5321 -17.5133 -0.3884 0.9130
-14.5323 -17.7356 -0.3913 0.9124
-14.4322 -18.0647 -0.3946 0.9116
-14.4325 -18.5304 -0.4009 0.9103
-14.4326 -18.7689 -0.4041 0.9096
-14.4328 -19.0112 -0.4074 0.9089
-12.8832 -17.4132 -0.3697 0.9170
-12.7174 -17.4133 -0.3680 0.9174
-12.5531 -17.4133 -0.3664 0.9177
-12.3902 -17.4134 -0.3647 0.9181
-12.2288 -17.4135 -0.3632 0.9184
-11.9101 -17.4137 -0.3601 0.9191
-11.7527 -17.4138 -0.3586 0.9194
-11.4419 -17.4139 -0.3556 0.9200
-11.2884 -17.4140 -0.3542 0.9203
-11.1361 -17.4141 -0.3528 0.9206
-10.9850 -17.4142 -0.3514 0.9209
-10.6863 -17.4143 -0.3487 0.9215
-10.5387 -17.4144 -0.3474 0.9218
-10.3921 -17.4145 -0.3461 0.9221
-9.9589 -17.4147 -0.3424 0.9229
-9.8165 -17.4148 -0.3412 0.9231
-9.6751 -17.4148 -0.3400 0.9234
-9.3952 -17.4150 -0.3377 0.9239
-8.9823 -17.4152 -0.3344 0.9246
-8.8464 -17.4152 -0.3334 0.9248
-8.7114 -17.4153 -0.3323 0.9251
-8.1794 -17.4156 -0.3284 0.9259
-8.0483 -17.4157 -0.3274 0.9261
-7.6596 -17.4159 -0.3247 0.9267
-7.4039 -17.4160 -0.3230 0.9271
-7.2771 -17.4161 -0.3221 0.9273
-7.1510 -17.4161 -0.3213 0.9274
-6.9006 -17.4163 -0.3197 0.9278
-6.5295 -17.4164 -0.3174 0.9283
-6.2850 -17.4165 -0.3160 0.9286
-6.1635 -17.4166 -0.3153 0.9288
-5.9222 -17.4167 -0.3140 0.9290
-5.6829 -17.4169 -0.3127 0.9293
-5.5640 -17.4169 -0.3121 0.9295
-5.4455 -17.4170 -0.3114 0.9296
-5.3275 -17.4171 -0.3109 0.9297
-5.0929 -17.4172 -0.3097 0.9300
-4.6285 -17.4174 -0.3076 0.9304
-4.1702 -17.4176 -0.3057 0.9309
-3.9431 -17.4178 -0.3048 0.9310
-3.3808 -17.4181 -0.3028 0.9315
-3.2691 -17.4181 -0.3025 0.9316
-3.0466 -17.4182 -0.3018 0.9317
-2.8251 -17.4183 -0.3012 0.9318
-2.6044 -17.4185 -0.3006 0.9320
-2.1655 -17.4187 -0.2996 0.9322
-2.0562 -17.4187 -0.2993 0.9322
-1.9471 -17.4188 -0.2991 0.9323
-1.8381 -17.4188 -0.2989 0.9323
-1.7292 -17.4189 -0.2987 0.9324
-1.6205 -17.4190 -0.2986 0.9324
-1.2951 -17.4191 -0.2981 0.9325
-1.1868 -17.4192 -0.2980 0.9325
-1.0786 -17.4192 -0.2979 0.9326
-0.9705 -17.4193 -0.2978 0.9326
-0.8625 -17.4194 -0.2977 0.9326
-0.7546 -17.4194 -0.2976 0.9326
-0.2155 -17.4196 -0.2973 0.9327
0.1078 -17.4198 -0.2973 0.9327
0.2155 -17.4199 -0.2973 0.9327
0.8626 -17.4202 -0.2977 0.9326
0.9706 -17.4203 -0.2978 0.9326
1.1869 -17.4204 -0.2980 0.9325
1.2952 -17.4204 -0.2981 0.9325
1.5121 -17.4206 -0.2984 0.9324
1.7294 -17.4207 -0.2988 0.9324
2.1658 -17.4209 -0.2996 0.9322
2.3849 -17.4210 -0.3001 0.9321
2.9886 -16.4852 -0.2859 0.9352
3.0941 -16.4853 -0.2863 0.9351
3.1031 -15.9875 -0.2780 0.9369
3.0358 -14.6685 -0.2557 0.9418
3.0360 -14.2258 -0.2483 0.9435
3.0362 -13.8079 -0.2413 0.9450
3.0365 -13.4129 -0.2347 0.9465
3.0367 -13.0389 -0.2285 0.9478
3.0371 -12.3472 -0.2170 0.9504
3.0373 -12.0268 -0.2117 0.9516
2.9859 -11.2362 -0.1984 0.9546
3.1433 -10.5079 -0.1872 0.9571
3.0389 -9.1218 -0.1641 0.9623
3.0390 -8.9374 -0.1611 0.9629
3.0392 -8.5880 -0.1555 0.9642
3.0393 -8.4222 -0.1528 0.9648
3.0397 -7.5355 -0.1387 0.9680
3.0398 -7.4034 -0.1366 0.9685
3.0399 -7.2752 -0.1346 0.9689
3.0399 -7.1507 -0.1326 0.9694
3.0402 -6.6870 -0.1254 0.9710
3.0403 -6.5788 -0.1237 0.9714
3.0404 -6.2710 -0.1189 0.9725
3.0405 -6.0785 -0.1160 0.9732
2.9888 -5.8839 -0.1126 0.9739
3.0012 -5.8189 -0.1117 0.9741
3.0929 -5.8189 -0.1125 0.9740
3.0970 -5.3387 -0.1053 0.9756
3.1461 -5.2721 -0.1048 0.9757
3.1462 -5.1988 -0.1037 0.9760
3.1463 -4.9201 -0.0997 0.9769
3.1463 -4.8537 -0.0987 0.9771
3.0973 -4.7140 -0.0963 0.9777
3.1234 -4.6902 -0.0962 0.9777
3.1465 -4.6005 -0.0951 0.9779
3.1465 -4.5400 -0.0943 0.9781
2.9897 -4.2018 -0.0880 0.9796
2.9944 -4.1538 -0.0874 0.9797
3.0337 -4.1538 -0.0878 0.9796
3.0416 -4.1111 -0.0873 0.9797
3.0416 -4.0584 -0.0866 0.9799
3.0417 -4.0066 -0.0859 0.9801
3.0417 -3.9054 -0.0845 0.9804
3.0418 -3.8560 -0.0838 0.9805
3.0418 -3.8073 -0.0832 0.9807
3.0419 -3.6659 -0.0813 0.9811
3.0419 -3.5750 -0.0801 0.9814
3.0419 -3.5306 -0.0795 0.9815
3.0419 -3.4867 -0.0790 0.9817
3.0420 -3.4436 -0.0784 0.9818
3.0420 -3.4010 -0.0779 0.9819
3.0420 -3.3589 -0.0773 0.9820
3.0420 -3.3175 -0.0768 0.9822
3.0421 -3.2363 -0.0758 0.9824
3.0421 -3.1183 -0.0744 0.9827
3.0421 -3.0800 -0.0739 0.9828
3.0422 -3.0048 -0.0730 0.9830
3.0422 -2.9679 -0.0725 0.9831
3.0423 -2.8954 -0.0717 0.9833
3.0423 -2.8597 -0.0713 0.9834
3.0423 -2.7897 -0.0704 0.9836
3.0423 -2.7553 -0.0701 0.9837
3.0424 -2.6543 -0.0689 0.9840
3.0424 -2.5887 -0.0682 0.9841
3.0425 -2.4617 -0.0668 0.9845
3.0425 -2.3396 -0.0655 0.9848
3.1033 -2.3259 -0.0662 0.9846
3.1437 -2.3259 -0.0667 0.9845
3.1847 -2.3259 -0.0673 0.9843
3.2265 -2.3259 -0.0679 0.9842
3.2689 -2.3259 -0.0685 0.9841
3.3121 -2.3260 -0.0691 0.9839
3.3561 -2.3260 -0.0697 0.9838
3.4009 -2.3260 -0.0703 0.9837
3.4464 -2.3260 -0.0710 0.9835
3.4929 -2.3261 -0.0716 0.9834
3.5402 -2.3261 -0.0723 0.9832
3.5884 -2.3261 -0.0730 0.9830
3.7387 -2.3262 -0.0752 0.9825
3.8439 -2.3262 -0.0767 0.9822
3.8982 -2.3263 -0.0775 0.9820
3.9773 -2.2745 -0.0782 0.9818
4.3138 -2.4316 -0.0845 0.9804
4.4694 -2.4112 -0.0867 0.9799
4.6441 -2.4318 -0.0895 0.9792
4.7149 -2.4319 -0.0905 0.9790
4.7875 -2.4319 -0.0916 0.9787
4.8618 -2.4319 -0.0928 0.9785
4.9379 -2.4320 -0.0939 0.9782
5.0962 -2.4321 -0.0964 0.9777
5.1326 -2.3720 -0.0965 0.9776
5.3496 -2.4322 -0.1003 0.9768
5.5303 -2.4323 -0.1031 0.9761
5.5981 -2.3391 -0.1035 0.9760
5.5982 -2.2986 -0.1033 0.9761
6.0931 -2.3274 -0.1113 0.9742
6.2082 -2.3275 -0.1132 0.9738
6.3271 -2.3275 -0.1151 0.9734
6.4501 -2.3276 -0.1170 0.9729
6.7092 -2.3277 -0.1212 0.9720
6.8459 -2.3278 -0.1234 0.9715
6.9876 -2.3279 -0.1257 0.9710
7.1346 -2.3279 -0.1281 0.9704
7.2874 -2.3280 -0.1306 0.9699
7.6114 -2.3282 -0.1358 0.9687
7.7082 -2.3057 -0.1373 0.9683
7.7853 -2.2765 -0.1385 0.9681
8.7228 -2.4339 -0.1546 0.9644
9.1598 -2.4341 -0.1618 0.9628
9.3731 -2.3671 -0.1650 0.9621
9.3731 -2.3056 -0.1647 0.9621
9.7286 -2.3293 -0.1707 0.9608
10.2902 -2.3296 -0.1801 0.9587
10.9094 -2.3989 -0.1906 0.9563
47.9501 -9.9238 -0.8357 0.8221
47.9503 -9.6150 -0.8347 0.8223
47.9010 -9.2974 -0.8328 0.8227
47.9011 -8.9904 -0.8318 0.8229
47.9013 -8.6841 -0.8309 0.8230
49.6904 -8.3750 -0.8600 0.8174
68.6830 -10.7042 -1.1864 0.7572
68.6844 -9.8359 -1.1842 0.7576
39.5675 -5.1677 -0.6810 0.8525
39.3423 -4.8910 -0.6766 0.8533
39.2939 -4.6384 -0.6753 0.8536
39.2597 -4.1427 -0.6738 0.8539
39.2382 -3.4057 -0.6722 0.8542
39.2212 -2.6722 -0.6709 0.8545
39.2162 -2.4283 -0.6706 0.8545
39.2558 -1.9437 -0.6708 0.8545
47.9047 -2.0751 -0.8184 0.8255
47.9049 -1.7784 -0.8182 0.8255
47.9050 -1.4818 -0.8180 0.8255
47.9548 -0.8898 -0.8186 0.8254
47.9550 -0.5932 -0.8185 0.8254
47.9059 0.2962 -0.8176 0.8256
47.9066 1.4818 -0.8180 0.8255
47.9069 2.0752 -0.8184 0.8254
47.9178 2.3727 -0.8188 0.8254
47.9179 2.6698 -0.8191 0.8253
43.2152 2.6759 -0.7390 0.8410
47.9075 3.2640 -0.8195 0.8252
47.9076 3.5618 -0.8199 0.8252
47.9078 3.8599 -0.8203 0.8251
48.9461 4.2484 -0.8385 0.8216
47.9084 5.0554 -0.8222 0.8247
47.9178 5.3562 -0.8229 0.8246
47.9192 5.6566 -0.8235 0.8245
47.9170 5.9570 -0.8241 0.8243
47.9090 6.2571 -0.8246 0.8242
47.9091 6.5587 -0.8253 0.8241
46.4373 7.2373 -0.8021 0.8286
47.9098 7.7705 -0.8284 0.8235
47.9101 8.3800 -0.8301 0.8232
9.2754 1.9795 -0.1619 0.9628
8.7000 2.0830 -0.1527 0.9648
7.6288 1.9266 -0.1343 0.9690
7.2642 1.9786 -0.1285 0.9703
7.0913 1.9787 -0.1257 0.9710
6.9259 1.9787 -0.1229 0.9716
6.3298 1.9790 -0.1132 0.9738
5.5004 1.9465 -0.0996 0.9769
5.5004 2.0621 -0.1003 0.9768
5.4576 2.0846 -0.0997 0.9769
5.3581 2.0847 -0.0981 0.9773
5.2617 2.0847 -0.0966 0.9776
5.0194 2.0247 -0.0924 0.9786
5.0026 2.0541 -0.0923 0.9786
4.8214 2.0850 -0.0897 0.9792
4.6624 2.0851 -0.0872 0.9798
4.5862 2.0851 -0.0860 0.9800
4.3008 2.0852 -0.0816 0.9811
3.9157 1.9285 -0.0745 0.9827
3.8554 1.9285 -0.0736 0.9829
3.8354 1.9482 -0.0734 0.9829
3.8354 1.9782 -0.0737 0.9829
3.7820 1.9804 -0.0729 0.9831
3.6709 1.9804 -0.0712 0.9835
3.5135 1.9805 -0.0688 0.9840
3.4141 1.9805 -0.0674 0.9843
3.3661 1.9806 -0.0667 0.9845
3.2728 1.9806 -0.0653 0.9848
3.2276 1.9806 -0.0646 0.9850
3.1833 1.9807 -0.0640 0.9851
3.0973 1.9807 -0.0627 0.9854
3.0556 1.9807 -0.0621 0.9855
3.0146 1.9808 -0.0616 0.9857
2.9744 1.9808 -0.0610 0.9858
2.9448 1.9875 -0.0606 0.9859
2.9448 2.0141 -0.0609 0.9858
2.9448 2.0410 -0.0612 0.9858
2.9448 2.0680 -0.0614 0.9857
2.9448 2.0953 -0.0617 0.9856
2.9449 2.1507 -0.0622 0.9855
2.9449 2.1788 -0.0625 0.9855
2.9449 2.2071 -0.0628 0.9854
2.9449 2.2357 -0.0631 0.9853
2.9450 2.3231 -0.0640 0.9851
2.9450 2.3528 -0.0643 0.9850
2.9450 2.3828 -0.0647 0.9850
2.9450 2.4131 -0.0650 0.9849
2.9450 2.4437 -0.0653 0.9848
2.9450 2.4746 -0.0657 0.9847
2.9451 2.5374 -0.0663 0.9846
2.9451 2.6016 -0.0671 0.9844
2.9451 2.6672 -0.0678 0.9842
2.9451 2.7006 -0.0682 0.9841
2.9452 2.7343 -0.0686 0.9841
2.9452 2.7684 -0.0690 0.9840
2.9452 2.8030 -0.0694 0.9839
2.9452 2.8379 -0.0698 0.9838
2.9452 2.8733 -0.0702 0.9837
2.9453 2.9090 -0.0707 0.9836
2.9453 2.9453 -0.0711 0.9835
2.9453 2.9819 -0.0715 0.9834
2.9453 3.0191 -0.0720 0.9833
2.9453 3.0567 -0.0724 0.9832
2.9454 3.0948 -0.0729 0.9831
2.9454 3.1334 -0.0734 0.9829
2.9454 3.1725 -0.0739 0.9828
2.9455 3.4187 -0.0770 0.9821
2.9455 3.5054 -0.0781 0.9818
2.9456 3.5949 -0.0793 0.9816
2.9288 3.8088 -0.0820 0.9810
2.8939 3.8119 -0.0817 0.9810
3.0510 4.2323 -0.0890 0.9793
3.0511 4.2880 -0.0898 0.9792
3.0114 4.3450 -0.0902 0.9791
3.0020 4.3892 -0.0908 0.9790
3.0512 4.5209 -0.0931 0.9784
3.0512 4.5818 -0.0940 0.9782
3.0514 4.9725 -0.0996 0.9769
3.0113 4.9760 -0.0993 0.9770
3.0515 5.1861 -0.1027 0.9762
3.0515 5.2603 -0.1038 0.9760
3.0516 5.3361 -0.1049 0.9757
3.0516 5.4136 -0.1061 0.9754
3.0411 5.4738 -0.1069 0.9753
2.9969 5.4738 -0.1065 0.9753
2.9531 5.4738 -0.1062 0.9754
2.9466 5.7130 -0.1097 0.9746
2.9466 5.8008 -0.1110 0.9743
2.9467 5.8909 -0.1124 0.9740
2.9467 5.9831 -0.1138 0.9737
2.9468 6.1749 -0.1168 0.9730
2.9469 6.2745 -0.1183 0.9726
2.9470 6.4819 -0.1215 0.9719
2.9471 6.7008 -0.1249 0.9711
2.9472 6.9325 -0.1286 0.9703
2.9473 7.1781 -0.1324 0.9694
2.9473 7.3065 -0.1345 0.9690
2.9474 7.4389 -0.1366 0.9685
2.9475 7.5756 -0.1387 0.9680
2.9477 8.0129 -0.1457 0.9664
2.9478 8.1687 -0.1482 0.9659
2.9479 8.3299 -0.1508 0.9653
2.9479 8.4969 -0.1535 0.9647
2.9480 8.6698 -0.1563 0.9640
2.9482 9.0355 -0.1622 0.9627
2.9450 9.2186 -0.1652 0.9620
3.0538 9.9835 -0.1782 0.9591
3.0369 10.3858 -0.1847 0.9576
3.0541 10.6897 -0.1897 0.9565
3.0368 10.8836 -0.1928 0.9558
2.8972 10.9026 -0.1925 0.9559
2.9494 11.6790 -0.2056 0.9530
2.9496 11.9915 -0.2108 0.9518
2.9497 12.3201 -0.2162 0.9506
2.9501 13.0313 -0.2280 0.9480
2.9505 13.8248 -0.2413 0.9450
2.9509 14.7162 -0.2562 0.9417
2.9158 15.0226 -0.2612 0.9406
2.8195 15.0226 -0.2609 0.9407
2.7235 15.0227 -0.2606 0.9407
2.5320 15.0228 -0.2600 0.9409
2.4365 15.0228 -0.2597 0.9409
2.2462 15.0229 -0.2592 0.9410
2.1513 15.0230 -0.2590 0.9411
2.0566 15.0230 -0.2588 0.9411
1.8677 15.0231 -0.2584 0.9412
1.7734 15.0232 -0.2582 0.9413
1.5963 15.1284 -0.2596 0.9410
1.5018 15.1284 -0.2595 0.9410
1.2189 15.1286 -0.2590 0.9411
1.1247 15.1286 -0.2589 0.9411
0.9368 15.1287 -0.2587 0.9412
0.8429 15.1288 -0.2586 0.9412
0.7491 15.1288 -0.2585 0.9412
0.5598 15.0798 -0.2575 0.9414
-0.2788 15.0242 -0.2565 0.9417
-0.3718 15.0243 -0.2565 0.9416
-0.7439 15.0245 -0.2567 0.9416
-0.9304 15.0245 -0.2569 0.9416
-1.0237 15.0246 -0.2570 0.9415
-1.3978 15.0248 -0.2575 0.9414
-1.4916 15.0248 -0.2577 0.9414
-1.5854 15.0249 -0.2579 0.9413
-1.6795 15.0249 -0.2580 0.9413
-2.0569 15.0251 -0.2588 0.9411
-2.1517 15.0251 -0.2591 0.9411
-2.2466 15.0252 -0.2593 0.9410
-2.4370 15.0253 -0.2598 0.9409
-2.5324 15.0253 -0.2601 0.9409
-2.6281 15.0254 -0.2603 0.9408
-2.7240 15.0254 -0.2606 0.9407
-3.0130 15.0256 -0.2615 0.9405
-3.2068 15.0257 -0.2622 0.9404
-3.3041 15.0257 -0.2626 0.9403
-3.4016 15.0258 -0.2629 0.9402
-3.5976 15.0259 -0.2637 0.9401
-3.9210 15.1312 -0.2668 0.9394
-4.0210 15.1312 -0.2672 0.9393
-4.2084 15.0823 -0.2672 0.9393
-4.2822 14.9883 -0.2660 0.9395
-4.4835 14.9884 -0.2670 0.9393
-4.6862 14.9885 -0.2680 0.9391
-4.7883 14.9886 -0.2685 0.9390
-4.8906 14.9886 -0.2691 0.9389
-4.9934 14.9887 -0.2696 0.9388
-5.3044 14.9888 -0.2714 0.9384
-5.7254 14.9890 -0.2738 0.9378
-5.9389 14.9892 -0.2752 0.9375
-6.0465 14.9892 -0.2759 0.9374
-6.2790 15.0272 -0.2780 0.9369
-6.4985 15.0274 -0.2794 0.9366
-6.6092 15.0274 -0.2802 0.9364
-7.0579 15.0277 -0.2834 0.9357
-7.5508 15.0951 -0.2881 0.9347
-7.6679 15.0952 -0.2890 0.9345
-7.8221 14.9383 -0.2878 0.9348
-8.0871 14.9903 -0.2907 0.9341
-8.5726 14.9905 -0.2947 0.9332
-8.8205 14.9906 -0.2968 0.9328
-8.9458 14.9907 -0.2979 0.9325
-9.1992 14.9908 -0.3002 0.9321
-9.3273 14.9909 -0.3013 0.9318
-9.7178 14.9911 -0.3049 0.9310
-9.9834 14.9912 -0.3074 0.9305
-10.1178 14.9913 -0.3087 0.9302
-10.2533 14.9914 -0.3100 0.9299
-10.3900 14.9914 -0.3113 0.9296
-10.5279 14.9915 -0.3126 0.9293
-10.8073 14.9916 -0.3154 0.9287
-11.2359 14.9919 -0.3198 0.9278
-11.3815 14.9919 -0.3213 0.9275
-11.7855 14.9403 -0.3248 0.9267
-12.2421 14.9406 -0.3297 0.9256
-12.3974 14.9407 -0.3313 0.9253
-12.5543 14.9407 -0.3331 0.9249
-12.7128 14.9408 -0.3348 0.9245
-12.8730 14.9409 -0.3366 0.9241
-13.0350 14.9410 -0.3384 0.9237
-13.7482 14.9931 -0.3472 0.9218
-13.9199 14.9932 -0.3492 0.9214
-14.0937 14.9933 -0.3512 0.9210
-14.4472 14.9935 -0.3554 0.9201
-14.4637 14.8259 -0.3535 0.9205
-14.4637 14.6438 -0.3513 0.9210
-14.4638 14.4638 -0.3491 0.9214
-14.5165 12.8235 -0.3306 0.9254
-14.5165 12.6646 -0.3288 0.9258
-14.5166 12.5074 -0.3270 0.9262
-14.5171 11.5979 -0.3171 0.9284
-14.5172 11.3068 -0.3140 0.9290
-14.5174 10.8803 -0.3096 0.9300
-14.5175 10.7408 -0.3082 0.9303
-14.5175 10.6026 -0.3068 0.9306
-14.5176 10.4655 -0.3054 0.9309
-14.5964 10.2504 -0.3044 0.9311
-14.6231 9.7382 -0.2998 0.9321
-14.6232 9.6082 -0.2986 0.9324
-14.6233 9.3514 -0.2962 0.9329
-14.6234 9.2245 -0.2951 0.9332
-14.6235 8.9737 -0.2928 0.9337
-14.4667 8.6330 -0.2875 0.9348
-14.5186 8.5427 -0.2875 0.9348
-14.5186 8.4223 -0.2865 0.9351
-14.5189 7.9491 -0.2825 0.9359
-14.5191 7.3752 -0.2779 0.9369
-14.5192 7.2627 -0.2771 0.9371
-14.5192 7.1508 -0.2762 0.9373
-14.5195 6.6012 -0.2722 0.9382
-14.5196 6.3858 -0.2707 0.9385
-14.5197 6.2789 -0.2700 0.9387
-14.5197 6.1727 -0.2693 0.9388
-14.5199 5.8571 -0.2672 0.9393
-14.5200 5.6494 -0.2659 0.9396
-14.5201 5.3415 -0.2641 0.9400
-14.5203 5.1385 -0.2629 0.9402
-14.5203 5.0377 -0.2623 0.9404
-14.4685 4.9197 -0.2608 0.9407
-14.5299 4.8405 -0.2614 0.9406
-14.6257 4.4737 -0.2610 0.9406
-14.6259 4.0810 -0.2592 0.9411
-14.6260 3.9837 -0.2587 0.9412
-14.6260 3.8867 -0.2583 0.9413
-14.6261 3.6937 -0.2575 0.9414
-14.6262 3.5976 -0.2571 0.9415
-14.6263 3.4064 -0.2563 0.9417
-14.4694 3.1817 -0.2529 0.9425
-14.5213 3.0053 -0.2531 0.9424
-14.5214 2.8185 -0.2525 0.9425
-14.5216 2.4475 -0.2513 0.9428
-14.5217 2.2632 -0.2508 0.9429
-14.5221 1.5324 -0.2492 0.9433
-14.5221 1.4416 -0.2491 0.9433
-14.5221 1.3510 -0.2489 0.9433
-17.0779 1.3759 -0.2924 0.9338
-21.8218 1.3512 -0.3731 0.9162
-63.5838 3.5426 -1.0869 0.7751
-63.2854 3.1335 -1.0814 0.7761
-62.9901 2.7285 -1.0761 0.7771
-62.3531 2.3146 -1.0649 0.7791
-62.0793 1.9201 -1.0600 0.7800
-62.0795 1.5359 -1.0598 0.7800
-62.5300 0.7734 -1.0673 0.7787
-16.0265 0.0000 -0.3926 0.9379
-14.5232 -0.2695 -0.3558 0.9435
-14.5233 -0.3593 -0.3559 0.9435
-14.5234 -0.6291 -0.3561 0.9435
-14.5236 -0.9895 -0.3566 0.9434
-14.5236 -1.0798 -0.3567 0.9434
-14.5237 -1.1702 -0.3569 0.9434
-14.5237 -1.2606 -0.3571 0.9433
-14.5238 -1.4418 -0.3575 0.9433
-14.5239 -1.6235 -0.3580 0.9432
-14.5240 -1.7145 -0.3582 0.9432
-14.5240 -1.8056 -0.3585 0.9431
-14.4723 -2.0725 -0.3581 0.9432
-14.4724 -2.1639 -0.3584 0.9431
-14.4725 -2.2555 -0.3588 0.9431
-14.4725 -2.4393 -0.3595 0.9430
-14.4726 -2.6238 -0.3603 0.9428
-14.4727 -2.8091 -0.3611 0.9427
-14.4728 -2.9021 -0.3616 0.9426
-14.4728 -2.9953 -0.3620 0.9426
-14.4729 -3.0888 -0.3625 0.9425
-14.4729 -3.1825 -0.3630 0.9424
-14.4731 -3.4652 -0.3645 0.9422
-14.4731 -3.5600 -0.3651 0.9421
-14.5251 -3.8599 -0.3681 0.9416
-14.5251 -3.9563 -0.3688 0.9415
-14.5252 -4.0529 -0.3694 0.9414
-14.5253 -4.1499 -0.3700 0.9413
-14.5253 -4.3450 -0.3714 0.9411
-14.5254 -4.5415 -0.3728 0.9409
-14.5255 -4.6403 -0.3735 0.9408
