ply
format ascii 1.0
element vertex 1582
property float32 x
property float32 y
property float32 z
property float32 I
end_header
-9.0278 -8.5919 -2.3688 0.9505
-8.9218 -8.7038 -2.3691 0.9505
-8.8683 -8.7593 -2.3692 0.9505
-8.7058 -8.9239 -2.3696 0.9505
-8.5402 -9.0854 -2.3700 0.9505
-8.4844 -9.1386 -2.3702 0.9505
-8.4282 -9.1915 -2.3703 0.9505
-8.3149 -9.2961 -2.3706 0.9505
-8.2003 -9.3994 -2.3709 0.9505
-8.1425 -9.4505 -2.3710 0.9505
-8.0844 -9.5013 -2.3712 0.9505
-8.0260 -9.5517 -2.3713 0.9505
-7.9082 -9.6515 -2.3716 0.9505
-7.8489 -9.7008 -2.3718 0.9505
-7.7893 -9.7498 -2.3719 0.9505
-7.7293 -9.7984 -2.3721 0.9505
-7.6690 -9.8466 -2.3722 0.9505
-7.6085 -9.8945 -2.3724 0.9504
-7.5477 -9.9421 -2.3726 0.9504
-7.4866 -9.9892 -2.3727 0.9504
-7.4251 -10.0360 -2.3729 0.9504
-7.3014 -10.1284 -2.3732 0.9504
-7.0506 -10.3087 -2.3738 0.9504
-6.9872 -10.3528 -2.3740 0.9504
-6.9235 -10.3965 -2.3742 0.9504
-6.8596 -10.4399 -2.3743 0.9504
-6.6011 -10.6094 -2.3750 0.9504
-6.4703 -10.6917 -2.3753 0.9504
-6.4045 -10.7323 -2.3755 0.9504
-6.3385 -10.7725 -2.3757 0.9504
-6.2722 -10.8122 -2.3759 0.9504
-6.2056 -10.8516 -2.3760 0.9504
-6.1389 -10.8906 -2.3762 0.9504
-6.0719 -10.9292 -2.3764 0.9504
-5.9371 -11.0051 -2.3767 0.9504
-5.8693 -11.0424 -2.3769 0.9504
-5.8014 -11.0793 -2.3771 0.9504
-5.7332 -11.1158 -2.3773 0.9504
-5.4581 -11.2576 -2.3780 0.9503
-5.3888 -11.2920 -2.3782 0.9503
-5.3193 -11.3260 -2.3784 0.9503
-1.0118 -2.2254 -0.4647 0.9901
-0.9624 -2.2254 -0.4609 0.9902
-0.9461 -2.2255 -0.4596 0.9902
-0.8977 -2.2255 -0.4561 0.9903
-0.8659 -2.2255 -0.4539 0.9903
-0.8501 -2.2255 -0.4528 0.9903
-0.8344 -2.2255 -0.4518 0.9904
-0.8187 -2.2255 -0.4507 0.9904
-0.8031 -2.2255 -0.4497 0.9904
-0.7876 -2.2255 -0.4487 0.9904
-0.7721 -2.2255 -0.4478 0.9905
-0.7110 -2.2256 -0.4441 0.9905
-0.6959 -2.2256 -0.4432 0.9906
-0.6062 -2.2256 -0.4384 0.9907
-0.5767 -2.2257 -0.4370 0.9907
-0.5329 -2.2257 -0.4350 0.9907
-0.5183 -2.2257 -0.4344 0.9907
-0.4463 -2.2257 -0.4315 0.9908
-0.4177 -2.2257 -0.4304 0.9908
-0.4035 -2.2257 -0.4299 0.9908
-0.3055 -2.2317 -0.4281 0.9909
-0.2641 -2.2376 -0.4283 0.9909
-0.1949 -2.2457 -0.4284 0.9909
-0.1533 -2.2496 -0.4286 0.9909
-0.1394 -2.2506 -0.4286 0.9909
-0.1116 -2.2526 -0.4287 0.9909
-0.0419 -2.2560 -0.4289 0.9909
0.0000 -2.2570 -0.4290 0.9909
0.0419 -2.2573 -0.4291 0.9908
0.0558 -2.2572 -0.4292 0.9908
0.0698 -2.2570 -0.4292 0.9908
0.0838 -2.2567 -0.4292 0.9908
0.0977 -2.2564 -0.4293 0.9908
0.1117 -2.2559 -0.4293 0.9908
0.1536 -2.2541 -0.4294 0.9908
0.2094 -2.2505 -0.4296 0.9908
0.2233 -2.2493 -0.4296 0.9908
0.2372 -2.2481 -0.4297 0.9908
0.2511 -2.2468 -0.4297 0.9908
0.2650 -2.2454 -0.4298 0.9908
0.2929 -2.2424 -0.4298 0.9908
0.3068 -2.2407 -0.4299 0.9908
0.3345 -2.2372 -0.4300 0.9908
0.3622 -2.2333 -0.4300 0.9908
0.4037 -2.2268 -0.4302 0.9908
0.4321 -2.2262 -0.4310 0.9908
0.4464 -2.2262 -0.4316 0.9908
0.4751 -2.2262 -0.4327 0.9908
0.5040 -2.2262 -0.4338 0.9907
0.5476 -2.2262 -0.4358 0.9907
0.5622 -2.2262 -0.4364 0.9907
0.5916 -2.2263 -0.4378 0.9907
0.6063 -2.2263 -0.4386 0.9906
0.6212 -2.2263 -0.4393 0.9906
0.6361 -2.2263 -0.4401 0.9906
0.6510 -2.2263 -0.4409 0.9906
0.6660 -2.2263 -0.4417 0.9906
0.7112 -2.2263 -0.4442 0.9905
0.7264 -2.2263 -0.4451 0.9905
0.7417 -2.2263 -0.4460 0.9905
0.7570 -2.2263 -0.4470 0.9905
0.7724 -2.2264 -0.4479 0.9905
0.7879 -2.2264 -0.4489 0.9904
0.8190 -2.2264 -0.4509 0.9904
0.8821 -2.2264 -0.4552 0.9903
0.9142 -2.2264 -0.4575 0.9902
0.9303 -2.2264 -0.4586 0.9902
0.9628 -2.2264 -0.4611 0.9902
0.9792 -2.2265 -0.4623 0.9901
0.9957 -2.2265 -0.4636 0.9901
1.0457 -2.2265 -0.4675 0.9900
1.0795 -2.2265 -0.4703 0.9900
1.0966 -2.2265 -0.4717 0.9899
1.1137 -2.2266 -0.4732 0.9899
1.1484 -2.2265 -0.4762 0.9899
1.2012 -2.2266 -0.4809 0.9898
1.2191 -2.2266 -0.4825 0.9897
1.2370 -2.2266 -0.4841 0.9897
1.2551 -2.2266 -0.4858 0.9896
1.3102 -2.2266 -0.4910 0.9895
1.3886 -2.3269 -0.5150 0.9890
1.4082 -2.3269 -0.5170 0.9890
1.4678 -2.3269 -0.5229 0.9889
1.5084 -2.3270 -0.5271 0.9888
1.5496 -2.3270 -0.5314 0.9887
1.5705 -2.3270 -0.5336 0.9886
1.5915 -2.3270 -0.5358 0.9886
1.6775 -2.3270 -0.5453 0.9884
1.7441 -2.3271 -0.5527 0.9882
1.7667 -2.3271 -0.5553 0.9882
1.8125 -2.3271 -0.5606 0.9881
1.8357 -2.3271 -0.5634 0.9880
1.8592 -2.3271 -0.5662 0.9879
1.9310 -2.3272 -0.5748 0.9878
1.9802 -2.3272 -0.5808 0.9876
2.0051 -2.3272 -0.5839 0.9876
2.1077 -2.3273 -0.5968 0.9873
2.1877 -2.3273 -0.6071 0.9871
2.2426 -2.3273 -0.6143 0.9869
2.2705 -2.3274 -0.6180 0.9868
2.3274 -2.3274 -0.6256 0.9867
2.3857 -2.3274 -0.6335 0.9865
2.4154 -2.3274 -0.6376 0.9864
2.4761 -2.3275 -0.6459 0.9863
2.5700 -2.3275 -0.6590 0.9860
2.7701 -2.3276 -0.6877 0.9854
2.8407 -2.3277 -0.6981 0.9852
2.9136 -2.3277 -0.7088 0.9849
2.9508 -2.3278 -0.7144 0.9848
3.1874 -2.3279 -0.7502 0.9841
3.2717 -2.3279 -0.7632 0.9838
3.5432 -2.3281 -0.8058 0.9829
3.5914 -2.3281 -0.8135 0.9827
3.6907 -2.3281 -0.8294 0.9824
3.8472 -2.3282 -0.8547 0.9819
3.9015 -2.3283 -0.8636 0.9817
3.9570 -2.3283 -0.8727 0.9815
4.0715 -2.3284 -0.8915 0.9811
4.1306 -2.3284 -0.9013 0.9809
4.2529 -2.3285 -0.9216 0.9805
4.3161 -2.3285 -0.9321 0.9802
4.5148 -2.3286 -0.9656 0.9795
4.7283 -2.3287 -1.0018 0.9788
4.8031 -2.3288 -1.0146 0.9785
4.8799 -2.3288 -1.0277 0.9782
5.0395 -2.3289 -1.0552 0.9776
5.3859 -2.3291 -1.1153 0.9764
5.4787 -2.3291 -1.1315 0.9761
5.5744 -2.3292 -1.1483 0.9757
5.8790 -2.3294 -1.2020 0.9746
5.9871 -2.3294 -1.2211 0.9742
6.0986 -2.3295 -1.2408 0.9738
6.2137 -2.3296 -1.2613 0.9733
6.6834 -2.3652 -1.3475 0.9715
12.1179 -4.0370 -2.4277 0.9493
12.1431 -3.9621 -2.4278 0.9493
12.1920 -3.8119 -2.4280 0.9493
12.2390 -3.6610 -2.4281 0.9493
12.2618 -3.5854 -2.4282 0.9493
12.3274 -3.3577 -2.4284 0.9493
12.3688 -3.2051 -2.4286 0.9493
12.3887 -3.1286 -2.4287 0.9493
12.4082 -3.0521 -2.4287 0.9493
12.4637 -2.8216 -2.4289 0.9493
12.4813 -2.7445 -2.4290 0.9493
12.5310 -2.5127 -2.4292 0.9493
12.5617 -2.3576 -2.4293 0.9493
12.5905 -2.2022 -2.4294 0.9493
12.6300 -1.9684 -2.4296 0.9493
12.6422 -1.8903 -2.4296 0.9493
12.6539 -1.8121 -2.4297 0.9493
12.6651 -1.7338 -2.4297 0.9493
12.7051 -1.4201 -2.4299 0.9493
12.7221 -1.2629 -2.4300 0.9493
12.7299 -1.1842 -2.4300 0.9493
12.7371 -1.1055 -2.4301 0.9493
12.7502 -0.9479 -2.4301 0.9493
12.7612 -0.7902 -2.4302 0.9493
12.7703 -0.6323 -2.4302 0.9493
12.7741 -0.5533 -2.4303 0.9493
12.7826 -0.3163 -2.4303 0.9493
12.7844 -0.2372 -2.4304 0.9493
12.7857 -0.1581 -2.4304 0.9493
12.7867 0.0791 -2.4304 0.9493
12.7861 0.1581 -2.4304 0.9493
12.7849 0.2372 -2.4305 0.9493
12.7832 0.3163 -2.4305 0.9493
12.7753 0.5534 -2.4305 0.9493
12.7676 0.7113 -2.4305 0.9493
12.7629 0.7903 -2.4305 0.9493
12.7247 1.2632 -2.4305 0.9493
12.7081 1.4205 -2.4305 0.9493
12.6990 1.4990 -2.4305 0.9493
12.6894 1.5775 -2.4305 0.9493
12.6793 1.6560 -2.4304 0.9493
12.6688 1.7343 -2.4304 0.9493
12.6462 1.8909 -2.4304 0.9493
12.6217 2.0471 -2.4304 0.9493
12.6087 2.1251 -2.4303 0.9493
12.5517 2.4362 -2.4302 0.9493
12.5363 2.5137 -2.4302 0.9493
12.5203 2.5912 -2.4302 0.9493
12.5039 2.6686 -2.4301 0.9493
12.4870 2.7458 -2.4301 0.9493
12.4517 2.8999 -2.4300 0.9493
12.4145 3.0536 -2.4300 0.9493
12.3754 3.2068 -2.4299 0.9493
12.3551 3.2833 -2.4298 0.9493
12.3344 3.3596 -2.4298 0.9493
12.2914 3.5117 -2.4297 0.9493
12.2692 3.5876 -2.4297 0.9493
6.8279 2.0425 -1.3546 0.9714
6.0597 1.9772 -1.2115 0.9744
5.9352 1.9773 -1.1891 0.9749
5.8152 1.9773 -1.1675 0.9753
5.5878 1.9775 -1.1266 0.9762
5.1776 1.9777 -1.0535 0.9777
4.9917 1.9778 -1.0205 0.9784
4.9031 1.9778 -1.0049 0.9787
4.8171 1.9779 -0.9898 0.9790
4.7337 1.9779 -0.9751 0.9793
4.4707 1.9006 -0.9234 0.9804
4.4503 1.9245 -0.9216 0.9805
4.4495 1.9569 -0.9239 0.9804
4.2805 1.9782 -0.8963 0.9810
4.1453 1.9783 -0.8730 0.9815
3.8947 1.9784 -0.8303 0.9824
3.8358 1.9784 -0.8203 0.9826
3.7783 1.9785 -0.8107 0.9828
3.7222 1.9785 -0.8012 0.9830
3.6673 1.9785 -0.7920 0.9832
3.5101 1.9786 -0.7659 0.9837
3.4599 1.9786 -0.7576 0.9839
3.3628 1.9787 -0.7416 0.9842
3.3158 1.9787 -0.7339 0.9844
3.1369 1.9788 -0.7050 0.9850
3.0526 1.9788 -0.6915 0.9853
3.0117 1.9789 -0.6850 0.9854
2.9715 1.9789 -0.6786 0.9856
2.8180 1.9790 -0.6545 0.9861
2.7098 1.9790 -0.6378 0.9864
2.6749 1.9791 -0.6325 0.9865
2.5737 1.9791 -0.6171 0.9869
2.5411 1.9791 -0.6122 0.9870
2.5089 1.9791 -0.6074 0.9871
2.4773 1.9792 -0.6027 0.9872
2.3554 1.9792 -0.5848 0.9876
2.2406 1.9793 -0.5682 0.9879
2.2129 1.9793 -0.5643 0.9880
2.1320 1.9793 -0.5529 0.9882
2.0798 1.9794 -0.5457 0.9884
2.0040 1.9794 -0.5354 0.9886
1.9794 1.9794 -0.5321 0.9887
1.9311 1.9795 -0.5256 0.9888
1.7021 1.8794 -0.4819 0.9897
1.6810 1.8794 -0.4793 0.9898
1.6602 1.8794 -0.4766 0.9898
1.6397 1.8794 -0.4741 0.9899
1.6193 1.8794 -0.4715 0.9899
1.5793 1.8795 -0.4666 0.9901
1.5595 1.8795 -0.4642 0.9901
1.5400 1.8795 -0.4618 0.9902
1.5207 1.8795 -0.4595 0.9902
1.5015 1.8795 -0.4572 0.9903
1.4639 1.8795 -0.4528 0.9903
1.4269 1.8795 -0.4485 0.9904
1.3906 1.8796 -0.4444 0.9905
1.3727 1.8796 -0.4424 0.9906
1.3550 1.8796 -0.4404 0.9906
1.3374 1.8796 -0.4385 0.9907
1.3200 1.8796 -0.4366 0.9907
1.2757 1.8903 -0.4335 0.9908
1.1996 1.9280 -0.4316 0.9908
1.1831 1.9280 -0.4300 0.9908
1.1668 1.9280 -0.4283 0.9909
1.1345 1.9281 -0.4252 0.9909
1.0868 1.9281 -0.4207 0.9910
1.0712 1.9281 -0.4192 0.9911
1.0249 1.9281 -0.4150 0.9911
0.9945 1.9281 -0.4124 0.9912
0.9794 1.9281 -0.4111 0.9912
0.9349 1.9282 -0.4073 0.9913
0.9202 1.9282 -0.4061 0.9913
0.9056 1.9282 -0.4049 0.9914
0.8911 1.9282 -0.4037 0.9914
0.8767 1.9282 -0.4026 0.9914
0.8480 1.9282 -0.4004 0.9915
0.8197 1.9282 -0.3982 0.9915
0.7917 1.9283 -0.3962 0.9915
0.7502 1.9282 -0.3933 0.9916
0.7229 1.9283 -0.3914 0.9917
0.6959 1.9283 -0.3896 0.9917
0.6824 1.9283 -0.3888 0.9917
0.6424 1.9283 -0.3863 0.9918
0.5768 1.9284 -0.3826 0.9918
0.5509 1.9284 -0.3812 0.9919
0.5125 1.9284 -0.3793 0.9919
0.4744 1.9284 -0.3775 0.9919
0.4617 1.9284 -0.3769 0.9920
0.4491 1.9284 -0.3763 0.9920
0.4366 1.9284 -0.3758 0.9920
0.4241 1.9284 -0.3753 0.9920
0.4116 1.9284 -0.3748 0.9920
0.3867 1.9284 -0.3738 0.9920
0.3250 1.9285 -0.3717 0.9921
0.3005 1.9285 -0.3710 0.9921
0.2883 1.9285 -0.3706 0.9921
0.2640 1.9285 -0.3700 0.9921
0.2519 1.9285 -0.3697 0.9921
0.2156 1.9286 -0.3688 0.9921
0.1914 1.9286 -0.3684 0.9921
0.1794 1.9286 -0.3681 0.9921
0.1674 1.9286 -0.3679 0.9921
0.1434 1.9286 -0.3676 0.9922
0.1314 1.9286 -0.3674 0.9922
0.1194 1.9286 -0.3673 0.9922
0.1074 1.9286 -0.3671 0.9922
0.0835 1.9286 -0.3669 0.9922
0.0596 1.9286 -0.3668 0.9922
0.0477 1.9286 -0.3667 0.9922
0.0238 1.9287 -0.3666 0.9922
-0.0000 1.9287 -0.3666 0.9922
-0.0120 1.9287 -0.3666 0.9922
-0.0477 1.9287 -0.3667 0.9922
-0.0716 1.9287 -0.3668 0.9922
-0.0836 1.9287 -0.3669 0.9922
-0.0955 1.9287 -0.3670 0.9922
-0.1075 1.9287 -0.3672 0.9922
-0.1314 1.9287 -0.3674 0.9922
-0.1434 1.9287 -0.3676 0.9922
-0.1596 1.9805 -0.3777 0.9919
-0.2214 1.9806 -0.3788 0.9919
-0.2836 1.9806 -0.3803 0.9919
-0.2962 1.9806 -0.3806 0.9919
-0.3087 1.9806 -0.3810 0.9919
-0.3212 1.9806 -0.3814 0.9919
-0.3465 1.9806 -0.3822 0.9918
-0.3972 1.9807 -0.3840 0.9918
-0.4099 1.9807 -0.3844 0.9918
-0.4355 1.9807 -0.3855 0.9918
-0.4484 1.9807 -0.3860 0.9918
-0.4613 1.9807 -0.3865 0.9918
-0.4743 1.9807 -0.3871 0.9917
-0.5264 1.9807 -0.3895 0.9917
-0.5792 1.9808 -0.3922 0.9916
-0.5925 1.9808 -0.3930 0.9916
-0.6059 1.9808 -0.3937 0.9916
-0.6328 1.9808 -0.3952 0.9916
-0.6735 1.9808 -0.3977 0.9915
-0.6872 1.9808 -0.3985 0.9915
-0.7287 1.9808 -0.4012 0.9914
-0.7849 1.9809 -0.4050 0.9914
-0.8133 1.9809 -0.4070 0.9913
-0.8566 1.9809 -0.4102 0.9913
-0.8859 1.9809 -0.4124 0.9912
-0.9006 1.9809 -0.4136 0.9912
-0.9756 1.9810 -0.4197 0.9910
-1.0063 1.9810 -0.4223 0.9910
-1.1144 1.9487 -0.4267 0.9909
-1.1263 1.9416 -0.4266 0.9909
-6.6748 10.5815 -2.3780 0.9503
-6.8686 10.4537 -2.3775 0.9503
-6.9327 10.4102 -2.3773 0.9503
-7.0599 10.3223 -2.3770 0.9504
-7.1231 10.2777 -2.3768 0.9504
-7.1861 10.2328 -2.3766 0.9504
-7.2487 10.1875 -2.3765 0.9504
-7.3111 10.1418 -2.3763 0.9504
-7.3731 10.0957 -2.3762 0.9504
-7.6186 9.9076 -2.3755 0.9504
-7.6792 9.8597 -2.3754 0.9504
-7.7396 9.8114 -2.3752 0.9504
-7.7996 9.7627 -2.3751 0.9504
-7.9187 9.6643 -2.3748 0.9504
-7.9778 9.6145 -2.3746 0.9504
-8.0366 9.5644 -2.3745 0.9504
-8.0951 9.5139 -2.3743 0.9504
-8.1533 9.4631 -2.3742 0.9504
-8.3259 9.3084 -2.3737 0.9504
-8.4394 9.2036 -2.3735 0.9504
-8.5515 9.0974 -2.3732 0.9504
-8.6624 8.9899 -2.3729 0.9504
-8.7173 8.9356 -2.3727 0.9504
-8.7719 8.8810 -2.3726 0.9504
-8.8261 8.8261 -2.3725 0.9504
-8.8800 8.7709 -2.3723 0.9505
-8.9335 8.7153 -2.3722 0.9505
-9.1443 8.4897 -2.3717 0.9505
-9.1961 8.4325 -2.3715 0.9505
-9.2476 8.3750 -2.3714 0.9505
-9.2987 8.3172 -2.3713 0.9505
-9.3494 8.2591 -2.3711 0.9505
-9.3998 8.2007 -2.3710 0.9505
-9.4995 8.0829 -2.3708 0.9505
-9.5488 8.0236 -2.3706 0.9505
-9.5977 7.9640 -2.3705 0.9505
-9.6463 7.9041 -2.3704 0.9505
-9.6945 7.8438 -2.3703 0.9505
-9.8368 7.6615 -2.3699 0.9505
-9.8835 7.6001 -2.3698 0.9505
-9.9298 7.5385 -2.3697 0.9505
-10.0665 7.3519 -2.3693 0.9505
-10.1113 7.2891 -2.3692 0.9505
-10.3294 6.9714 -2.3686 0.9505
-10.4139 6.8425 -2.3684 0.9505
-10.4555 6.7777 -2.3683 0.9505
-10.5376 6.6472 -2.3681 0.9505
-10.5780 6.5817 -2.3680 0.9505
-10.6181 6.5158 -2.3679 0.9505
-10.6577 6.4498 -2.3678 0.9505
-10.7358 6.3169 -2.3676 0.9505
-10.7742 6.2501 -2.3675 0.9505
-10.9237 5.9808 -2.3671 0.9506
-10.9601 5.9129 -2.3670 0.9506
-11.0315 5.7764 -2.3668 0.9506
-11.1013 5.6391 -2.3667 0.9506
-11.1355 5.5701 -2.3666 0.9506
-11.2025 5.4314 -2.3663 0.9506
-11.2678 5.2920 -2.3661 0.9506
-11.2998 5.2220 -2.3660 0.9506
-11.3314 5.1518 -2.3659 0.9506
-11.3932 5.0108 -2.3657 0.9506
-11.4534 4.8691 -2.3655 0.9506
-11.4828 4.7980 -2.3654 0.9506
-11.5117 4.7267 -2.3653 0.9506
-11.5403 4.6552 -2.3652 0.9506
-11.5961 4.5117 -2.3650 0.9506
-11.6501 4.3676 -2.3648 0.9506
-11.7278 4.1503 -2.3646 0.9506
-11.7528 4.0775 -2.3645 0.9506
-11.8711 3.7116 -2.3641 0.9506
-11.8934 3.6380 -2.3640 0.9506
-11.9983 3.2680 -2.3636 0.9506
-12.0179 3.1937 -2.3635 0.9506
-12.0558 3.0446 -2.3634 0.9506
-12.1584 2.5948 -2.3630 0.9506
-12.1738 2.5195 -2.3629 0.9506
-12.1889 2.4441 -2.3629 0.9506
-12.2035 2.3686 -2.3628 0.9506
-12.2445 2.1417 -2.3626 0.9506
-12.3139 1.6858 -2.3623 0.9507
-12.3238 1.6095 -2.3623 0.9507
-12.3333 1.5333 -2.3623 0.9507
-12.3508 1.3806 -2.3622 0.9507
-12.3589 1.3041 -2.3621 0.9507
-12.3737 1.1511 -2.3620 0.9507
-12.3924 0.9213 -2.3619 0.9507
-12.3977 0.8447 -2.3619 0.9507
-12.4068 0.6912 -2.3618 0.9507
-12.4141 0.5377 -2.3618 0.9507
-12.4231 0.2305 -2.3617 0.9507
-12.4242 0.1537 -2.3617 0.9507
-12.4248 0.0768 -2.3616 0.9507
-11.9472 -0.0739 -2.3629 0.9525
-11.9453 -0.2216 -2.3629 0.9525
-11.9415 -0.3694 -2.3629 0.9525
-11.9358 -0.5170 -2.3628 0.9525
-11.9324 -0.5908 -2.3628 0.9525
-11.9193 -0.8121 -2.3628 0.9525
-11.9140 -0.8858 -2.3628 0.9525
-11.9021 -1.0331 -2.3628 0.9525
-11.8809 -1.2537 -2.3628 0.9525
-11.8557 -1.4739 -2.3628 0.9525
-11.8464 -1.5472 -2.3628 0.9525
-11.8264 -1.6936 -2.3628 0.9525
-11.8158 -1.7667 -2.3628 0.9525
-11.7931 -1.9128 -2.3629 0.9525
-11.7812 -1.9857 -2.3629 0.9525
-11.7000 -2.4214 -2.3630 0.9525
-11.6534 -2.6382 -2.3631 0.9524
-11.6370 -2.7102 -2.3631 0.9524
-11.6202 -2.7822 -2.3631 0.9524
-11.6029 -2.8540 -2.3632 0.9524
-11.5852 -2.9257 -2.3632 0.9524
-11.5670 -2.9974 -2.3632 0.9524
-11.5484 -3.0689 -2.3633 0.9524
-11.5294 -3.1403 -2.3633 0.9524
-11.5099 -3.2116 -2.3633 0.9524
-11.4900 -3.2828 -2.3634 0.9524
-11.4697 -3.3538 -2.3634 0.9524
-11.4061 -3.5662 -2.3635 0.9524
-11.3840 -3.6367 -2.3636 0.9524
-11.3615 -3.7071 -2.3636 0.9524
-11.3386 -3.7774 -2.3637 0.9524
-11.3152 -3.8475 -2.3637 0.9524
-11.2673 -3.9873 -2.3638 0.9524
-11.1131 -4.4031 -2.3641 0.9524
-11.0859 -4.4719 -2.3642 0.9524
-11.0019 -4.6771 -2.3644 0.9524
-10.9730 -4.7452 -2.3644 0.9524
-10.8840 -4.9484 -2.3646 0.9524
-10.8535 -5.0157 -2.3647 0.9524
-10.8226 -5.0829 -2.3648 0.9524
-10.7913 -5.1499 -2.3648 0.9524
-10.7595 -5.2167 -2.3649 0.9524
-10.7274 -5.2833 -2.3650 0.9524
-10.6285 -5.4819 -2.3652 0.9524
-10.5606 -5.6133 -2.3653 0.9524
-10.4557 -5.8088 -2.3656 0.9524
-10.4199 -5.8736 -2.3657 0.9524
-10.3838 -5.9381 -2.3657 0.9524
-10.3103 -6.0665 -2.3659 0.9524
-10.2352 -6.1941 -2.3661 0.9524
-10.1586 -6.3207 -2.3663 0.9524
-10.0407 -6.5088 -2.3665 0.9524
-10.0007 -6.5711 -2.3666 0.9524
-9.8783 -6.7563 -2.3669 0.9524
-9.8367 -6.8175 -2.3670 0.9524
-9.7948 -6.8785 -2.3671 0.9524
-9.7098 -6.9997 -2.3673 0.9524
-9.5354 -7.2390 -2.3678 0.9524
-9.4909 -7.2982 -2.3679 0.9524
-9.4460 -7.3571 -2.3680 0.9524
-9.3552 -7.4741 -2.3682 0.9523
-9.3092 -7.5321 -2.3683 0.9523
-9.2162 -7.6474 -2.3685 0.9523
-9.1692 -7.7046 -2.3687 0.9523
-8.8797 -8.0419 -2.3694 0.9523
-8.7805 -8.1520 -2.3696 0.9523
-8.6799 -8.2608 -2.3699 0.9523
-8.6292 -8.3148 -2.3700 0.9523
-8.5266 -8.4218 -2.3702 0.9523
-8.3702 -8.5799 -2.3706 0.9523
-8.2110 -8.7352 -2.3710 0.9523
-8.1033 -8.8371 -2.3713 0.9523
-8.0489 -8.8876 -2.3714 0.9523
-7.9393 -8.9875 -2.3717 0.9523
-7.8841 -9.0369 -2.3719 0.9523
-7.7164 -9.1833 -2.3723 0.9523
-7.5461 -9.3266 -2.3727 0.9523
-7.3732 -9.4667 -2.3732 0.9523
-7.3149 -9.5127 -2.3733 0.9522
-7.2564 -9.5584 -2.3735 0.9522
-7.1976 -9.6037 -2.3736 0.9522
-7.0196 -9.7375 -2.3741 0.9522
-6.9597 -9.7813 -2.3742 0.9522
-6.8995 -9.8248 -2.3744 0.9522
-6.8391 -9.8679 -2.3745 0.9522
-6.7174 -9.9531 -2.3748 0.9522
-6.5329 -10.0780 -2.3753 0.9522
-6.3461 -10.1996 -2.3758 0.9522
-6.2834 -10.2393 -2.3760 0.9522
-6.0298 -10.3945 -2.3766 0.9522
-5.9658 -10.4323 -2.3768 0.9522
-5.9016 -10.4697 -2.3770 0.9522
-5.8372 -10.5068 -2.3771 0.9522
-5.7725 -10.5434 -2.3773 0.9522
-5.7076 -10.5797 -2.3775 0.9522
-5.6425 -10.6155 -2.3776 0.9522
-5.5771 -10.6510 -2.3778 0.9522
-5.5115 -10.6861 -2.3780 0.9522
-5.4458 -10.7207 -2.3782 0.9522
-5.3797 -10.7550 -2.3783 0.9521
-5.2470 -10.8223 -2.3787 0.9521
-5.1804 -10.8553 -2.3789 0.9521
-0.9788 -2.2254 -0.4808 0.9901
-0.9299 -2.2255 -0.4770 0.9902
-0.9138 -2.2255 -0.4758 0.9902
-0.8818 -2.2255 -0.4734 0.9903
-0.8501 -2.2255 -0.4712 0.9903
-0.8031 -2.2255 -0.4679 0.9904
-0.7876 -2.2256 -0.4669 0.9904
-0.7721 -2.2256 -0.4659 0.9904
-0.7568 -2.2256 -0.4649 0.9905
-0.7414 -2.2256 -0.4639 0.9905
-0.7110 -2.2256 -0.4621 0.9905
-0.6808 -2.2256 -0.4603 0.9906
-0.6508 -2.2256 -0.4586 0.9906
-0.6359 -2.2256 -0.4578 0.9906
-0.6062 -2.2256 -0.4562 0.9906
-0.5767 -2.2257 -0.4547 0.9907
-0.5621 -2.2257 -0.4540 0.9907
-0.5184 -2.2257 -0.4520 0.9907
-0.4750 -2.2257 -0.4501 0.9908
-0.4606 -2.2257 -0.4495 0.9908
-0.4177 -2.2257 -0.4479 0.9908
-0.3469 -2.2258 -0.4455 0.9909
-0.3328 -2.2258 -0.4451 0.9909
-0.2907 -2.2258 -0.4439 0.9909
-0.2767 -2.2258 -0.4436 0.9909
-0.2628 -2.2258 -0.4433 0.9909
-0.2488 -2.2258 -0.4430 0.9909
-0.2349 -2.2258 -0.4427 0.9909
-0.2210 -2.2259 -0.4424 0.9909
-0.2071 -2.2258 -0.4421 0.9909
-0.1932 -2.2259 -0.4419 0.9909
-0.1655 -2.2259 -0.4414 0.9909
-0.1516 -2.2259 -0.4412 0.9909
-0.1378 -2.2259 -0.4411 0.9909
-0.0826 -2.2259 -0.4405 0.9910
-0.0413 -2.2259 -0.4403 0.9910
0.0000 -2.2260 -0.4402 0.9910
0.0138 -2.2260 -0.4402 0.9910
0.0275 -2.2260 -0.4403 0.9910
0.0413 -2.2260 -0.4403 0.9910
0.0551 -2.2260 -0.4404 0.9910
0.0688 -2.2260 -0.4405 0.9910
0.0964 -2.2260 -0.4407 0.9910
0.1102 -2.2260 -0.4408 0.9910
0.1379 -2.2260 -0.4411 0.9909
0.1517 -2.2260 -0.4413 0.9909
0.1655 -2.2261 -0.4415 0.9909
0.1794 -2.2261 -0.4417 0.9909
0.2071 -2.2261 -0.4422 0.9909
0.2349 -2.2261 -0.4427 0.9909
0.2488 -2.2261 -0.4430 0.9909
0.2628 -2.2261 -0.4433 0.9909
0.3047 -2.2261 -0.4444 0.9909
0.3188 -2.2262 -0.4448 0.9909
0.3329 -2.2262 -0.4452 0.9909
0.3469 -2.2261 -0.4456 0.9909
0.3894 -2.2262 -0.4470 0.9908
0.4464 -2.2262 -0.4490 0.9908
0.4607 -2.2262 -0.4496 0.9908
0.4896 -2.2262 -0.4508 0.9907
0.5040 -2.2262 -0.4514 0.9907
0.5330 -2.2262 -0.4527 0.9907
0.5622 -2.2262 -0.4541 0.9907
0.5916 -2.2263 -0.4556 0.9907
0.6361 -2.2263 -0.4579 0.9906
0.7112 -2.2263 -0.4622 0.9905
0.7417 -2.2263 -0.4641 0.9905
0.7570 -2.2263 -0.4651 0.9905
0.8034 -2.2264 -0.4681 0.9904
0.8347 -2.2264 -0.4703 0.9904
0.8504 -2.2264 -0.4714 0.9903
0.8981 -2.2264 -0.4748 0.9903
0.9142 -2.2264 -0.4760 0.9902
0.9303 -2.2264 -0.4772 0.9902
1.0457 -2.2265 -0.4865 0.9900
1.0795 -2.2265 -0.4894 0.9900
1.2184 -2.3268 -0.5195 0.9893
1.2368 -2.3268 -0.5212 0.9893
1.2553 -2.3268 -0.5229 0.9893
1.3116 -2.3269 -0.5283 0.9892
1.3307 -2.3268 -0.5301 0.9891
1.3498 -2.3269 -0.5320 0.9891
1.3691 -2.3269 -0.5340 0.9891
1.3886 -2.3269 -0.5359 0.9890
1.5496 -2.3270 -0.5529 0.9887
1.5916 -2.3270 -0.5576 0.9886
1.6342 -2.3270 -0.5624 0.9885
1.6558 -2.3270 -0.5648 0.9884
1.6995 -2.3271 -0.5699 0.9883
1.7217 -2.3271 -0.5725 0.9883
1.7895 -2.3271 -0.5806 0.9881
1.8357 -2.3271 -0.5862 0.9880
1.8829 -2.3272 -0.5920 0.9879
1.9069 -2.3272 -0.5950 0.9878
1.9310 -2.3272 -0.5981 0.9877
1.9555 -2.3272 -0.6012 0.9877
2.0304 -2.3272 -0.6108 0.9875
2.0558 -2.3272 -0.6141 0.9874
2.0816 -2.3273 -0.6175 0.9873
2.1077 -2.3273 -0.6210 0.9873
2.1340 -2.3273 -0.6245 0.9872
2.1607 -2.3273 -0.6281 0.9871
2.2149 -2.3273 -0.6354 0.9870
2.2425 -2.3274 -0.6392 0.9869
2.3564 -2.3274 -0.6550 0.9866
2.4154 -2.3275 -0.6634 0.9864
2.5070 -2.3275 -0.6766 0.9861
2.5383 -2.3275 -0.6811 0.9861
2.5700 -2.3275 -0.6858 0.9860
2.6022 -2.3276 -0.6905 0.9859
2.7015 -2.3276 -0.7053 0.9856
2.8052 -2.3277 -0.7209 0.9852
2.8769 -2.3277 -0.7319 0.9850
2.9136 -2.3277 -0.7376 0.9849
2.9508 -2.3278 -0.7433 0.9848
2.9887 -2.3278 -0.7492 0.9847
3.0662 -2.3278 -0.7614 0.9844
3.1060 -2.3278 -0.7677 0.9843
3.1464 -2.3279 -0.7741 0.9842
3.3149 -2.3279 -0.8011 0.9836
3.3589 -2.3280 -0.8083 0.9835
3.4494 -2.3280 -0.8230 0.9832
3.4959 -2.3280 -0.8307 0.9830
3.5432 -2.3281 -0.8385 0.9829
3.6406 -2.3281 -0.8547 0.9825
3.6907 -2.3282 -0.8630 0.9824
3.7419 -2.3282 -0.8716 0.9822
3.7940 -2.3282 -0.8804 0.9820
4.0137 -2.3283 -0.9177 0.9813
4.0715 -2.3284 -0.9276 0.9811
4.1306 -2.3284 -0.9378 0.9809
4.1911 -2.3284 -0.9482 0.9806
4.3161 -2.3285 -0.9699 0.9802
4.5148 -2.3286 -1.0047 0.9795
4.7284 -2.3287 -1.0424 0.9787
4.8031 -2.3288 -1.0557 0.9785
4.8799 -2.3288 -1.0694 0.9782
5.0395 -2.3289 -1.0980 0.9776
5.1225 -2.3290 -1.1129 0.9773
5.2079 -2.3290 -1.1283 0.9770
5.3859 -2.3291 -1.1605 0.9764
5.5744 -2.3292 -1.1948 0.9757
5.7744 -2.3293 -1.2314 0.9749
5.8791 -2.3294 -1.2507 0.9745
5.9871 -2.3295 -1.2706 0.9741
6.2138 -2.3296 -1.3125 0.9733
6.6836 -2.3653 -1.4022 0.9715
6.9431 -2.3609 -1.4504 0.9705
11.6395 -3.8776 -2.4264 0.9512
11.6637 -3.8057 -2.4265 0.9512
11.6873 -3.7336 -2.4265 0.9512
11.7106 -3.6614 -2.4266 0.9512
11.7335 -3.5890 -2.4267 0.9512
11.7777 -3.4438 -2.4269 0.9512
11.7991 -3.3711 -2.4269 0.9512
11.8201 -3.2981 -2.4270 0.9512
11.8406 -3.2251 -2.4271 0.9512
11.8803 -3.0785 -2.4272 0.9512
11.8995 -3.0051 -2.4273 0.9512
11.9364 -2.8579 -2.4274 0.9512
11.9715 -2.7101 -2.4276 0.9512
11.9882 -2.6361 -2.4276 0.9512
12.0046 -2.5620 -2.4277 0.9512
12.0206 -2.4878 -2.4277 0.9512
12.0795 -2.1899 -2.4280 0.9512
12.1540 -1.7405 -2.4283 0.9512
12.1942 -1.4394 -2.4284 0.9512
12.2031 -1.3640 -2.4285 0.9512
12.2115 -1.2886 -2.4285 0.9512
12.2268 -1.1375 -2.4286 0.9512
12.2338 -1.0618 -2.4286 0.9512
12.2463 -0.9105 -2.4287 0.9512
12.2616 -0.6831 -2.4288 0.9512
12.2657 -0.6073 -2.4288 0.9512
12.2693 -0.5315 -2.4288 0.9512
12.2774 -0.3038 -2.4289 0.9512
12.2812 -0.0760 -2.4290 0.9512
12.2816 0.0000 -2.4290 0.9512
12.2734 0.4556 -2.4290 0.9512
12.2670 0.6074 -2.4291 0.9512
12.2630 0.6832 -2.4291 0.9512
12.2423 0.9864 -2.4291 0.9512
12.2218 1.2133 -2.4291 0.9512
12.2141 1.2888 -2.4290 0.9512
12.2059 1.3644 -2.4290 0.9512
12.1971 1.4398 -2.4290 0.9512
12.1681 1.6658 -2.4290 0.9512
12.1575 1.7410 -2.4290 0.9512
12.1104 2.0411 -2.4289 0.9512
12.0974 2.1160 -2.4289 0.9512
12.0557 2.3399 -2.4288 0.9512
12.0098 2.5631 -2.4287 0.9512
11.9769 2.7114 -2.4287 0.9512
11.9421 2.8592 -2.4286 0.9512
11.9240 2.9330 -2.4286 0.9512
11.9054 3.0066 -2.4285 0.9512
11.8864 3.0801 -2.4285 0.9512
11.8670 3.1535 -2.4284 0.9512
11.8266 3.2999 -2.4284 0.9512
11.7845 3.4458 -2.4283 0.9512
6.8278 2.0424 -1.4095 0.9714
6.5710 2.0100 -1.3590 0.9724
6.3234 1.9771 -1.3103 0.9733
6.0596 1.9772 -1.2606 0.9743
5.9351 1.9773 -1.2372 0.9748
5.8152 1.9773 -1.2148 0.9753
5.5878 1.9775 -1.1723 0.9761
5.4800 1.9775 -1.1522 0.9765
5.3758 1.9776 -1.1329 0.9769
5.2750 1.9776 -1.1142 0.9773
5.0831 1.9777 -1.0787 0.9780
4.9917 1.9778 -1.0619 0.9783
4.9030 1.9778 -1.0456 0.9787
4.8171 1.9779 -1.0299 0.9790
4.7337 1.9779 -1.0146 0.9793
4.4581 1.9607 -0.9632 0.9803
4.3509 1.9781 -0.9453 0.9807
4.2805 1.9782 -0.9326 0.9810
4.2120 1.9782 -0.9203 0.9812
4.0168 1.9783 -0.8856 0.9819
3.8358 1.9784 -0.8536 0.9826
3.7222 1.9785 -0.8337 0.9830
3.6673 1.9785 -0.8241 0.9832
3.5101 1.9786 -0.7969 0.9837
3.4108 1.9787 -0.7799 0.9841
3.2697 1.9787 -0.7559 0.9845
3.2245 1.9788 -0.7482 0.9847
3.0526 1.9789 -0.7195 0.9853
3.0117 1.9789 -0.7127 0.9854
2.9715 1.9789 -0.7061 0.9855
2.9321 1.9789 -0.6996 0.9857
2.8934 1.9789 -0.6933 0.9858
2.8180 1.9790 -0.6810 0.9861
2.7098 1.9790 -0.6636 0.9864
2.5411 1.9791 -0.6370 0.9870
2.5089 1.9791 -0.6320 0.9871
2.4461 1.9792 -0.6223 0.9873
2.4154 1.9792 -0.6176 0.9873
2.3852 1.9792 -0.6130 0.9874
2.3555 1.9792 -0.6085 0.9875
2.2972 1.9793 -0.5997 0.9877
2.2687 1.9792 -0.5954 0.9878
2.1855 1.9793 -0.5832 0.9880
2.1057 1.9794 -0.5716 0.9883
2.0798 1.9794 -0.5678 0.9884
2.0542 1.9794 -0.5642 0.9884
2.0290 1.9794 -0.5606 0.9885
2.0040 1.9794 -0.5571 0.9886
1.9794 1.9794 -0.5536 0.9887
1.9311 1.9795 -0.5469 0.9888
1.9073 1.9795 -0.5437 0.9889
1.8378 1.9795 -0.5342 0.9890
1.7927 1.9795 -0.5282 0.9892
1.6397 1.8794 -0.4933 0.9899
1.6193 1.8794 -0.4906 0.9899
1.5992 1.8794 -0.4881 0.9900
1.5792 1.8794 -0.4855 0.9900
1.5207 1.8795 -0.4781 0.9902
1.5016 1.8795 -0.4758 0.9902
1.4639 1.8795 -0.4712 0.9903
1.4453 1.8795 -0.4689 0.9904
1.4087 1.8796 -0.4645 0.9905
1.3906 1.8796 -0.4624 0.9905
1.3727 1.8796 -0.4603 0.9906
1.3549 1.8796 -0.4583 0.9906
1.3200 1.8796 -0.4542 0.9907
1.3027 1.8796 -0.4523 0.9907
1.2686 1.8796 -0.4485 0.9908
1.2517 1.8796 -0.4466 0.9908
1.2185 1.8796 -0.4430 0.9909
1.2020 1.8796 -0.4413 0.9909
1.1695 1.8797 -0.4378 0.9910
1.1376 1.8797 -0.4345 0.9911
1.1220 1.8801 -0.4330 0.9911
1.1102 1.8869 -0.4330 0.9911
1.0984 1.8935 -0.4329 0.9911
1.0629 1.9132 -0.4329 0.9911
1.0390 1.9259 -0.4328 0.9911
1.0249 1.9281 -0.4319 0.9911
0.9645 1.9282 -0.4264 0.9912
0.9496 1.9282 -0.4251 0.9913
0.9349 1.9282 -0.4238 0.9913
0.9202 1.9282 -0.4225 0.9913
0.8767 1.9282 -0.4189 0.9914
0.8623 1.9282 -0.4177 0.9914
0.7917 1.9282 -0.4123 0.9915
0.7778 1.9282 -0.4112 0.9916
0.7094 1.9283 -0.4064 0.9917
0.6824 1.9283 -0.4045 0.9917
0.5898 1.9284 -0.3988 0.9918
0.5639 1.9284 -0.3974 0.9918
0.5510 1.9284 -0.3966 0.9919
0.5381 1.9284 -0.3960 0.9919
0.5125 1.9284 -0.3946 0.9919
0.4997 1.9284 -0.3940 0.9919
0.4743 1.9284 -0.3928 0.9919
0.4240 1.9284 -0.3905 0.9920
0.4116 1.9284 -0.3900 0.9920
0.3991 1.9284 -0.3895 0.9920
0.3743 1.9285 -0.3885 0.9920
0.3620 1.9285 -0.3881 0.9920
0.3496 1.9285 -0.3876 0.9920
0.3373 1.9285 -0.3872 0.9920
0.3128 1.9285 -0.3864 0.9921
0.3005 1.9285 -0.3860 0.9921
0.2762 1.9285 -0.3853 0.9921
0.2640 1.9285 -0.3850 0.9921
0.2397 1.9285 -0.3844 0.9921
0.2156 1.9286 -0.3838 0.9921
0.1914 1.9286 -0.3833 0.9921
0.1794 1.9286 -0.3831 0.9921
0.1674 1.9286 -0.3829 0.9921
0.1554 1.9286 -0.3827 0.9921
0.1434 1.9286 -0.3825 0.9921
0.1194 1.9286 -0.3822 0.9922
0.0716 1.9286 -0.3817 0.9922
0.0596 1.9286 -0.3816 0.9922
0.0477 1.9286 -0.3816 0.9922
0.0119 1.9287 -0.3814 0.9922
-0.0000 1.9287 -0.3814 0.9922
-0.0120 1.9287 -0.3814 0.9922
-0.0358 1.9287 -0.3815 0.9922
-0.0477 1.9287 -0.3816 0.9922
-0.0597 1.9287 -0.3816 0.9922
-0.0836 1.9287 -0.3818 0.9922
-0.1314 1.9287 -0.3823 0.9921
-0.1596 1.9805 -0.3930 0.9919
-0.1719 1.9805 -0.3932 0.9919
-0.1843 1.9805 -0.3934 0.9919
-0.1966 1.9806 -0.3936 0.9919
-0.2214 1.9806 -0.3941 0.9919
-0.2338 1.9806 -0.3944 0.9919
-0.2462 1.9806 -0.3947 0.9919
-0.2587 1.9806 -0.3950 0.9919
-0.2836 1.9806 -0.3957 0.9919
-0.3338 1.9806 -0.3972 0.9918
-0.3464 1.9806 -0.3977 0.9918
-0.3718 1.9806 -0.3986 0.9918
-0.3845 1.9806 -0.3990 0.9918
-0.4099 1.9807 -0.4000 0.9918
-0.4355 1.9807 -0.4011 0.9918
-0.4742 1.9807 -0.4028 0.9917
-0.4872 1.9807 -0.4034 0.9917
-0.5002 1.9807 -0.4040 0.9917
-0.5527 1.9807 -0.4067 0.9917
-0.5792 1.9808 -0.4081 0.9916
-0.6059 1.9808 -0.4097 0.9916
-0.6328 1.9808 -0.4113 0.9916
-0.6599 1.9808 -0.4129 0.9915
-0.7010 1.9808 -0.4156 0.9915
-0.7287 1.9808 -0.4174 0.9914
-0.7426 1.9808 -0.4184 0.9914
-0.7566 1.9809 -0.4194 0.9914
-0.7848 1.9809 -0.4214 0.9913
-0.8134 1.9809 -0.4235 0.9913
-0.8421 1.9809 -0.4257 0.9913
-0.8821 1.9725 -0.4273 0.9912
-0.9063 1.9611 -0.4273 0.9912
-0.9183 1.9553 -0.4272 0.9912
-0.9423 1.9435 -0.4272 0.9912
-0.9542 1.9375 -0.4271 0.9912
-0.9661 1.9313 -0.4271 0.9912
-0.9779 1.9252 -0.4271 0.9912
-0.9898 1.9189 -0.4270 0.9912
-1.0132 1.9063 -0.4270 0.9912
-1.0756 1.8808 -0.4285 0.9912
-1.0911 1.8809 -0.4300 0.9912
-6.2911 10.2521 -2.3789 0.9521
-6.3540 10.2122 -2.3788 0.9521
-6.4166 10.1721 -2.3786 0.9521
-6.5411 10.0906 -2.3783 0.9522
-6.7869 9.9231 -2.3777 0.9522
-6.8477 9.8803 -2.3775 0.9522
-6.9082 9.8371 -2.3773 0.9522
-6.9684 9.7936 -2.3772 0.9522
-7.1475 9.6608 -2.3767 0.9522
-7.2655 9.5704 -2.3764 0.9522
-7.3241 9.5247 -2.3763 0.9522
-7.4405 9.4322 -2.3760 0.9522
-7.4982 9.3854 -2.3758 0.9522
-7.6128 9.2908 -2.3756 0.9522
-7.7262 9.1948 -2.3753 0.9522
-7.7824 9.1463 -2.3751 0.9522
-7.8940 9.0483 -2.3748 0.9522
-7.9493 8.9988 -2.3747 0.9522
-8.0044 8.9489 -2.3746 0.9522
-8.0590 8.8987 -2.3744 0.9522
-8.1675 8.7973 -2.3741 0.9522
-8.2748 8.6946 -2.3739 0.9522
-8.4332 8.5382 -2.3735 0.9522
-8.5887 8.3788 -2.3731 0.9523
-8.6399 8.3251 -2.3729 0.9523
-8.7413 8.2167 -2.3727 0.9523
-8.7914 8.1621 -2.3725 0.9523
-8.8412 8.1071 -2.3724 0.9523
-8.8907 8.0519 -2.3723 0.9523
-8.9399 7.9963 -2.3722 0.9523
-9.0372 7.8843 -2.3719 0.9523
-9.0853 7.8279 -2.3718 0.9523
-9.3206 7.5413 -2.3712 0.9523
-9.3666 7.4832 -2.3711 0.9523
-9.4575 7.3660 -2.3708 0.9523
-9.5470 7.2478 -2.3706 0.9523
-9.6349 7.1285 -2.3704 0.9523
-9.7215 7.0081 -2.3702 0.9523
-9.7642 6.9475 -2.3701 0.9523
-9.8485 6.8256 -2.3699 0.9523
-9.9312 6.7027 -2.3696 0.9523
-9.9721 6.6409 -2.3695 0.9523
-10.0125 6.5788 -2.3694 0.9523
-10.0923 6.4539 -2.3692 0.9523
-10.1704 6.3280 -2.3690 0.9523
-10.2090 6.2647 -2.3689 0.9523
-10.3957 5.9449 -2.3685 0.9523
-10.4318 5.8803 -2.3684 0.9523
-10.5029 5.7504 -2.3682 0.9523
-10.5379 5.6851 -2.3681 0.9524
-10.5725 5.6196 -2.3680 0.9524
-10.6737 5.4219 -2.3677 0.9524
-10.7067 5.3556 -2.3677 0.9524
-10.7392 5.2891 -2.3676 0.9524
-10.8029 5.1554 -2.3674 0.9524
-10.8341 5.0883 -2.3673 0.9524
-10.8649 5.0210 -2.3672 0.9524
-10.8953 4.9535 -2.3671 0.9524
-10.9548 4.8180 -2.3669 0.9524
-10.9840 4.7500 -2.3668 0.9524
-11.0410 4.6134 -2.3666 0.9524
-11.1234 4.4072 -2.3663 0.9524
-11.1761 4.2690 -2.3661 0.9524
-11.2522 4.0604 -2.3659 0.9524
-11.2767 3.9907 -2.3658 0.9524
-11.3007 3.9207 -2.3657 0.9524
-11.4146 3.5688 -2.3653 0.9524
-11.4361 3.4981 -2.3652 0.9524
-11.4571 3.4272 -2.3651 0.9524
-11.5177 3.2137 -2.3649 0.9524
-11.5370 3.1423 -2.3649 0.9524
-11.5743 2.9993 -2.3647 0.9524
-11.5923 2.9275 -2.3646 0.9524
-11.6098 2.8557 -2.3646 0.9524
-11.6599 2.6396 -2.3644 0.9524
-11.6757 2.5674 -2.3643 0.9524
-11.6910 2.4951 -2.3643 0.9524
-11.7861 1.9864 -2.3639 0.9524
-11.8092 1.8404 -2.3638 0.9524
-11.8201 1.7674 -2.3637 0.9524
-11.8306 1.6942 -2.3637 0.9524
-11.8503 1.5477 -2.3636 0.9524
-11.8594 1.4743 -2.3635 0.9524
-11.8680 1.4010 -2.3635 0.9524
-11.8914 1.1805 -2.3634 0.9524
-11.8983 1.1069 -2.3633 0.9524
-11.9339 0.5909 -2.3631 0.9524
-11.9372 0.5171 -2.3631 0.9524
-11.9424 0.3694 -2.3630 0.9524
-11.9443 0.2955 -2.3630 0.9525
-11.9458 0.2217 -2.3630 0.9525
-11.9474 0.0739 -2.3629 0.9525
-11.5043 0.0000 -2.3642 0.9541
-11.5040 -0.0712 -2.3641 0.9541
-11.5021 -0.2134 -2.3641 0.9541
-11.4984 -0.3557 -2.3641 0.9541
-11.4930 -0.4979 -2.3641 0.9541
-11.4860 -0.6400 -2.3640 0.9541
-11.4665 -0.9238 -2.3640 0.9541
-11.4606 -0.9947 -2.3640 0.9541
-11.4542 -1.0656 -2.3640 0.9541
-11.4474 -1.1364 -2.3640 0.9541
-11.4325 -1.2779 -2.3640 0.9541
-11.3877 -1.6308 -2.3641 0.9541
-11.3321 -1.9821 -2.3641 0.9541
-11.3197 -2.0522 -2.3641 0.9541
-11.2937 -2.1921 -2.3642 0.9541
-11.2800 -2.2619 -2.3642 0.9541
-11.2364 -2.4708 -2.3643 0.9541
-11.1378 -2.8862 -2.3644 0.9541
-11.1199 -2.9550 -2.3645 0.9541
-11.1016 -3.0238 -2.3645 0.9541
-11.0828 -3.0924 -2.3645 0.9541
-11.0637 -3.1609 -2.3646 0.9541
-11.0441 -3.2294 -2.3646 0.9541
-11.0240 -3.2976 -2.3646 0.9541
-10.9399 -3.5696 -2.3648 0.9541
-10.8953 -3.7047 -2.3649 0.9541
-10.8491 -3.8393 -2.3650 0.9541
-10.8253 -3.9064 -2.3650 0.9541
-10.8012 -3.9734 -2.3651 0.9541
-10.7767 -4.0402 -2.3651 0.9541
-10.7517 -4.1068 -2.3652 0.9541
-10.7263 -4.1734 -2.3652 0.9541
-10.7005 -4.2397 -2.3653 0.9541
-10.6744 -4.3059 -2.3654 0.9541
-10.5657 -4.5691 -2.3656 0.9541
-10.5089 -4.6996 -2.3657 0.9541
-10.4799 -4.7647 -2.3658 0.9541
-10.4207 -4.8942 -2.3659 0.9541
-10.3906 -4.9587 -2.3660 0.9541
-10.3290 -5.0871 -2.3661 0.9541
-10.2338 -5.2783 -2.3663 0.9541
-10.1684 -5.4048 -2.3665 0.9541
-10.1014 -5.5306 -2.3666 0.9541
-10.0674 -5.5931 -2.3667 0.9541
-10.0329 -5.6554 -2.3668 0.9541
-9.9981 -5.7176 -2.3669 0.9541
-9.9629 -5.7795 -2.3669 0.9541
-9.9273 -5.8412 -2.3670 0.9541
-9.8550 -5.9640 -2.3672 0.9540
-9.8183 -6.0250 -2.3673 0.9540
-9.7812 -6.0858 -2.3674 0.9540
-9.7437 -6.1464 -2.3675 0.9540
-9.7059 -6.2068 -2.3675 0.9540
-9.6677 -6.2670 -2.3676 0.9540
-9.6291 -6.3269 -2.3677 0.9540
-9.5509 -6.4460 -2.3679 0.9540
-9.3901 -6.6813 -2.3683 0.9540
-9.1810 -6.9699 -2.3688 0.9540
-9.1381 -7.0269 -2.3689 0.9540
-9.0948 -7.0836 -2.3690 0.9540
-9.0513 -7.1400 -2.3691 0.9540
-8.9185 -7.3077 -2.3694 0.9540
-8.8735 -7.3630 -2.3696 0.9540
-8.7826 -7.4729 -2.3698 0.9540
-8.7366 -7.5274 -2.3699 0.9540
-8.4056 -7.9012 -2.3707 0.9540
-8.3081 -8.0054 -2.3709 0.9540
-8.2588 -8.0570 -2.3711 0.9540
-8.1092 -8.2102 -2.3714 0.9540
-8.0587 -8.2606 -2.3716 0.9540
-7.9568 -8.3605 -2.3718 0.9540
-7.8016 -8.5081 -2.3722 0.9540
-7.5905 -8.7004 -2.3728 0.9539
-7.4290 -8.8413 -2.3732 0.9539
-7.2650 -8.9792 -2.3736 0.9539
-7.2098 -9.0245 -2.3737 0.9539
-7.0985 -9.1141 -2.3740 0.9539
-7.0424 -9.1583 -2.3741 0.9539
-6.9860 -9.2022 -2.3743 0.9539
-6.8725 -9.2891 -2.3746 0.9539
-6.6423 -9.4586 -2.3752 0.9539
-6.5841 -9.5001 -2.3753 0.9539
-6.3487 -9.6625 -2.3759 0.9539
-6.2893 -9.7022 -2.3761 0.9539
-6.2296 -9.7415 -2.3762 0.9539
-6.1696 -9.7805 -2.3764 0.9539
-6.0490 -9.8574 -2.3767 0.9539
-5.9883 -9.8953 -2.3769 0.9539
-5.8049 -10.0067 -2.3773 0.9539
-5.7433 -10.0430 -2.3775 0.9539
-5.6814 -10.0791 -2.3777 0.9539
-5.6194 -10.1147 -2.3778 0.9538
-5.5571 -10.1499 -2.3780 0.9538
-5.4946 -10.1848 -2.3782 0.9538
-5.4319 -10.2193 -2.3783 0.9538
-5.3690 -10.2534 -2.3785 0.9538
-5.3058 -10.2871 -2.3786 0.9538
-5.2424 -10.3205 -2.3788 0.9538
-5.1789 -10.3534 -2.3790 0.9538
-5.1151 -10.3860 -2.3791 0.9538
-4.9869 -10.4499 -2.3795 0.9538
-4.8580 -10.5123 -2.3798 0.9538
-4.7933 -10.5429 -2.3800 0.9538
-4.5979 -10.6323 -2.3805 0.9538
-4.5324 -10.6613 -2.3807 0.9538
-4.4667 -10.6899 -2.3809 0.9538
-4.4008 -10.7181 -2.3810 0.9538
-0.9381 -2.3257 -0.5153 0.9898
-0.8719 -2.3257 -0.5104 0.9899
-0.8555 -2.3257 -0.5093 0.9899
-0.8031 -2.2256 -0.4862 0.9904
-0.7876 -2.2256 -0.4852 0.9904
-0.7721 -2.2256 -0.4841 0.9904
-0.7568 -2.2256 -0.4831 0.9904
-0.7415 -2.2256 -0.4821 0.9905
-0.7262 -2.2256 -0.4811 0.9905
-0.6959 -2.2256 -0.4792 0.9905
-0.6808 -2.2256 -0.4783 0.9905
-0.6658 -2.2256 -0.4774 0.9906
-0.6210 -2.2256 -0.4748 0.9906
-0.6062 -2.2257 -0.4740 0.9906
-0.5915 -2.2257 -0.4733 0.9906
-0.5767 -2.2256 -0.4725 0.9907
-0.5621 -2.2257 -0.4717 0.9907
-0.4750 -2.2257 -0.4677 0.9907
-0.4606 -2.2257 -0.4671 0.9908
-0.4178 -2.2257 -0.4654 0.9908
-0.4035 -2.2257 -0.4649 0.9908
-0.3893 -2.2258 -0.4643 0.9908
-0.3751 -2.2258 -0.4639 0.9908
-0.3610 -2.2258 -0.4634 0.9908
-0.3328 -2.2258 -0.4625 0.9909
-0.3047 -2.2258 -0.4617 0.9909
-0.2767 -2.2258 -0.4609 0.9909
-0.2488 -2.2258 -0.4603 0.9909
-0.2210 -2.2258 -0.4597 0.9909
-0.2071 -2.2258 -0.4594 0.9909
-0.1793 -2.2258 -0.4589 0.9909
-0.1378 -2.2259 -0.4583 0.9909
-0.1102 -2.2259 -0.4580 0.9909
-0.0688 -2.2259 -0.4577 0.9909
-0.0137 -2.2260 -0.4574 0.9910
0.0138 -2.2260 -0.4574 0.9910
0.0275 -2.2260 -0.4575 0.9910
0.0413 -2.2260 -0.4575 0.9909
0.0688 -2.2260 -0.4577 0.9909
0.0964 -2.2260 -0.4579 0.9909
0.1102 -2.2260 -0.4580 0.9909
0.1378 -2.2260 -0.4583 0.9909
0.1517 -2.2260 -0.4585 0.9909
0.1655 -2.2260 -0.4587 0.9909
0.1794 -2.2260 -0.4589 0.9909
0.2349 -2.2261 -0.4600 0.9909
0.2628 -2.2261 -0.4606 0.9909
0.2768 -2.2261 -0.4610 0.9909
0.3188 -2.2261 -0.4621 0.9909
0.3329 -2.2261 -0.4626 0.9909
0.3894 -2.2262 -0.4644 0.9908
0.4036 -2.2262 -0.4649 0.9908
0.4464 -2.2262 -0.4666 0.9908
0.4751 -2.2262 -0.4678 0.9907
0.4895 -2.2262 -0.4684 0.9907
0.5185 -2.2262 -0.4697 0.9907
0.5622 -2.2263 -0.4719 0.9907
0.6212 -2.2263 -0.4750 0.9906
0.6510 -2.2263 -0.4767 0.9906
0.7112 -2.2263 -0.4803 0.9905
0.7264 -2.2263 -0.4813 0.9905
0.7570 -2.2264 -0.4832 0.9904
0.8034 -2.2264 -0.4864 0.9904
0.9721 -2.3267 -0.5182 0.9898
0.9891 -2.3267 -0.5195 0.9897
1.0062 -2.3267 -0.5209 0.9897
1.0233 -2.3267 -0.5223 0.9897
1.0405 -2.3267 -0.5238 0.9896
1.0753 -2.3267 -0.5267 0.9896
1.1639 -2.3268 -0.5346 0.9894
1.2368 -2.3268 -0.5415 0.9893
1.3306 -2.3269 -0.5508 0.9891
1.4082 -2.3269 -0.5589 0.9890
1.4478 -2.3269 -0.5632 0.9889
1.4679 -2.3269 -0.5654 0.9888
1.5496 -2.3270 -0.5745 0.9886
1.5915 -2.3270 -0.5794 0.9886
1.6995 -2.3271 -0.5922 0.9883
1.7667 -2.3271 -0.6004 0.9881
1.7895 -2.3271 -0.6033 0.9881
1.8125 -2.3271 -0.6062 0.9880
1.8357 -2.3271 -0.6091 0.9880
1.8592 -2.3271 -0.6121 0.9879
1.8829 -2.3271 -0.6152 0.9879
1.9068 -2.3272 -0.6183 0.9878
1.9310 -2.3272 -0.6214 0.9877
1.9802 -2.3272 -0.6279 0.9876
2.0051 -2.3272 -0.6313 0.9875
2.0304 -2.3272 -0.6347 0.9875
2.1077 -2.3273 -0.6452 0.9873
2.1877 -2.3273 -0.6564 0.9870
2.2988 -2.3274 -0.6722 0.9867
2.3274 -2.3274 -0.6764 0.9866
2.3564 -2.3274 -0.6806 0.9866
2.3857 -2.3274 -0.6849 0.9865
2.4154 -2.3275 -0.6893 0.9864
2.4456 -2.3275 -0.6938 0.9863
2.4761 -2.3275 -0.6983 0.9862
2.5070 -2.3275 -0.7030 0.9861
2.5383 -2.3275 -0.7077 0.9860
2.6679 -2.3276 -0.7276 0.9856
2.7356 -2.3276 -0.7381 0.9854
2.7701 -2.3277 -0.7436 0.9853
2.8408 -2.3277 -0.7547 0.9851
2.9136 -2.3277 -0.7664 0.9849
2.9509 -2.3278 -0.7724 0.9848
2.9887 -2.3278 -0.7785 0.9846
3.1060 -2.3279 -0.7977 0.9843
3.1464 -2.3279 -0.8043 0.9841
3.1874 -2.3279 -0.8111 0.9840
3.3150 -2.3279 -0.8324 0.9836
3.3590 -2.3280 -0.8398 0.9834
3.4038 -2.3280 -0.8474 0.9833
3.5432 -2.3281 -0.8712 0.9828
3.6406 -2.3281 -0.8881 0.9825
3.6908 -2.3282 -0.8968 0.9823
3.7419 -2.3282 -0.9057 0.9822
3.9016 -2.3283 -0.9337 0.9816
4.0715 -2.3284 -0.9639 0.9810
4.1307 -2.3284 -0.9744 0.9808
4.1911 -2.3284 -0.9853 0.9806
4.2529 -2.3285 -0.9964 0.9804
4.3161 -2.3285 -1.0078 0.9802
4.7284 -2.3287 -1.0831 0.9787
4.8032 -2.3288 -1.0970 0.9784
4.8799 -2.3288 -1.1112 0.9782
5.0395 -2.3289 -1.1409 0.9776
5.1225 -2.3290 -1.1564 0.9773
5.2079 -2.3290 -1.1724 0.9770
5.2956 -2.3290 -1.1889 0.9767
5.3855 -2.3289 -1.2058 0.9763
5.4503 -2.2774 -1.2139 0.9762
5.8791 -2.3294 -1.2995 0.9745
5.9871 -2.3295 -1.3202 0.9741
6.2138 -2.3296 -1.3637 0.9733
6.3329 -2.3296 -1.3867 0.9728
6.4560 -2.3297 -1.4105 0.9724
6.6838 -2.3653 -1.4570 0.9715
6.9222 -2.4016 -1.5057 0.9705
6.9430 -2.3608 -1.5070 0.9705
11.2034 -3.7323 -2.4267 0.9529
11.2267 -3.6631 -2.4268 0.9529
11.2496 -3.5938 -2.4269 0.9529
11.3080 -3.3825 -2.4255 0.9529
11.3496 -3.2426 -2.4257 0.9529
11.3896 -3.1022 -2.4258 0.9529
11.4277 -2.9612 -2.4260 0.9529
11.4461 -2.8906 -2.4260 0.9529
11.4986 -2.6780 -2.4262 0.9529
11.5153 -2.6069 -2.4263 0.9529
11.5625 -2.3930 -2.4265 0.9529
11.5774 -2.3215 -2.4265 0.9529
11.5917 -2.2499 -2.4266 0.9529
11.6448 -1.9627 -2.4268 0.9529
11.6570 -1.8906 -2.4268 0.9529
11.6908 -1.6741 -2.4270 0.9529
11.7110 -1.5295 -2.4271 0.9529
11.7204 -1.4571 -2.4271 0.9529
11.7294 -1.3846 -2.4271 0.9529
11.7379 -1.3120 -2.4272 0.9529
11.7675 -1.0214 -2.4273 0.9529
11.7737 -0.9486 -2.4273 0.9529
11.7795 -0.8758 -2.4274 0.9529
11.8016 -0.5112 -2.4275 0.9529
11.8072 -0.3652 -2.4276 0.9529
11.8094 -0.2922 -2.4276 0.9529
11.8123 -0.1461 -2.4276 0.9529
11.8130 -0.0730 -2.4276 0.9529
11.8133 0.0000 -2.4277 0.9529
11.8131 0.0731 -2.4277 0.9529
11.8125 0.1461 -2.4277 0.9529
11.7993 0.5843 -2.4277 0.9529
11.7954 0.6572 -2.4277 0.9529
11.7864 0.8030 -2.4277 0.9529
11.7812 0.8759 -2.4277 0.9529
11.7484 1.2397 -2.4277 0.9529
11.7042 1.6023 -2.4277 0.9529
11.6940 1.6746 -2.4276 0.9529
11.6487 1.9633 -2.4276 0.9529
11.6233 2.1072 -2.4275 0.9529
11.5961 2.2507 -2.4275 0.9529
11.5818 2.3224 -2.4275 0.9529
11.5520 2.4654 -2.4274 0.9529
11.5364 2.5368 -2.4274 0.9529
11.4516 2.8920 -2.4272 0.9529
11.4334 2.9627 -2.4272 0.9529
11.4146 3.0333 -2.4271 0.9529
11.3758 3.1742 -2.4270 0.9529
11.3353 3.3145 -2.4270 0.9529
6.8277 2.0424 -1.4645 0.9713
6.5711 2.0100 -1.4121 0.9723
6.0596 1.9772 -1.3099 0.9743
5.9351 1.9773 -1.2856 0.9748
5.8151 1.9773 -1.2622 0.9752
5.6995 1.9774 -1.2397 0.9757
5.5878 1.9774 -1.2181 0.9761
5.4799 1.9775 -1.1972 0.9765
5.3758 1.9776 -1.1771 0.9769
5.2750 1.9776 -1.1577 0.9773
5.1775 1.9777 -1.1390 0.9776
5.0831 1.9777 -1.1209 0.9780
4.9917 1.9778 -1.1034 0.9783
4.4232 1.9781 -0.9957 0.9804
4.2805 1.9782 -0.9690 0.9809
4.2120 1.9782 -0.9563 0.9812
4.1453 1.9782 -0.9439 0.9814
4.0168 1.9783 -0.9201 0.9819
3.9550 1.9783 -0.9088 0.9821
3.8947 1.9784 -0.8977 0.9823
3.8358 1.9784 -0.8869 0.9825
3.7783 1.9784 -0.8765 0.9827
3.7222 1.9785 -0.8663 0.9829
3.6673 1.9785 -0.8563 0.9831
3.6137 1.9785 -0.8466 0.9833
3.5101 1.9786 -0.8280 0.9837
3.4108 1.9787 -0.8103 0.9840
3.3157 1.9787 -0.7935 0.9844
3.2696 1.9787 -0.7854 0.9845
3.2245 1.9787 -0.7775 0.9847
3.0526 1.9788 -0.7476 0.9853
3.0117 1.9789 -0.7406 0.9854
2.9715 1.9789 -0.7337 0.9855
2.8934 1.9789 -0.7204 0.9858
2.7813 1.9790 -0.7015 0.9862
2.6749 1.9791 -0.6838 0.9865
2.6406 1.9791 -0.6781 0.9866
2.6069 1.9791 -0.6726 0.9867
2.4154 1.9792 -0.6417 0.9873
2.3554 1.9792 -0.6322 0.9875
2.3261 1.9792 -0.6276 0.9876
2.2972 1.9792 -0.6231 0.9877
2.2687 1.9793 -0.6187 0.9878
2.2129 1.9793 -0.6101 0.9879
2.1855 1.9793 -0.6059 0.9880
2.1586 1.9793 -0.6018 0.9881
2.1320 1.9793 -0.5978 0.9882
2.1057 1.9794 -0.5939 0.9883
2.0040 1.9794 -0.5789 0.9886
1.9551 1.9794 -0.5717 0.9887
1.9311 1.9794 -0.5683 0.9888
1.9074 1.9795 -0.5649 0.9888
1.8839 1.9795 -0.5616 0.9889
1.8607 1.9795 -0.5583 0.9890
1.8151 1.9795 -0.5519 0.9891
1.7927 1.9795 -0.5488 0.9892
1.7056 1.9796 -0.5370 0.9894
1.6844 1.9796 -0.5341 0.9894
1.6634 1.9796 -0.5314 0.9895
1.6426 1.9796 -0.5286 0.9896
1.6221 1.9796 -0.5259 0.9896
1.6017 1.9796 -0.5233 0.9897
1.4087 1.8795 -0.4827 0.9905
1.3906 1.8796 -0.4805 0.9905
1.3727 1.8796 -0.4783 0.9905
1.3550 1.8796 -0.4762 0.9906
1.3374 1.8796 -0.4741 0.9906
1.3199 1.8796 -0.4720 0.9907
1.3027 1.8796 -0.4700 0.9907
1.2686 1.8796 -0.4660 0.9908
1.2185 1.8796 -0.4603 0.9909
1.1857 1.8796 -0.4567 0.9910
1.1217 1.8797 -0.4498 0.9911
1.0443 1.8797 -0.4419 0.9913
1.0141 1.8797 -0.4389 0.9913
0.9992 1.8798 -0.4375 0.9913
0.9843 1.8798 -0.4360 0.9914
0.9180 1.8935 -0.4324 0.9914
0.9062 1.8990 -0.4324 0.9914
0.8944 1.9044 -0.4324 0.9914
0.8826 1.9097 -0.4323 0.9914
0.8587 1.9202 -0.4323 0.9914
0.8057 1.9282 -0.4295 0.9915
0.7917 1.9282 -0.4284 0.9915
0.7778 1.9282 -0.4273 0.9915
0.7640 1.9283 -0.4262 0.9916
0.7365 1.9283 -0.4242 0.9916
0.7229 1.9283 -0.4232 0.9916
0.7094 1.9283 -0.4222 0.9916
0.6959 1.9283 -0.4213 0.9917
0.6824 1.9283 -0.4204 0.9917
0.6690 1.9283 -0.4194 0.9917
0.6292 1.9283 -0.4168 0.9918
0.5898 1.9283 -0.4144 0.9918
0.5768 1.9284 -0.4136 0.9918
0.5510 1.9284 -0.4121 0.9918
0.5125 1.9284 -0.4100 0.9919
0.4997 1.9284 -0.4094 0.9919
0.4366 1.9284 -0.4063 0.9920
0.4116 1.9284 -0.4052 0.9920
0.3991 1.9284 -0.4047 0.9920
0.3867 1.9285 -0.4042 0.9920
0.3620 1.9285 -0.4032 0.9920
0.3005 1.9285 -0.4011 0.9921
0.2883 1.9285 -0.4007 0.9921
0.2519 1.9285 -0.3997 0.9921
0.1914 1.9286 -0.3983 0.9921
0.1674 1.9286 -0.3978 0.9921
0.1434 1.9286 -0.3974 0.9921
0.1314 1.9286 -0.3972 0.9921
0.1075 1.9286 -0.3969 0.9921
0.0835 1.9286 -0.3967 0.9921
0.0477 1.9286 -0.3965 0.9922
0.0000 1.9287 -0.3963 0.9922
-0.0238 1.9287 -0.3964 0.9922
-0.1075 1.9287 -0.3970 0.9921
-0.1194 1.9287 -0.3971 0.9921
-0.1314 1.9287 -0.3973 0.9921
-0.1719 1.9805 -0.4085 0.9919
-0.1843 1.9805 -0.4088 0.9919
-0.2214 1.9806 -0.4095 0.9919
-0.2338 1.9806 -0.4098 0.9919
-0.2462 1.9806 -0.4101 0.9919
-0.2712 1.9806 -0.4108 0.9919
-0.2837 1.9806 -0.4112 0.9919
-0.2962 1.9806 -0.4115 0.9919
-0.3464 1.9806 -0.4132 0.9918
-0.3717 1.9806 -0.4141 0.9918
-0.3845 1.9806 -0.4146 0.9918
-0.4099 1.9806 -0.4157 0.9918
-0.4227 1.9807 -0.4162 0.9918
-0.4356 1.9807 -0.4168 0.9918
-0.4484 1.9807 -0.4173 0.9917
-0.4742 1.9807 -0.4185 0.9917
-0.5002 1.9807 -0.4198 0.9917
-0.5659 1.9807 -0.4233 0.9916
-0.5792 1.9807 -0.4241 0.9916
-0.6193 1.9808 -0.4265 0.9916
-0.6582 1.9758 -0.4280 0.9915
-0.6704 1.9716 -0.4279 0.9915
-0.7067 1.9583 -0.4278 0.9915
-0.7307 1.9491 -0.4278 0.9915
-0.7547 1.9396 -0.4277 0.9915
-0.7785 1.9298 -0.4276 0.9915
-0.7903 1.9248 -0.4276 0.9915
-0.8257 1.9094 -0.4275 0.9915
-0.8374 1.9041 -0.4275 0.9915
-0.8840 1.8821 -0.4273 0.9915
-0.8976 1.8807 -0.4283 0.9915
-0.9119 1.8808 -0.4295 0.9915
-0.9848 1.8808 -0.4363 0.9914
-1.0298 1.8808 -0.4406 0.9913
-1.0449 1.8808 -0.4422 0.9913
-1.0602 1.8808 -0.4437 0.9912
-1.0756 1.8808 -0.4453 0.9912
-1.0911 1.8808 -0.4468 0.9912
-1.1067 1.8809 -0.4485 0.9911
-1.1224 1.8808 -0.4501 0.9911
-1.1382 1.8809 -0.4518 0.9911
-6.1769 9.7921 -2.3792 0.9538
-6.2968 9.7137 -2.3789 0.9538
-6.4156 9.6338 -2.3786 0.9538
-6.5334 9.5526 -2.3783 0.9538
-6.5920 9.5114 -2.3781 0.9538
-6.7660 9.3857 -2.3777 0.9539
-6.8807 9.3002 -2.3774 0.9539
-7.0508 9.1692 -2.3770 0.9539
-7.1069 9.1249 -2.3768 0.9539
-7.2184 9.0352 -2.3766 0.9539
-7.2737 8.9899 -2.3764 0.9539
-7.4921 8.8052 -2.3759 0.9539
-7.6529 8.6632 -2.3754 0.9539
-7.7058 8.6152 -2.3753 0.9539
-7.7585 8.5669 -2.3752 0.9539
-7.8630 8.4693 -2.3749 0.9539
-7.9662 8.3705 -2.3746 0.9539
-8.0174 8.3206 -2.3745 0.9539
-8.0683 8.2704 -2.3744 0.9539
-8.1188 8.2199 -2.3743 0.9539
-8.2190 8.1180 -2.3740 0.9539
-8.2686 8.0666 -2.3739 0.9539
-8.3179 8.0149 -2.3737 0.9539
-8.4155 7.9105 -2.3735 0.9539
-8.5595 7.7519 -2.3731 0.9539
-8.6538 7.6446 -2.3729 0.9539
-8.7005 7.5906 -2.3728 0.9539
-8.7468 7.5362 -2.3727 0.9539
-8.7929 7.4816 -2.3725 0.9539
-8.8838 7.3716 -2.3723 0.9540
-9.0617 7.1482 -2.3719 0.9540
-9.1486 7.0349 -2.3716 0.9540
-9.1915 6.9779 -2.3715 0.9540
-9.2340 6.9206 -2.3714 0.9540
-9.3180 6.8053 -2.3712 0.9540
-9.4007 6.6889 -2.3710 0.9540
-9.4415 6.6304 -2.3709 0.9540
-9.5219 6.5125 -2.3707 0.9540
-9.5616 6.4532 -2.3706 0.9540
-9.6399 6.3339 -2.3704 0.9540
-9.6785 6.2740 -2.3703 0.9540
-9.7167 6.2137 -2.3702 0.9540
-9.8658 5.9705 -2.3698 0.9540
-9.9022 5.9091 -2.3697 0.9540
-9.9737 5.7858 -2.3695 0.9540
-10.0089 5.7238 -2.3694 0.9540
-10.0782 5.5991 -2.3693 0.9540
-10.1792 5.4106 -2.3690 0.9540
-10.2121 5.3474 -2.3689 0.9540
-10.2447 5.2839 -2.3688 0.9540
-10.2768 5.2203 -2.3687 0.9540
-10.3708 5.0282 -2.3685 0.9540
-10.4611 4.8344 -2.3682 0.9540
-10.5478 4.6389 -2.3680 0.9540
-10.5758 4.5734 -2.3679 0.9540
-10.6576 4.3760 -2.3676 0.9540
-10.6841 4.3098 -2.3675 0.9540
-10.7101 4.2435 -2.3674 0.9540
-10.7358 4.1770 -2.3673 0.9540
-10.7610 4.1104 -2.3672 0.9540
-10.7858 4.0436 -2.3671 0.9541
-10.8102 3.9767 -2.3671 0.9541
-10.8342 3.9096 -2.3670 0.9541
-10.8578 3.8424 -2.3669 0.9541
-10.8810 3.7751 -2.3668 0.9541
-10.9696 3.5043 -2.3665 0.9541
-11.0516 3.2315 -2.3662 0.9541
-11.0900 3.0944 -2.3661 0.9541
-11.1086 3.0257 -2.3660 0.9541
-11.1445 2.8879 -2.3659 0.9541
-11.2113 2.6111 -2.3656 0.9541
-11.2989 2.1930 -2.3653 0.9541
-11.3246 2.0530 -2.3652 0.9541
-11.3368 1.9829 -2.3651 0.9541
-11.3486 1.9128 -2.3651 0.9541
-11.3710 1.7721 -2.3650 0.9541
-11.3815 1.7018 -2.3649 0.9541
-11.4105 1.4902 -2.3648 0.9541
-11.4193 1.4196 -2.3647 0.9541
-11.4355 1.2782 -2.3647 0.9541
-11.4630 0.9949 -2.3645 0.9541
-11.4790 0.7821 -2.3644 0.9541
-11.4875 0.6400 -2.3644 0.9541
-11.4911 0.5689 -2.3643 0.9541
-11.4943 0.4979 -2.3643 0.9541
-11.4970 0.4268 -2.3643 0.9541
-11.5012 0.2846 -2.3642 0.9541
-11.5026 0.2134 -2.3642 0.9541
-11.5036 0.1423 -2.3642 0.9541
-11.5042 0.0711 -2.3642 0.9541
-11.0913 -0.0686 -2.3653 0.9557
-11.0905 -0.1372 -2.3653 0.9557
