ply
format ascii 1.0
element vertex 1594
property float32 x
property float32 y
property float32 z
property float32 I
end_header
-3.2224 2.3841 -1.4685 0.9831
-3.2858 2.3379 -1.4774 0.9830
-3.3071 2.3225 -1.4805 0.9829
-3.3716 2.2755 -1.4902 0.9828
-3.4151 2.2439 -1.4970 0.9827
-3.4369 2.2280 -1.5006 0.9827
-3.5032 2.1797 -1.5116 0.9826
-3.5231 2.1619 -1.5143 0.9825
-3.4793 2.0762 -1.4844 0.9829
-3.4775 2.0462 -1.4782 0.9830
-3.5307 2.0191 -1.4900 0.9828
-3.5575 2.0053 -1.4961 0.9828
-3.6627 2.0349 -1.5350 0.9823
-3.7045 2.0282 -1.5473 0.9822
-3.7470 2.0215 -1.5598 0.9820
-3.8341 2.0076 -1.5855 0.9817
-3.9703 1.9860 -1.6263 0.9813
-4.2001 1.9726 -1.7000 0.9804
-4.2684 1.9726 -1.7227 0.9802
-4.4106 1.9724 -1.7701 0.9796
-4.5608 1.9723 -1.8204 0.9791
-4.6392 1.9722 -1.8468 0.9788
-4.7199 1.9721 -1.8740 0.9784
-4.8030 1.9721 -1.9022 0.9781
-5.0388 1.9605 -1.9808 0.9772
-5.0388 1.9247 -1.9761 0.9773
-5.1214 1.9200 -2.0038 0.9770
-5.7058 2.0192 -2.2174 0.9745
-5.7181 1.9838 -2.2174 0.9745
-5.8824 1.9194 -2.2669 0.9740
-6.2354 1.8652 -2.3844 0.9727
-6.2468 1.8266 -2.3844 0.9727
-6.2794 1.7104 -2.3843 0.9727
-6.2898 1.6715 -2.3843 0.9727
-6.3099 1.5935 -2.3842 0.9727
-6.3290 1.5153 -2.3842 0.9727
-6.3472 1.4369 -2.3842 0.9727
-6.3559 1.3976 -2.3842 0.9727
-6.3644 1.3583 -2.3841 0.9727
-6.3726 1.3189 -2.3841 0.9727
-6.4101 1.1212 -2.3840 0.9727
-6.4169 1.0815 -2.3840 0.9727
-6.4234 1.0418 -2.3840 0.9727
-6.4297 1.0021 -2.3840 0.9727
-6.4357 0.9623 -2.3840 0.9727
-6.4415 0.9225 -2.3840 0.9727
-6.4711 0.6829 -2.3839 0.9727
-6.4752 0.6428 -2.3839 0.9727
-6.4790 0.6028 -2.3839 0.9727
-6.4859 0.5226 -2.3839 0.9727
-6.4919 0.4423 -2.3838 0.9727
-6.4968 0.3620 -2.3838 0.9727
-6.4989 0.3218 -2.3838 0.9727
-6.5023 0.2414 -2.3838 0.9727
-6.5048 0.1610 -2.3838 0.9727
-6.5066 0.0403 -2.3838 0.9727
-6.3609 0.0000 -2.3841 0.9732
-6.3608 -0.0393 -2.3841 0.9732
-6.3604 -0.0787 -2.3841 0.9732
-6.3598 -0.1180 -2.3841 0.9732
-6.3565 -0.2360 -2.3841 0.9732
-6.3549 -0.2753 -2.3841 0.9732
-6.3531 -0.3146 -2.3841 0.9732
-6.3511 -0.3538 -2.3841 0.9732
-6.3434 -0.4716 -2.3841 0.9732
-6.3299 -0.6284 -2.3841 0.9732
-6.3124 -0.7847 -2.3841 0.9732
-6.3075 -0.8238 -2.3841 0.9732
-6.3023 -0.8628 -2.3842 0.9732
-6.2969 -0.9017 -2.3842 0.9732
-6.2912 -0.9406 -2.3842 0.9732
-6.2792 -1.0184 -2.3842 0.9732
-6.2661 -1.0960 -2.3842 0.9732
-6.2522 -1.1734 -2.3842 0.9732
-6.2448 -1.2121 -2.3842 0.9732
-6.2372 -1.2507 -2.3843 0.9732
-6.2213 -1.3277 -2.3843 0.9732
-6.2046 -1.4046 -2.3843 0.9732
-6.1867 -1.4812 -2.3843 0.9732
-6.1172 -1.7477 -2.3845 0.9732
-6.1063 -1.7855 -2.3845 0.9732
-6.0952 -1.8232 -2.3845 0.9732
-6.0839 -1.8609 -2.3845 0.9732
-6.0605 -1.9361 -2.3846 0.9732
-6.0362 -2.0109 -2.3846 0.9732
-6.0110 -2.0854 -2.3847 0.9732
-5.9980 -2.1226 -2.3847 0.9732
-5.9714 -2.1967 -2.3847 0.9732
-5.9298 -2.3071 -2.3848 0.9732
-5.6608 -2.2835 -2.2878 0.9743
-5.5612 -2.2834 -2.2532 0.9746
-5.4646 -2.2833 -2.2197 0.9750
-5.4467 -2.3155 -2.2182 0.9750
-5.0214 -2.2829 -2.0674 0.9767
-4.8151 -2.3346 -2.0056 0.9774
-4.7401 -2.3345 -1.9804 0.9777
-4.6669 -2.3344 -1.9558 0.9780
-4.4579 -2.3343 -1.8860 0.9787
-4.3915 -2.3342 -1.8640 0.9790
-4.0233 -2.3339 -1.7433 0.9803
-3.9190 -2.3387 -1.7105 0.9807
-3.7088 -2.3717 -1.6500 0.9814
-3.6288 -2.3843 -1.6274 0.9816
-3.5896 -2.3905 -1.6164 0.9817
-3.5510 -2.3966 -1.6057 0.9819
-3.4566 -2.3641 -1.5696 0.9823
-3.3785 -2.4039 -1.5541 0.9824
-3.3730 -2.4315 -1.5584 0.9824
-3.3789 -2.4999 -1.5753 0.9822
-3.3571 -2.5160 -1.5724 0.9822
-3.2921 -2.5641 -1.5640 0.9823
-3.2492 -2.5958 -1.5587 0.9824
-3.1929 -2.6494 -1.5551 0.9824
-3.1601 -2.6888 -1.5551 0.9824
-3.1230 -2.6908 -1.5451 0.9825
-3.1022 -2.7064 -1.5430 0.9826
-3.1098 -2.7471 -1.5552 0.9824
-3.0901 -2.7640 -1.5539 0.9824
-2.9428 -2.8708 -1.5409 0.9826
-2.9011 -2.9011 -1.5377 0.9826
-2.7556 -2.8598 -1.4885 0.9832
-2.7382 -2.8771 -1.4887 0.9832
-2.7035 -2.9119 -1.4892 0.9832
-2.7027 -3.0216 -1.5195 0.9828
-2.6905 -3.0456 -1.5231 0.9828
-2.6782 -3.0698 -1.5269 0.9827
-2.6658 -3.0940 -1.5307 0.9827
-2.6533 -3.1184 -1.5346 0.9827
-2.5902 -3.2421 -1.5553 0.9824
-2.5645 -3.2926 -1.5642 0.9823
-2.5515 -3.3180 -1.5688 0.9823
-2.5384 -3.3436 -1.5734 0.9822
-2.4720 -3.3847 -1.5709 0.9823
-2.4662 -3.4210 -1.5806 0.9821
-2.5835 -3.9319 -1.7633 0.9801
-2.5834 -4.0398 -1.7972 0.9797
-2.5834 -4.0954 -1.8148 0.9795
-2.5834 -4.1520 -1.8328 0.9793
-2.5257 -4.1734 -1.8283 0.9794
-2.4935 -4.1785 -1.8238 0.9794
-2.4701 -4.2579 -1.8450 0.9792
-3.1312 -5.5550 -2.3900 0.9731
-3.0625 -5.5936 -2.3901 0.9731
-3.0279 -5.6125 -2.3902 0.9731
-2.9932 -5.6313 -2.3903 0.9731
-2.7827 -5.7395 -2.3907 0.9731
-2.7472 -5.7567 -2.3907 0.9731
-2.6043 -5.8236 -2.3910 0.9731
-2.5683 -5.8397 -2.3911 0.9731
-2.5322 -5.8557 -2.3911 0.9731
-2.4960 -5.8714 -2.3912 0.9731
-2.4598 -5.8869 -2.3913 0.9731
-2.3869 -5.9172 -2.3914 0.9731
-2.3137 -5.9466 -2.3915 0.9731
-2.2769 -5.9609 -2.3916 0.9731
-2.2401 -5.9751 -2.3917 0.9731
-2.1661 -6.0027 -2.3918 0.9731
-2.1266 -6.0092 -2.3891 0.9731
-2.0433 -6.0093 -2.3789 0.9733
-1.9608 -6.0093 -2.3692 0.9734
-1.8789 -6.0093 -2.3598 0.9735
-1.8382 -6.0094 -2.3553 0.9735
-1.7573 -6.0097 -2.3467 0.9736
-1.7170 -6.0098 -2.3426 0.9737
-1.6770 -6.0100 -2.3386 0.9737
-1.6370 -6.0101 -2.3347 0.9737
-1.5575 -6.0104 -2.3271 0.9738
-1.4785 -6.0107 -2.3200 0.9739
-1.4392 -6.0109 -2.3166 0.9739
-1.3714 -6.2366 -2.3933 0.9731
-1.2942 -6.2535 -2.3935 0.9731
-1.2168 -6.2694 -2.3936 0.9731
-1.1781 -6.2770 -2.3937 0.9731
-1.1393 -6.2843 -2.3938 0.9731
-1.0226 -6.3050 -2.3940 0.9731
-0.9836 -6.3114 -2.3941 0.9731
-0.9446 -6.3175 -2.3941 0.9731
-0.9055 -6.3235 -2.3942 0.9731
-0.8664 -6.3291 -2.3943 0.9731
-0.7097 -6.3494 -2.3946 0.9731
-0.6705 -6.3539 -2.3947 0.9731
-0.6312 -6.3581 -2.3947 0.9731
-0.5919 -6.3621 -2.3948 0.9731
-0.5525 -6.3658 -2.3949 0.9731
-0.5132 -6.3693 -2.3950 0.9731
-0.4738 -6.3726 -2.3950 0.9731
-0.3950 -6.3783 -2.3952 0.9731
-0.3555 -6.3809 -2.3953 0.9731
-0.3160 -6.3831 -2.3953 0.9731
-0.0395 -6.3922 -2.3959 0.9731
0.0395 -6.3926 -2.3960 0.9731
0.0791 -6.3925 -2.3961 0.9731
0.1186 -6.3921 -2.3962 0.9731
0.1581 -6.3914 -2.3963 0.9731
0.2372 -6.3894 -2.3964 0.9731
0.2767 -6.3880 -2.3965 0.9731
0.3162 -6.3864 -2.3966 0.9731
0.4742 -6.3774 -2.3969 0.9731
0.5530 -6.3715 -2.3970 0.9731
0.5924 -6.3681 -2.3971 0.9730
0.6318 -6.3645 -2.3972 0.9730
0.7499 -6.3523 -2.3974 0.9730
0.7891 -6.3478 -2.3975 0.9730
0.8677 -6.3379 -2.3976 0.9730
0.9069 -6.3326 -2.3977 0.9730
0.9460 -6.3271 -2.3978 0.9730
0.9847 -6.3181 -2.3966 0.9731
1.0628 -6.3058 -2.3967 0.9731
1.2186 -6.2782 -2.3970 0.9731
1.3350 -6.2551 -2.3972 0.9730
1.4509 -6.2297 -2.3974 0.9730
1.5279 -6.2116 -2.3975 0.9730
1.5663 -6.2022 -2.3976 0.9730
1.6047 -6.1926 -2.3977 0.9730
1.6430 -6.1827 -2.3977 0.9730
1.7576 -6.1517 -2.3979 0.9730
1.7956 -6.1408 -2.3980 0.9730
1.8336 -6.1298 -2.3980 0.9730
1.8716 -6.1185 -2.3981 0.9730
1.9094 -6.1069 -2.3982 0.9730
2.0601 -6.0585 -2.3984 0.9730
2.0976 -6.0458 -2.3985 0.9730
2.1349 -6.0328 -2.3985 0.9730
2.1723 -6.0197 -2.3986 0.9730
2.2095 -6.0063 -2.3987 0.9730
2.2838 -5.9788 -2.3988 0.9730
2.4312 -5.9211 -2.3990 0.9730
2.5408 -5.8754 -2.3992 0.9730
2.5772 -5.8597 -2.3993 0.9730
2.6134 -5.8438 -2.3993 0.9730
2.6856 -5.8113 -2.3994 0.9730
2.9351 -5.6906 -2.3998 0.9730
2.9703 -5.6725 -2.3999 0.9730
3.0404 -5.6356 -2.4000 0.9730
3.4545 -5.8711 -2.5531 0.9713
3.4908 -5.8497 -2.5532 0.9713
3.5270 -5.8281 -2.5533 0.9713
3.5631 -5.8063 -2.5533 0.9713
3.6348 -5.7621 -2.5534 0.9713
3.6704 -5.7396 -2.5535 0.9713
3.7060 -5.7170 -2.5535 0.9713
3.7413 -5.6941 -2.5536 0.9713
3.8117 -5.6476 -2.5537 0.9713
3.8814 -5.6003 -2.5538 0.9713
3.9505 -5.5521 -2.5539 0.9713
3.9849 -5.5277 -2.5540 0.9713
4.0191 -5.5030 -2.5540 0.9713
4.1207 -5.4279 -2.5542 0.9713
4.2209 -5.3508 -2.5544 0.9713
4.2541 -5.3247 -2.5544 0.9713
4.2870 -5.2985 -2.5545 0.9713
4.3198 -5.2720 -2.5545 0.9713
4.4492 -5.1639 -2.5547 0.9713
4.4812 -5.1364 -2.5548 0.9713
4.5129 -5.1087 -2.5548 0.9713
4.5445 -5.0808 -2.5549 0.9713
4.6071 -5.0244 -2.5550 0.9713
4.6383 -4.9959 -2.5550 0.9713
4.6692 -4.9672 -2.5551 0.9713
4.7608 -4.8800 -2.5552 0.9713
4.7910 -4.8506 -2.5553 0.9713
4.8508 -4.7911 -2.5554 0.9713
4.8804 -4.7611 -2.5554 0.9713
4.9098 -4.7309 -2.5555 0.9713
4.9681 -4.6700 -2.5556 0.9713
4.9970 -4.6393 -2.5556 0.9713
5.0542 -4.5773 -2.5557 0.9713
5.1106 -4.5146 -2.5558 0.9713
5.1385 -4.4830 -2.5558 0.9713
5.1937 -4.4192 -2.5559 0.9713
5.2211 -4.3871 -2.5560 0.9713
5.2482 -4.3548 -2.5560 0.9713
5.2751 -4.3223 -2.5560 0.9713
5.3018 -4.2897 -2.5561 0.9713
5.3283 -4.2569 -2.5561 0.9713
5.3807 -4.1908 -2.5562 0.9713
5.4831 -4.0567 -2.5564 0.9713
5.5081 -4.0228 -2.5564 0.9713
5.6303 -3.8508 -2.5566 0.9713
5.6541 -3.8160 -2.5566 0.9713
5.7010 -3.7459 -2.5567 0.9713
5.7471 -3.6752 -2.5568 0.9713
5.8365 -3.5321 -2.5569 0.9713
5.9013 -3.4233 -2.5570 0.9713
5.9224 -3.3868 -2.5570 0.9713
5.9433 -3.3502 -2.5571 0.9713
6.0639 -3.1277 -2.5573 0.9713
6.0832 -3.0901 -2.5573 0.9713
6.1397 -2.9768 -2.5574 0.9713
6.1762 -2.9007 -2.5574 0.9713
6.2463 -2.7471 -2.5575 0.9713
6.2799 -2.6697 -2.5576 0.9713
6.3285 -2.5528 -2.5576 0.9713
6.3443 -2.5137 -2.5577 0.9713
6.3749 -2.4351 -2.5577 0.9713
6.4047 -2.3561 -2.5578 0.9713
6.4192 -2.3164 -2.5578 0.9713
6.4335 -2.2767 -2.5578 0.9713
6.4612 -2.1970 -2.5578 0.9713
6.4747 -2.1570 -2.5579 0.9713
6.4880 -2.1170 -2.5579 0.9713
6.5263 -1.9962 -2.5579 0.9713
6.5505 -1.9154 -2.5580 0.9713
6.5851 -1.7936 -2.5580 0.9713
6.5961 -1.7528 -2.5580 0.9713
6.6069 -1.7120 -2.5580 0.9713
6.6173 -1.6711 -2.5580 0.9713
6.6276 -1.6302 -2.5581 0.9713
6.6473 -1.5481 -2.5581 0.9713
6.6568 -1.5070 -2.5581 0.9713
6.6750 -1.4246 -2.5581 0.9713
6.6837 -1.3832 -2.5581 0.9713
6.7004 -1.3005 -2.5582 0.9713
6.7083 -1.2590 -2.5582 0.9713
6.7234 -1.1760 -2.5582 0.9713
6.7374 -1.0927 -2.5582 0.9713
6.7441 -1.0511 -2.5582 0.9713
6.7505 -1.0093 -2.5582 0.9713
6.7566 -0.9676 -2.5582 0.9713
6.7625 -0.9258 -2.5582 0.9713
6.7681 -0.8839 -2.5582 0.9713
6.7735 -0.8421 -2.5582 0.9713
6.7834 -0.7582 -2.5582 0.9713
6.7879 -0.7163 -2.5582 0.9713
6.7922 -0.6743 -2.5582 0.9713
6.8001 -0.5902 -2.5583 0.9713
6.8036 -0.5481 -2.5583 0.9713
6.8069 -0.5061 -2.5583 0.9713
6.8098 -0.4640 -2.5583 0.9713
6.8126 -0.4218 -2.5583 0.9713
6.8151 -0.3797 -2.5583 0.9713
6.8192 -0.2954 -2.5583 0.9713
6.8223 -0.2110 -2.5583 0.9713
6.8251 -0.0844 -2.5582 0.9713
6.8255 -0.0422 -2.5582 0.9713
6.8254 0.0422 -2.5582 0.9713
6.8251 0.0844 -2.5582 0.9713
6.8235 0.1688 -2.5582 0.9713
6.8222 0.2110 -2.5582 0.9713
6.8208 0.2532 -2.5582 0.9713
6.8191 0.2954 -2.5582 0.9713
6.8171 0.3376 -2.5582 0.9713
6.8149 0.3797 -2.5582 0.9713
6.8124 0.4219 -2.5582 0.9713
6.8096 0.4640 -2.5582 0.9713
6.8066 0.5061 -2.5582 0.9713
6.8033 0.5481 -2.5581 0.9713
6.7960 0.6323 -2.5581 0.9713
6.7919 0.6743 -2.5581 0.9713
6.7781 0.8001 -2.5581 0.9713
6.7561 0.9675 -2.5580 0.9713
6.7228 1.1759 -2.5579 0.9713
6.7076 1.2589 -2.5579 0.9713
6.6997 1.3004 -2.5579 0.9713
6.6653 1.4657 -2.5578 0.9713
6.6465 1.5480 -2.5578 0.9713
6.6368 1.5890 -2.5578 0.9713
6.6267 1.6300 -2.5577 0.9713
6.6060 1.7118 -2.5577 0.9713
6.5952 1.7526 -2.5577 0.9713
6.5729 1.8340 -2.5576 0.9713
6.5614 1.8746 -2.5576 0.9713
6.5376 1.9556 -2.5576 0.9713
6.5253 1.9960 -2.5575 0.9713
6.5128 2.0363 -2.5575 0.9713
6.5000 2.0765 -2.5575 0.9713
6.4869 2.1166 -2.5575 0.9713
6.4323 2.2763 -2.5574 0.9713
6.4180 2.3160 -2.5573 0.9713
6.4035 2.3557 -2.5573 0.9713
6.3430 2.5132 -2.5572 0.9713
6.3113 2.5914 -2.5571 0.9713
6.2951 2.6304 -2.5571 0.9713
6.2619 2.7079 -2.5570 0.9713
6.2449 2.7466 -2.5570 0.9713
6.2278 2.7851 -2.5570 0.9713
6.1927 2.8619 -2.5569 0.9713
6.1748 2.9001 -2.5569 0.9713
6.1197 3.0140 -2.5568 0.9713
6.0818 3.0894 -2.5567 0.9713
6.0625 3.1269 -2.5566 0.9713
6.0429 3.1642 -2.5566 0.9713
6.0032 3.2387 -2.5565 0.9713
5.9829 3.2757 -2.5565 0.9713
5.9624 3.3126 -2.5565 0.9713
5.8998 3.4225 -2.5563 0.9713
5.8349 3.5312 -2.5562 0.9713
5.7906 3.6029 -2.5561 0.9713
5.6761 3.7799 -2.5559 0.9713
5.6524 3.8149 -2.5559 0.9713
5.6046 3.8844 -2.5558 0.9713
5.5804 3.9189 -2.5558 0.9713
5.5560 3.9533 -2.5557 0.9713
5.5313 3.9875 -2.5557 0.9713
5.5064 4.0215 -2.5556 0.9713
5.4814 4.0554 -2.5556 0.9713
5.4561 4.0892 -2.5555 0.9713
5.4049 4.1562 -2.5554 0.9713
5.3266 4.2555 -2.5553 0.9713
5.2733 4.3209 -2.5552 0.9713
5.1920 4.4177 -2.5551 0.9713
5.1088 4.5130 -2.5549 0.9713
5.0807 4.5445 -2.5549 0.9713
5.0239 4.6068 -2.5548 0.9713
4.9663 4.6684 -2.5546 0.9713
4.9373 4.6989 -2.5546 0.9713
4.9080 4.7292 -2.5545 0.9713
4.6674 4.9654 -2.5541 0.9713
4.6364 4.9940 -2.5541 0.9713
4.4153 5.1892 -2.5537 0.9713
4.3830 5.2163 -2.5536 0.9713
4.3180 5.2698 -2.5535 0.9713
3.7596 4.6466 -2.2402 0.9748
3.7079 4.6412 -2.2265 0.9749
3.5636 4.6342 -2.1911 0.9753
3.5258 4.6443 -2.1855 0.9754
3.4667 4.6857 -2.1846 0.9754
3.3980 4.7757 -2.1968 0.9753
3.3787 4.8113 -2.2035 0.9752
3.3604 4.8486 -2.2110 0.9751
3.3269 4.9295 -2.2290 0.9749
3.3053 5.1687 -2.2995 0.9741
3.3028 5.2358 -2.3202 0.9739
3.3059 5.3872 -2.3690 0.9734
3.2953 5.4453 -2.3855 0.9732
3.4530 5.8684 -2.5520 0.9713
3.3800 5.9104 -2.5519 0.9713
3.3432 5.9310 -2.5518 0.9713
3.3064 5.9514 -2.5517 0.9713
3.2324 5.9916 -2.5516 0.9713
3.1579 6.0308 -2.5515 0.9713
3.0829 6.0691 -2.5513 0.9713
3.0452 6.0879 -2.5513 0.9713
3.0075 6.1065 -2.5512 0.9713
2.7918 5.7583 -2.3985 0.9730
2.7203 5.7921 -2.3984 0.9730
2.6843 5.8086 -2.3983 0.9730
2.6121 5.8411 -2.3982 0.9730
2.5759 5.8570 -2.3981 0.9730
2.4300 5.9183 -2.3979 0.9730
2.3933 5.9330 -2.3978 0.9730
2.3565 5.9476 -2.3977 0.9730
2.2826 5.9759 -2.3976 0.9730
2.1712 6.0167 -2.3974 0.9730
2.0965 6.0428 -2.3973 0.9730
2.0215 6.0680 -2.3972 0.9730
1.9839 6.0802 -2.3971 0.9730
1.9462 6.0922 -2.3970 0.9731
1.9084 6.1039 -2.3970 0.9731
1.8706 6.1154 -2.3969 0.9731
1.8327 6.1267 -2.3968 0.9731
1.7947 6.1378 -2.3968 0.9731
1.7567 6.1486 -2.3967 0.9731
1.7186 6.1592 -2.3966 0.9731
1.6422 6.1796 -2.3965 0.9731
1.5656 6.1991 -2.3964 0.9731
1.5271 6.2085 -2.3963 0.9731
1.4116 6.2353 -2.3961 0.9731
1.3729 6.2437 -2.3960 0.9731
1.3343 6.2519 -2.3960 0.9731
1.2955 6.2599 -2.3959 0.9731
1.2568 6.2676 -2.3958 0.9731
1.1791 6.2823 -2.3957 0.9731
1.1012 6.2961 -2.3956 0.9731
1.0623 6.3026 -2.3955 0.9731
1.0232 6.3088 -2.3954 0.9731
0.9842 6.3149 -2.3954 0.9731
0.9059 6.3262 -2.3953 0.9731
0.8668 6.3315 -2.3952 0.9731
0.8276 6.3366 -2.3951 0.9731
0.7884 6.3414 -2.3951 0.9731
0.7491 6.3460 -2.3950 0.9731
0.6705 6.3544 -2.3949 0.9731
0.6320 6.3661 -2.3977 0.9730
0.5926 6.3697 -2.3977 0.9730
0.5531 6.3730 -2.3976 0.9730
0.5137 6.3761 -2.3975 0.9730
0.4743 6.3790 -2.3974 0.9730
0.3953 6.3840 -2.3973 0.9730
0.3558 6.3861 -2.3972 0.9730
0.2768 6.3896 -2.3971 0.9730
0.2373 6.3910 -2.3970 0.9731
0.1977 6.3921 -2.3969 0.9731
0.1582 6.3930 -2.3968 0.9731
0.1187 6.3937 -2.3968 0.9731
0.0395 6.3942 -2.3966 0.9731
-0.0000 6.3942 -2.3965 0.9731
-0.1186 6.3925 -2.3963 0.9731
-0.1581 6.3914 -2.3962 0.9731
-0.3161 6.3847 -2.3959 0.9731
-0.3556 6.3825 -2.3958 0.9731
-0.3951 6.3799 -2.3958 0.9731
-0.4345 6.3772 -2.3957 0.9731
-0.4739 6.3742 -2.3956 0.9731
-0.5526 6.3674 -2.3955 0.9731
-0.6313 6.3597 -2.3953 0.9731
-0.7099 6.3510 -2.3952 0.9731
-0.7491 6.3463 -2.3951 0.9731
-0.8275 6.3361 -2.3949 0.9731
-0.8667 6.3307 -2.3949 0.9731
-0.9058 6.3250 -2.3948 0.9731
-0.9838 6.3129 -2.3946 0.9731
-1.0229 6.3065 -2.3946 0.9731
-1.1007 6.2930 -2.3944 0.9731
-1.2171 6.2709 -2.3942 0.9731
-1.2945 6.2550 -2.3940 0.9731
-1.3332 6.2467 -2.3940 0.9731
-1.4102 6.2293 -2.3938 0.9731
-1.5071 5.8160 -2.2518 0.9747
-1.5401 5.6542 -2.1964 0.9753
-1.6531 5.6536 -2.2077 0.9752
-1.6911 5.6534 -2.2116 0.9751
-1.7292 5.6531 -2.2157 0.9751
-1.7674 5.6529 -2.2199 0.9750
-1.8830 5.6524 -2.2330 0.9749
-2.0002 5.6521 -2.2471 0.9747
-2.0792 5.6519 -2.2571 0.9746
-2.1989 5.6517 -2.2729 0.9744
-2.2393 5.6516 -2.2784 0.9744
-2.4025 5.6512 -2.3015 0.9741
-2.4438 5.6511 -2.3076 0.9740
-2.4854 5.6511 -2.3138 0.9740
-2.5692 5.6509 -2.3266 0.9738
-2.7396 5.6505 -2.3536 0.9735
-2.8702 5.6503 -2.3753 0.9733
-2.9939 5.6325 -2.3908 0.9731
-3.0286 5.6138 -2.3907 0.9731
-3.1319 5.5562 -2.3905 0.9731
-3.1661 5.5365 -2.3904 0.9731
-3.3354 5.4352 -2.3901 0.9731
-3.4021 5.3933 -2.3900 0.9731
-2.8289 4.3640 -1.9492 0.9780
-2.6115 3.8182 -1.7338 0.9804
-2.6744 3.8082 -1.7441 0.9803
-2.6902 3.7809 -1.7392 0.9804
-2.6902 3.7317 -1.7242 0.9805
-2.6901 3.6834 -1.7095 0.9807
-2.6900 3.6359 -1.6951 0.9809
-2.6899 3.5432 -1.6673 0.9812
-2.6818 3.4432 -1.6358 0.9815
-2.6630 3.3333 -1.5991 0.9819
-2.5669 3.0935 -1.5066 0.9830
-2.5720 3.0609 -1.4985 0.9831
-2.6533 2.9664 -1.4917 0.9831
-2.6771 2.9196 -1.4846 0.9832
-2.7473 2.7815 -1.4653 0.9834
-2.7588 2.7588 -1.4623 0.9835
-2.7703 2.7362 -1.4594 0.9835
-2.7817 2.7137 -1.4565 0.9835
-2.8132 2.5478 -1.4225 0.9839
-2.8299 2.5312 -1.4230 0.9839
-2.8465 2.5145 -1.4235 0.9839
-2.8631 2.4979 -1.4241 0.9839
-2.8798 2.4812 -1.4247 0.9839
-2.9958 2.5490 -1.4743 0.9833
-3.0161 2.5343 -1.4765 0.9833
-3.0364 2.5195 -1.4788 0.9833
-3.0567 2.5047 -1.4811 0.9833
-3.0772 2.4898 -1.4836 0.9832
-3.0977 2.4748 -1.4861 0.9832
-3.1390 2.4448 -1.4912 0.9831
-3.1597 2.4297 -1.4939 0.9831
-3.1805 2.4146 -1.4967 0.9831
-3.2014 2.3994 -1.4995 0.9831
-3.2224 2.3841 -1.5024 0.9830
-3.2093 2.3438 -1.4895 0.9832
-3.2858 2.3380 -1.5115 0.9829
-3.3285 2.3069 -1.5179 0.9828
-3.3500 2.2912 -1.5212 0.9828
-3.3716 2.2755 -1.5246 0.9828
-3.3933 2.2597 -1.5280 0.9827
-3.4151 2.2439 -1.5315 0.9827
-3.4370 2.2280 -1.5352 0.9827
-3.4590 2.2120 -1.5388 0.9826
-3.5033 2.1797 -1.5464 0.9825
-3.5232 2.1620 -1.5493 0.9825
-3.4793 2.0763 -1.5186 0.9828
-3.4776 2.0462 -1.5123 0.9829
-3.5040 2.0327 -1.5183 0.9828
-3.5307 2.0191 -1.5244 0.9828
-3.5576 2.0054 -1.5306 0.9827
-3.6627 2.0349 -1.5704 0.9823
-3.7045 2.0282 -1.5829 0.9821
-3.7470 2.0215 -1.5957 0.9820
-3.7902 2.0146 -1.6088 0.9818
-4.0172 1.9785 -1.6784 0.9811
-4.2001 1.9726 -1.7392 0.9804
-4.2684 1.9726 -1.7624 0.9801
-4.4106 1.9724 -1.8109 0.9796
-4.6392 1.9722 -1.8894 0.9787
-4.8030 1.9721 -1.9460 0.9781
-4.8887 1.9720 -1.9757 0.9777
-5.0389 1.9247 -2.0217 0.9772
-5.5530 2.0428 -2.2176 0.9750
-5.5655 2.0084 -2.2176 0.9750
-5.5898 1.9394 -2.2176 0.9750
-5.6453 1.9196 -2.2348 0.9749
-6.0408 1.9711 -2.3816 0.9732
-6.0609 1.9362 -2.3847 0.9732
-6.0843 1.8611 -2.3847 0.9732
-6.1176 1.7479 -2.3846 0.9732
-6.1386 1.6720 -2.3846 0.9732
-6.1488 1.6340 -2.3846 0.9732
-6.1587 1.5959 -2.3845 0.9732
-6.1779 1.5196 -2.3845 0.9732
-6.1961 1.4431 -2.3845 0.9732
-6.2049 1.4047 -2.3844 0.9732
-6.2451 1.2122 -2.3844 0.9732
-6.2525 1.1735 -2.3843 0.9732
-6.2664 1.0961 -2.3843 0.9732
-6.2855 0.9796 -2.3843 0.9732
-6.2914 0.9407 -2.3843 0.9732
-6.3025 0.8628 -2.3842 0.9732
-6.3077 0.8238 -2.3842 0.9732
-6.3127 0.7848 -2.3842 0.9732
-6.3218 0.7066 -2.3842 0.9732
-6.3261 0.6675 -2.3842 0.9732
-6.3300 0.6284 -2.3842 0.9732
-6.3338 0.5892 -2.3842 0.9732
-6.3489 0.3931 -2.3841 0.9732
-6.3532 0.3146 -2.3841 0.9732
-6.3566 0.2360 -2.3841 0.9732
-6.3598 0.1180 -2.3841 0.9732
-6.2207 0.0000 -2.3843 0.9737
-6.2196 -0.1154 -2.3843 0.9737
-6.2188 -0.1538 -2.3843 0.9737
-6.2177 -0.1923 -2.3843 0.9737
-6.2164 -0.2308 -2.3843 0.9737
-6.2111 -0.3461 -2.3843 0.9737
-6.2088 -0.3845 -2.3844 0.9737
-6.2036 -0.4612 -2.3844 0.9737
-6.2006 -0.4996 -2.3844 0.9737
-6.1974 -0.5379 -2.3844 0.9737
-6.1904 -0.6145 -2.3844 0.9737
-6.1864 -0.6528 -2.3844 0.9737
-6.1823 -0.6910 -2.3844 0.9737
-6.1779 -0.7293 -2.3844 0.9737
-6.1733 -0.7675 -2.3844 0.9737
-6.1634 -0.8437 -2.3844 0.9737
-6.1525 -0.9199 -2.3844 0.9737
-6.1468 -0.9580 -2.3844 0.9737
-6.1345 -1.0339 -2.3845 0.9737
-6.1143 -1.1476 -2.3845 0.9737
-6.0921 -1.2608 -2.3845 0.9737
-6.0842 -1.2985 -2.3845 0.9737
-6.0761 -1.3361 -2.3846 0.9737
-6.0677 -1.3737 -2.3846 0.9737
-6.0592 -1.4112 -2.3846 0.9737
-6.0504 -1.4486 -2.3846 0.9737
-6.0414 -1.4860 -2.3846 0.9737
-6.0321 -1.5233 -2.3846 0.9737
-6.0226 -1.5606 -2.3847 0.9737
-6.0029 -1.6350 -2.3847 0.9737
-5.9927 -1.6721 -2.3847 0.9737
-5.9608 -1.7830 -2.3848 0.9737
-5.9384 -1.8567 -2.3848 0.9737
-5.9269 -1.8934 -2.3848 0.9737
-5.8784 -2.0395 -2.3849 0.9737
-5.7851 -2.2921 -2.3851 0.9737
-5.5612 -2.2834 -2.3042 0.9746
-5.3708 -2.2832 -2.2369 0.9753
-5.2982 -2.3302 -2.2185 0.9755
-5.2838 -2.3629 -2.2185 0.9755
-5.0213 -2.2829 -2.1142 0.9766
-4.8921 -2.3346 -2.0777 0.9770
-4.8151 -2.3346 -2.0511 0.9773
-4.6669 -2.3344 -2.0001 0.9779
-4.5259 -2.3343 -1.9519 0.9784
-4.3915 -2.3342 -1.9062 0.9789
-4.2632 -2.3341 -1.8629 0.9794
-4.0813 -2.3339 -1.8020 0.9801
-4.0233 -2.3339 -1.7828 0.9803
-3.9664 -2.3338 -1.7640 0.9805
-3.8758 -2.3455 -1.7364 0.9808
-3.8331 -2.3522 -1.7238 0.9809
-3.7911 -2.3588 -1.7114 0.9811
-3.7088 -2.3717 -1.6874 0.9813
-3.6686 -2.3781 -1.6757 0.9814
-3.6288 -2.3843 -1.6643 0.9816
-3.5896 -2.3905 -1.6531 0.9817
-3.5510 -2.3966 -1.6420 0.9818
-3.4044 -2.3907 -1.5945 0.9823
-3.3730 -2.4316 -1.5938 0.9823
-3.3989 -2.4823 -1.6132 0.9821
-3.4163 -2.5275 -1.6289 0.9820
-3.3940 -2.5437 -1.6257 0.9820
-3.3138 -2.5481 -1.6022 0.9823
-3.2922 -2.5641 -1.5994 0.9823
-3.2707 -2.5800 -1.5967 0.9823
-3.2066 -2.6274 -1.5889 0.9824
-3.1221 -2.6899 -1.5796 0.9825
-3.1011 -2.7055 -1.5774 0.9825
-3.0802 -2.7209 -1.5753 0.9825
-3.0385 -2.7518 -1.5712 0.9826
-2.9970 -2.7824 -1.5675 0.9826
-2.9763 -2.7977 -1.5657 0.9827
-2.9352 -2.8282 -1.5623 0.9827
-2.8941 -2.8586 -1.5592 0.9827
-2.8737 -2.8737 -1.5577 0.9827
-2.7730 -2.8425 -1.5221 0.9831
-2.7556 -2.8598 -1.5222 0.9831
-2.7208 -2.8945 -1.5227 0.9831
-2.7034 -2.9119 -1.5230 0.9831
-2.7271 -2.9740 -1.5466 0.9829
-2.6905 -3.0457 -1.5577 0.9827
-2.6534 -3.1184 -1.5694 0.9826
-2.6157 -3.1923 -1.5819 0.9825
-2.5902 -3.2422 -1.5906 0.9824
-2.5774 -3.2673 -1.5951 0.9823
-2.5384 -3.3437 -1.6091 0.9822
-2.5211 -3.3638 -1.6112 0.9822
-2.4720 -3.3848 -1.6065 0.9822
-2.4662 -3.4211 -1.6165 0.9821
-2.5836 -3.6790 -1.7231 0.9809
-2.5836 -3.7278 -1.7384 0.9808
-2.5836 -3.7774 -1.7541 0.9806
-2.5660 -3.8019 -1.7581 0.9805
-2.5572 -3.8399 -1.7683 0.9804
-2.5835 -3.9320 -1.8033 0.9800
-2.5835 -3.9854 -1.8205 0.9799
-2.5579 -4.1684 -1.8745 0.9793
-2.4616 -4.1835 -1.8605 0.9794
-2.4701 -4.2581 -1.8868 0.9791
-2.7082 -4.7358 -2.0911 0.9769
-3.0621 -5.4322 -2.3901 0.9736
-3.0285 -5.4512 -2.3902 0.9736
-2.9948 -5.4699 -2.3903 0.9736
-2.9610 -5.4885 -2.3903 0.9736
-2.9271 -5.5069 -2.3904 0.9736
-2.7903 -5.5782 -2.3907 0.9736
-2.7558 -5.5955 -2.3907 0.9736
-2.7212 -5.6126 -2.3908 0.9736
-2.6865 -5.6294 -2.3908 0.9736
-2.6168 -5.6626 -2.3910 0.9736
-2.4054 -5.7567 -2.3914 0.9736
-2.3698 -5.7716 -2.3914 0.9736
-2.2984 -5.8008 -2.3916 0.9736
-2.2625 -5.8151 -2.3916 0.9736
-2.2266 -5.8291 -2.3917 0.9736
-2.1905 -5.8430 -2.3918 0.9736
-2.1545 -5.8566 -2.3919 0.9736
-2.1182 -5.8700 -2.3919 0.9736
-2.0819 -5.8831 -2.3920 0.9736
-2.0456 -5.8961 -2.3921 0.9736
-1.9360 -5.9335 -2.3923 0.9736
-1.8994 -5.9455 -2.3923 0.9736
-1.8626 -5.9573 -2.3924 0.9736
-1.8258 -5.9689 -2.3925 0.9736
-1.7889 -5.9803 -2.3925 0.9736
-1.7149 -6.0023 -2.3927 0.9736
-1.6370 -6.0102 -2.3876 0.9737
-1.5972 -6.0103 -2.3837 0.9737
-1.5575 -6.0105 -2.3799 0.9738
-1.5179 -6.0106 -2.3762 0.9738
-1.4785 -6.0108 -2.3726 0.9738
-1.4392 -6.0109 -2.3691 0.9739
-1.4013 -6.0170 -2.3680 0.9739
-1.3787 -6.0900 -2.3933 0.9736
-1.3034 -6.1070 -2.3935 0.9736
-1.2278 -6.1230 -2.3936 0.9736
-1.1899 -6.1306 -2.3937 0.9736
-1.1141 -6.1453 -2.3938 0.9736
-1.0761 -6.1522 -2.3939 0.9736
-0.9618 -6.1717 -2.3941 0.9736
-0.8473 -6.1890 -2.3943 0.9736
-0.7324 -6.2042 -2.3946 0.9736
-0.6940 -6.2088 -2.3946 0.9736
-0.6556 -6.2132 -2.3947 0.9736
-0.5788 -6.2212 -2.3948 0.9736
-0.5403 -6.2249 -2.3949 0.9736
-0.5018 -6.2283 -2.3950 0.9736
-0.4247 -6.2344 -2.3951 0.9736
-0.3862 -6.2371 -2.3952 0.9736
-0.3090 -6.2418 -2.3954 0.9736
-0.2705 -6.2438 -2.3954 0.9736
-0.2318 -6.2455 -2.3955 0.9736
-0.1159 -6.2493 -2.3957 0.9736
-0.0773 -6.2501 -2.3958 0.9736
0.0773 -6.2509 -2.3961 0.9736
0.1933 -6.2489 -2.3963 0.9736
0.2320 -6.2478 -2.3964 0.9736
0.4637 -6.2361 -2.3968 0.9736
0.5022 -6.2333 -2.3969 0.9736
0.6948 -6.2157 -2.3973 0.9736
0.8868 -6.1922 -2.3977 0.9736
0.9251 -6.1868 -2.3977 0.9736
1.0010 -6.1721 -2.3966 0.9736
1.0774 -6.1596 -2.3968 0.9736
1.1155 -6.1529 -2.3968 0.9736
1.1536 -6.1461 -2.3969 0.9736
1.1916 -6.1390 -2.3970 0.9736
1.2296 -6.1317 -2.3970 0.9736
1.2675 -6.1241 -2.3971 0.9736
1.3432 -6.1083 -2.3972 0.9736
1.4187 -6.0915 -2.3973 0.9736
1.4564 -6.0828 -2.3974 0.9736
1.5316 -6.0646 -2.3975 0.9736
1.6439 -6.0357 -2.3977 0.9736
1.6813 -6.0255 -2.3978 0.9736
1.7558 -6.0046 -2.3979 0.9736
1.8300 -5.9827 -2.3980 0.9736
1.9039 -5.9599 -2.3981 0.9736
2.0876 -5.8990 -2.3984 0.9736
2.1241 -5.8861 -2.3985 0.9735
2.1968 -5.8597 -2.3986 0.9735
2.2331 -5.8461 -2.3987 0.9735
2.3053 -5.8183 -2.3988 0.9735
2.3772 -5.7897 -2.3989 0.9735
2.4844 -5.7450 -2.3991 0.9735
2.5907 -5.6983 -2.3993 0.9735
2.6260 -5.6823 -2.3993 0.9735
2.6962 -5.6497 -2.3994 0.9735
2.7660 -5.6162 -2.3995 0.9735
2.8007 -5.5991 -2.3996 0.9735
2.8699 -5.5643 -2.3997 0.9735
2.9043 -5.5466 -2.3998 0.9735
2.9729 -5.5105 -2.3999 0.9735
3.0070 -5.4921 -2.3999 0.9735
3.0748 -5.4547 -2.4001 0.9735
3.3064 -5.7818 -2.5529 0.9719
3.4839 -5.6774 -2.5532 0.9719
3.5191 -5.6559 -2.5532 0.9719
3.5889 -5.6122 -2.5533 0.9719
3.6237 -5.5900 -2.5534 0.9719
3.6582 -5.5676 -2.5534 0.9719
3.7270 -5.5222 -2.5536 0.9719
3.9630 -5.3565 -2.5539 0.9719
3.9962 -5.3320 -2.5540 0.9719
4.0291 -5.3073 -2.5540 0.9719
4.0947 -5.2573 -2.5542 0.9719
4.1918 -5.1807 -2.5543 0.9719
4.2238 -5.1548 -2.5544 0.9719
4.2556 -5.1287 -2.5544 0.9719
4.3189 -5.0759 -2.5545 0.9719
4.3816 -5.0223 -2.5546 0.9719
4.5048 -4.9127 -2.5548 0.9719
4.5654 -4.8568 -2.5549 0.9718
4.6253 -4.8002 -2.5550 0.9718
4.6550 -4.7715 -2.5550 0.9718
4.7719 -4.6553 -2.5552 0.9718
4.8007 -4.6258 -2.5553 0.9718
4.8577 -4.5662 -2.5554 0.9718
4.8859 -4.5362 -2.5554 0.9718
5.0243 -4.3833 -2.5556 0.9718
5.1315 -4.2580 -2.5558 0.9718
5.1578 -4.2262 -2.5558 0.9718
5.2099 -4.1622 -2.5559 0.9718
5.2864 -4.0651 -2.5560 0.9718
5.3364 -3.9995 -2.5561 0.9718
5.3612 -3.9665 -2.5562 0.9718
5.3857 -3.9333 -2.5562 0.9718
5.5051 -3.7652 -2.5564 0.9718
5.5283 -3.7311 -2.5564 0.9718
5.5514 -3.6969 -2.5565 0.9718
5.5742 -3.6626 -2.5565 0.9718
5.6634 -3.5238 -2.5566 0.9718
5.6852 -3.4887 -2.5567 0.9718
5.7280 -3.4182 -2.5567 0.9718
5.7491 -3.3828 -2.5568 0.9718
5.7700 -3.3472 -2.5568 0.9718
5.8111 -3.2757 -2.5568 0.9718
5.8711 -3.1674 -2.5569 0.9718
5.8907 -3.1311 -2.5570 0.9718
5.9100 -3.0946 -2.5570 0.9718
5.9291 -3.0580 -2.5570 0.9718
5.9479 -3.0213 -2.5571 0.9718
5.9665 -2.9846 -2.5571 0.9718
5.9850 -2.9476 -2.5571 0.9718
6.0031 -2.9106 -2.5571 0.9718
6.0211 -2.8734 -2.5572 0.9718
6.0735 -2.7613 -2.5572 0.9718
6.1402 -2.6104 -2.5573 0.9718
6.1721 -2.5343 -2.5574 0.9718
6.2031 -2.4578 -2.5574 0.9718
6.2478 -2.3423 -2.5575 0.9718
6.2764 -2.2649 -2.5575 0.9718
6.3040 -2.1871 -2.5576 0.9718
6.3175 -2.1481 -2.5576 0.9718
6.3307 -2.1090 -2.5576 0.9718
6.3437 -2.0699 -2.5576 0.9718
6.4048 -1.8728 -2.5577 0.9718
6.4163 -1.8331 -2.5577 0.9718
6.4599 -1.6739 -2.5578 0.9718
6.4801 -1.5939 -2.5578 0.9718
6.4899 -1.5538 -2.5578 0.9718
6.5177 -1.4332 -2.5579 0.9718
6.5265 -1.3928 -2.5579 0.9718
6.5350 -1.3525 -2.5579 0.9718
6.5512 -1.2715 -2.5579 0.9718
6.5590 -1.2310 -2.5579 0.9718
6.5808 -1.1091 -2.5579 0.9718
6.5940 -1.0277 -2.5579 0.9718
6.6003 -0.9869 -2.5580 0.9718
6.6062 -0.9460 -2.5580 0.9718
6.6120 -0.9052 -2.5580 0.9718
6.6227 -0.8233 -2.5580 0.9718
6.6324 -0.7413 -2.5580 0.9718
6.6369 -0.7003 -2.5580 0.9718
6.6411 -0.6593 -2.5580 0.9718
6.6451 -0.6182 -2.5580 0.9718
6.6488 -0.5771 -2.5580 0.9718
6.6522 -0.5359 -2.5580 0.9718
6.6554 -0.4948 -2.5580 0.9718
6.6583 -0.4536 -2.5580 0.9718
6.6610 -0.4124 -2.5580 0.9718
6.6656 -0.3300 -2.5580 0.9718
6.6675 -0.2888 -2.5580 0.9718
6.6692 -0.2476 -2.5580 0.9718
6.6717 -0.1651 -2.5580 0.9718
6.6726 -0.1238 -2.5580 0.9718
6.6732 -0.0825 -2.5580 0.9718
6.6737 0.0000 -2.5580 0.9718
6.6736 0.0413 -2.5580 0.9718
6.6732 0.0826 -2.5580 0.9718
6.6716 0.1651 -2.5580 0.9718
6.6704 0.2063 -2.5580 0.9718
6.6690 0.2476 -2.5579 0.9718
6.6673 0.2888 -2.5579 0.9718
6.6633 0.3713 -2.5579 0.9718
6.6608 0.4125 -2.5579 0.9718
6.6551 0.4948 -2.5579 0.9718
6.6520 0.5360 -2.5579 0.9718
6.6365 0.7003 -2.5578 0.9718
6.6321 0.7413 -2.5578 0.9718
6.6223 0.8233 -2.5578 0.9718
6.5998 0.9868 -2.5578 0.9718
6.5935 1.0276 -2.5577 0.9718
6.5870 1.0684 -2.5577 0.9718
6.5802 1.1091 -2.5577 0.9718
6.5659 1.1904 -2.5577 0.9718
6.5506 1.2715 -2.5576 0.9718
6.5426 1.3119 -2.5576 0.9718
6.5343 1.3524 -2.5576 0.9718
6.5257 1.3927 -2.5576 0.9718
6.5079 1.4733 -2.5576 0.9718
6.4891 1.5537 -2.5575 0.9718
6.4590 1.6738 -2.5575 0.9718
6.4154 1.8329 -2.5574 0.9718
6.3801 1.9516 -2.5573 0.9718
6.3679 1.9910 -2.5573 0.9718
6.3554 2.0303 -2.5572 0.9718
6.3297 2.1087 -2.5572 0.9718
6.2893 2.2257 -2.5571 0.9718
6.2753 2.2645 -2.5571 0.9718
6.2611 2.3032 -2.5571 0.9718
6.2467 2.3419 -2.5570 0.9718
6.2320 2.3805 -2.5570 0.9718
6.2171 2.4189 -2.5570 0.9718
6.2020 2.4573 -2.5569 0.9718
6.1866 2.4956 -2.5569 0.9718
6.1551 2.5719 -2.5569 0.9718
6.1390 2.6098 -2.5568 0.9718
6.1227 2.6477 -2.5568 0.9718
6.0893 2.7232 -2.5567 0.9718
6.0723 2.7607 -2.5567 0.9718
5.9836 2.9470 -2.5565 0.9718
5.9277 3.0574 -2.5564 0.9718
5.9086 3.0939 -2.5564 0.9718
5.8892 3.1303 -2.5564 0.9718
5.8697 3.1667 -2.5563 0.9718
5.8499 3.2028 -2.5563 0.9718
5.8299 3.2389 -2.5562 0.9718
5.8096 3.2749 -2.5562 0.9718
5.7892 3.3107 -2.5562 0.9718
5.7265 3.4173 -2.5561 0.9718
5.7052 3.4527 -2.5560 0.9718
5.6837 3.4878 -2.5560 0.9718
5.6619 3.5228 -2.5559 0.9718
5.5268 3.7301 -2.5557 0.9718
5.4800 3.7980 -2.5556 0.9718
5.4325 3.8654 -2.5555 0.9718
5.3841 3.9321 -2.5554 0.9718
5.3595 3.9653 -2.5554 0.9718
5.3348 3.9983 -2.5553 0.9718
5.2847 4.0638 -2.5552 0.9718
5.2595 4.0964 -2.5552 0.9718
5.2339 4.1287 -2.5552 0.9718
5.1298 4.2566 -2.5550 0.9718
5.0497 4.3508 -2.5548 0.9719
5.0226 4.3819 -2.5548 0.9719
4.9678 4.4435 -2.5547 0.9719
4.9401 4.4740 -2.5546 0.9719
4.8842 4.5346 -2.5545 0.9719
4.8560 4.5646 -2.5545 0.9719
4.7990 4.6242 -2.5544 0.9719
4.7412 4.6830 -2.5543 0.9719
4.7121 4.7121 -2.5542 0.9719
4.6236 4.7984 -2.5541 0.9719
4.5031 4.9109 -2.5538 0.9719
4.4418 4.9660 -2.5537 0.9719
4.4109 4.9933 -2.5537 0.9719
4.3799 5.0204 -2.5536 0.9719
4.3173 5.0739 -2.5535 0.9719
4.2857 5.1004 -2.5535 0.9719
4.1900 5.1787 -2.5533 0.9719
3.5949 4.6751 -2.2604 0.9751
3.4734 4.6948 -2.2384 0.9753
3.4474 4.7204 -2.2404 0.9753
3.4261 4.7527 -2.2457 0.9752
3.4062 4.7872 -2.2519 0.9751
3.3882 4.8248 -2.2597 0.9751
3.3714 4.8646 -2.2686 0.9750
3.3766 4.9369 -2.2925 0.9747
3.3319 4.9369 -2.2829 0.9748
3.2633 4.9666 -2.2778 0.9749
3.3078 5.1726 -2.3533 0.9740
3.3063 5.2413 -2.3753 0.9738
3.3091 5.3925 -2.4250 0.9733
3.2532 5.4515 -2.4333 0.9732
3.3763 5.7382 -2.5519 0.9719
3.3049 5.7792 -2.5517 0.9719
3.2690 5.7994 -2.5517 0.9719
3.2330 5.8194 -2.5516 0.9719
3.1969 5.8391 -2.5516 0.9719
3.0878 5.8970 -2.5514 0.9719
3.0145 5.9344 -2.5512 0.9719
2.7648 5.6136 -2.3984 0.9736
2.6949 5.6471 -2.3983 0.9736
2.6599 5.6635 -2.3983 0.9736
2.5895 5.6957 -2.3981 0.9736
2.5542 5.7114 -2.3981 0.9736
2.5188 5.7270 -2.3980 0.9736
2.4119 5.7723 -2.3978 0.9736
2.3402 5.8014 -2.3977 0.9736
2.2681 5.8296 -2.3976 0.9736
2.2320 5.8434 -2.3975 0.9736
2.1958 5.8569 -2.3975 0.9736
2.1595 5.8702 -2.3974 0.9736
2.1230 5.8833 -2.3973 0.9736
2.0866 5.8962 -2.3973 0.9736
2.0500 5.9088 -2.3972 0.9736
1.9399 5.9453 -2.3970 0.9736
1.9030 5.9571 -2.3970 0.9736
1.8291 5.9798 -2.3968 0.9736
1.7549 6.0017 -2.3967 0.9736
1.7178 6.0122 -2.3966 0.9736
1.6805 6.0226 -2.3966 0.9736
1.5308 6.0617 -2.3963 0.9736
1.4933 6.0709 -2.3963 0.9736
1.4557 6.0798 -2.3962 0.9736
1.3425 6.1053 -2.3960 0.9736
1.2668 6.1211 -2.3959 0.9736
1.2289 6.1287 -2.3958 0.9736
1.1910 6.1360 -2.3957 0.9736
1.1149 6.1499 -2.3956 0.9736
1.0006 6.1690 -2.3954 0.9736
0.8859 6.1860 -2.3952 0.9736
0.8475 6.1912 -2.3952 0.9736
0.8092 6.1962 -2.3951 0.9736
0.7709 6.2009 -2.3950 0.9736
0.5409 6.2318 -2.3976 0.9736
0.5023 6.2348 -2.3975 0.9736
0.4252 6.2401 -2.3973 0.9736
0.3479 6.2446 -2.3972 0.9736
0.2707 6.2480 -2.3970 0.9736
0.2320 6.2494 -2.3970 0.9736
0.0387 6.2526 -2.3966 0.9736
0.0000 6.2525 -2.3965 0.9736
-0.0387 6.2522 -2.3964 0.9736
-0.1546 6.2498 -2.3962 0.9736
-0.2319 6.2471 -2.3961 0.9736
-0.2705 6.2453 -2.3960 0.9736
-0.3091 6.2433 -2.3959 0.9736
-0.3477 6.2411 -2.3959 0.9736
-0.4249 6.2359 -2.3957 0.9736
-0.5019 6.2298 -2.3956 0.9736
-0.5789 6.2227 -2.3954 0.9736
-0.6173 6.2189 -2.3953 0.9736
-0.6942 6.2104 -2.3952 0.9736
-0.7709 6.2009 -2.3950 0.9736
-0.8475 6.1905 -2.3949 0.9736
-0.9239 6.1792 -2.3948 0.9736
-0.9621 6.1732 -2.3947 0.9736
-1.0002 6.1669 -2.3946 0.9736
-1.0383 6.1604 -2.3945 0.9736
-1.0763 6.1537 -2.3945 0.9736
-1.1902 6.1321 -2.3942 0.9736
-1.2281 6.1244 -2.3942 0.9736
-1.2659 6.1165 -2.3941 0.9736
-1.3036 6.1084 -2.3940 0.9736
-1.3413 6.1000 -2.3940 0.9736
-1.4166 6.0826 -2.3938 0.9736
-1.4541 6.0736 -2.3937 0.9736
-1.5291 6.0547 -2.3936 0.9736
-1.5097 5.8262 -2.3069 0.9745
-1.5401 5.6543 -2.2462 0.9752
-1.6153 5.6539 -2.2538 0.9751
-1.6911 5.6534 -2.2618 0.9750
-1.7675 5.6530 -2.2702 0.9749
-1.8444 5.6526 -2.2790 0.9749
-1.9219 5.6522 -2.2883 0.9748
-2.0002 5.6521 -2.2980 0.9746
-2.0791 5.6519 -2.3082 0.9745
-2.1989 5.6516 -2.3244 0.9744
-2.3204 5.6514 -2.3416 0.9742
-2.3613 5.6513 -2.3476 0.9741
-2.4025 5.6512 -2.3537 0.9740
-2.5271 5.6509 -2.3727 0.9738
-2.6871 5.6307 -2.3914 0.9736
-2.7909 5.5794 -2.3912 0.9736
-2.8252 5.5619 -2.3911 0.9736
-2.8595 5.5441 -2.3910 0.9736
-2.8937 5.5262 -2.3910 0.9736
-2.9277 5.5080 -2.3909 0.9736
-2.9616 5.4897 -2.3908 0.9736
-3.0627 5.4334 -2.3906 0.9736
-3.0962 5.4141 -2.3906 0.9736
-3.1295 5.3948 -2.3905 0.9736
-3.1958 5.3554 -2.3904 0.9736
-3.2288 5.3354 -2.3903 0.9736
-3.3269 5.2741 -2.3901 0.9736
-3.3594 5.2533 -2.3901 0.9736
-2.8290 4.3641 -1.9934 0.9780
-2.5820 3.9296 -1.8022 0.9801
-2.5709 3.8606 -1.7778 0.9803
-2.6115 3.8182 -1.7731 0.9804
-2.6428 3.8133 -1.7783 0.9803
-2.6744 3.8082 -1.7836 0.9803
-2.6902 3.6835 -1.7483 0.9807
-2.6899 3.5433 -1.7051 0.9811
-2.6635 3.4637 -1.6747 0.9815
-2.6898 3.4098 -1.6646 0.9816
-2.6897 3.3667 -1.6517 0.9817
-2.6896 3.3242 -1.6390 0.9818
-2.6896 3.2824 -1.6265 0.9820
-2.5721 3.0610 -1.5325 0.9830
-2.5834 2.9984 -1.5170 0.9832
-2.6210 3.0043 -1.5281 0.9831
-2.6533 2.9664 -1.5255 0.9831
-2.6653 2.9430 -1.5218 0.9831
-2.6771 2.9196 -1.5183 0.9832
-2.7007 2.8732 -1.5114 0.9833
-2.7125 2.8501 -1.5081 0.9833
-2.7357 2.8043 -1.5016 0.9834
-2.8158 2.6468 -1.4812 0.9836
-2.8133 2.5478 -1.4548 0.9839
-2.8299 2.5312 -1.4553 0.9839
-2.8465 2.5146 -1.4558 0.9839
-2.8632 2.4979 -1.4564 0.9839
-3.0161 2.5343 -1.5100 0.9833
-3.0364 2.5195 -1.5123 0.9832
-3.0568 2.5047 -1.5147 0.9832
-3.0772 2.4898 -1.5172 0.9832
-3.1597 2.4297 -1.5278 0.9831
-3.1806 2.4146 -1.5306 0.9830
-3.2015 2.3994 -1.5335 0.9830
-3.2093 2.3438 -1.5232 0.9831
-3.2306 2.3289 -1.5265 0.9831
-3.2859 2.3380 -1.5457 0.9829
-3.3286 2.3069 -1.5523 0.9828
-3.3889 2.2267 -1.5542 0.9828
-3.4026 2.2057 -1.5542 0.9828
-3.4196 2.1868 -1.5558 0.9828
-3.4630 2.1546 -1.5633 0.9827
-3.4848 2.1385 -1.5671 0.9826
-3.5011 2.1188 -1.5685 0.9826
-3.4794 2.0764 -1.5531 0.9828
-3.4776 2.0462 -1.5466 0.9829
-3.5040 2.0327 -1.5527 0.9828
-3.5576 2.0054 -1.5653 0.9827
-3.6628 2.0349 -1.6060 0.9822
-3.7046 2.0283 -1.6188 0.9821
-3.7471 2.0215 -1.6319 0.9819
-3.7902 2.0146 -1.6452 0.9818
-3.8787 2.0005 -1.6728 0.9815
-3.9703 1.9860 -1.7015 0.9812
-4.0173 1.9785 -1.7164 0.9810
-4.1336 1.9727 -1.7555 0.9806
-4.2001 1.9726 -1.7786 0.9803
-4.2684 1.9725 -1.8023 0.9801
-4.4106 1.9724 -1.8519 0.9795
-4.4846 1.9724 -1.8778 0.9792
-4.5608 1.9723 -1.9046 0.9789
-4.6392 1.9722 -1.9322 0.9786
-4.7199 1.9722 -1.9607 0.9783
-4.9770 1.9720 -2.0519 0.9773
-5.1214 1.9200 -2.0964 0.9768
-5.4305 1.9977 -2.2178 0.9755
-5.5331 1.9197 -2.2448 0.9752
-5.9035 1.9667 -2.3850 0.9737
-5.9388 1.8568 -2.3850 0.9737
-5.9501 1.8200 -2.3849 0.9737
-5.9721 1.7463 -2.3849 0.9737
-5.9931 1.6722 -2.3849 0.9737
-6.0033 1.6352 -2.3848 0.9737
-6.0132 1.5980 -2.3848 0.9737
-6.0229 1.5607 -2.3848 0.9737
-6.0324 1.5235 -2.3848 0.9737
-6.0417 1.4861 -2.3848 0.9737
-6.0507 1.4487 -2.3847 0.9737
-6.0845 1.2986 -2.3847 0.9737
-6.1216 1.1098 -2.3846 0.9737
-6.1410 0.9960 -2.3845 0.9737
-6.1583 0.8819 -2.3845 0.9737
-6.1636 0.8438 -2.3845 0.9737
-6.1687 0.8057 -2.3845 0.9737
-6.1735 0.7675 -2.3845 0.9737
-6.1825 0.6911 -2.3844 0.9737
-6.1905 0.6146 -2.3844 0.9737
-6.2008 0.4996 -2.3844 0.9737
-6.2064 0.4229 -2.3844 0.9737
-6.2089 0.3845 -2.3844 0.9737
-6.2111 0.3461 -2.3844 0.9737
-6.2132 0.3076 -2.3844 0.9737
-6.2164 0.2308 -2.3844 0.9737
-6.2188 0.1539 -2.3844 0.9737
-6.2202 0.0770 -2.3843 0.9737
-6.0858 0.0000 -2.3846 0.9742
-6.0857 -0.0376 -2.3846 0.9742
-6.0839 -0.1505 -2.3846 0.9742
-6.0829 -0.1881 -2.3846 0.9742
-6.0816 -0.2258 -2.3846 0.9742
-6.0784 -0.3010 -2.3846 0.9742
-6.0763 -0.3385 -2.3846 0.9742
-6.0717 -0.4137 -2.3846 0.9742
-6.0662 -0.4887 -2.3846 0.9742
-6.0630 -0.5262 -2.3846 0.9742
-6.0561 -0.6012 -2.3846 0.9742
-6.0482 -0.6760 -2.3846 0.9742
-6.0347 -0.7881 -2.3847 0.9742
-6.0245 -0.8627 -2.3847 0.9742
-6.0191 -0.9000 -2.3847 0.9742
-6.0134 -0.9372 -2.3847 0.9742
-6.0076 -0.9744 -2.3847 0.9742
-6.0014 -1.0115 -2.3847 0.9742
-5.9951 -1.0486 -2.3847 0.9742
-5.9599 -1.2335 -2.3848 0.9742
-5.9443 -1.3071 -2.3848 0.9742
-5.9191 -1.4172 -2.3849 0.9742
-5.8824 -1.5632 -2.3849 0.9742
-5.8727 -1.5995 -2.3849 0.9742
-5.8627 -1.6358 -2.3850 0.9742
-5.8526 -1.6721 -2.3850 0.9742
-5.7751 -1.9239 -2.3851 0.9742
-5.7631 -1.9596 -2.3851 0.9742
-5.7259 -2.0662 -2.3852 0.9742
-5.7000 -2.1369 -2.3852 0.9742
-5.6732 -2.2073 -2.3853 0.9742
-5.6596 -2.2424 -2.3853 0.9742
-5.6456 -2.2774 -2.3853 0.9742
-5.6315 -2.3123 -2.3854 0.9742
-5.3708 -2.2832 -2.2867 0.9752
-5.1912 -2.2831 -2.2221 0.9759
-5.1691 -2.3116 -2.2187 0.9760
-5.0213 -2.2829 -2.1613 0.9766
-4.9399 -2.2829 -2.1323 0.9769
-4.6669 -2.3344 -2.0447 0.9778
-4.5955 -2.3344 -2.0197 0.9781
-4.5259 -2.3343 -1.9954 0.9784
-4.2012 -2.3340 -1.8831 0.9796
-4.1406 -2.3340 -1.8624 0.9798
-4.0813 -2.3339 -1.8422 0.9800
-4.0232 -2.3339 -1.8225 0.9802
-3.9664 -2.3338 -1.8033 0.9804
-3.9190 -2.3387 -1.7882 0.9806
-3.8331 -2.3522 -1.7622 0.9809
-3.7088 -2.3717 -1.7250 0.9813
-3.5510 -2.3966 -1.6786 0.9818
-3.4304 -2.3775 -1.6354 0.9822
-3.3731 -2.4316 -1.6293 0.9823
-3.4163 -2.5275 -1.6652 0.9819
-3.3940 -2.5437 -1.6619 0.9819
-3.3718 -2.5598 -1.6588 0.9820
-3.3277 -2.5918 -1.6527 0.9820
-3.3058 -2.6077 -1.6498 0.9821
-3.2839 -2.6236 -1.6470 0.9821
-3.2404 -2.6551 -1.6415 0.9822
-3.2188 -2.6708 -1.6388 0.9822
-3.1972 -2.6864 -1.6363 0.9822
-3.1756 -2.7021 -1.6338 0.9822
-3.1231 -2.6908 -1.6153 0.9824
-3.0690 -2.7794 -1.6224 0.9824
-2.9970 -2.7825 -1.6024 0.9826
-2.9557 -2.8130 -1.5988 0.9826
-2.9352 -2.8282 -1.5971 0.9826
-2.9147 -2.8434 -1.5955 0.9827
-2.8942 -2.8586 -1.5939 0.9827
-2.8533 -2.8888 -1.5910 0.9827
-2.7392 -2.9504 -1.5775 0.9829
-2.7271 -2.9741 -1.5811 0.9828
-2.6905 -3.0457 -1.5924 0.9827
-2.6782 -3.0699 -1.5963 0.9827
-2.6659 -3.0941 -1.6003 0.9826
-2.6409 -3.1429 -1.6085 0.9825
-2.6284 -3.1676 -1.6128 0.9825
-2.6158 -3.1923 -1.6171 0.9824
-2.6030 -3.2172 -1.6215 0.9824
-2.5774 -3.2674 -1.6306 0.9823
-2.5645 -3.2927 -1.6353 0.9822
-2.5515 -3.3181 -1.6401 0.9822
-2.5385 -3.3437 -1.6450 0.9821
-2.5210 -3.3637 -1.6471 0.9821
-2.4721 -3.3848 -1.6423 0.9822
-2.5837 -3.6791 -1.7615 0.9809
-2.5837 -3.7279 -1.7772 0.9807
-2.5837 -3.7775 -1.7932 0.9805
-2.5659 -3.8019 -1.7972 0.9805
-2.5572 -3.8400 -1.8078 0.9804
-2.5836 -4.0400 -1.8790 0.9796
-2.5721 -4.0774 -1.8890 0.9795
-2.5566 -4.1089 -1.8962 0.9794
-2.5256 -4.1734 -1.9114 0.9793
-2.4616 -4.1835 -1.9020 0.9794
-2.9955 -5.3141 -2.3903 0.9741
-2.9297 -5.3510 -2.3904 0.9741
-2.8966 -5.3692 -2.3905 0.9741
-2.8634 -5.3871 -2.3905 0.9741
-2.7968 -5.4224 -2.3906 0.9741
-2.7632 -5.4398 -2.3907 0.9741
-2.7296 -5.4569 -2.3908 0.9741
-2.6959 -5.4738 -2.3908 0.9741
-2.6281 -5.5070 -2.3910 0.9741
-2.5599 -5.5394 -2.3911 0.9741
-2.5257 -5.5553 -2.3912 0.9741
-2.4569 -5.5864 -2.3913 0.9741
-2.3878 -5.6167 -2.3914 0.9741
-2.3183 -5.6461 -2.3915 0.9741
-2.2484 -5.6746 -2.3917 0.9741
-2.2133 -5.6886 -2.3917 0.9741
-2.1781 -5.7023 -2.3918 0.9741
-2.1075 -5.7292 -2.3919 0.9741
-2.0721 -5.7422 -2.3920 0.9741
-2.0011 -5.7678 -2.3922 0.9741
-1.9654 -5.7802 -2.3922 0.9741
-1.9297 -5.7924 -2.3923 0.9741
-1.8939 -5.8044 -2.3924 0.9741
-1.8580 -5.8161 -2.3924 0.9741
-1.8221 -5.8277 -2.3925 0.9741
-1.6776 -5.8716 -2.3928 0.9741
-1.6413 -5.8821 -2.3928 0.9741
-1.6049 -5.8923 -2.3929 0.9741
-1.5320 -5.9121 -2.3930 0.9741
-1.3855 -5.9488 -2.3933 0.9741
-1.3487 -5.9574 -2.3934 0.9741
-1.3118 -5.9658 -2.3935 0.9741
-1.2011 -5.9897 -2.3937 0.9741
-1.0898 -6.0114 -2.3939 0.9741
-1.0527 -6.0183 -2.3940 0.9741
-1.0154 -6.0248 -2.3940 0.9741
-0.9782 -6.0312 -2.3941 0.9741
-0.8662 -6.0488 -2.3943 0.9741
-0.8288 -6.0542 -2.3944 0.9741
-0.7539 -6.0644 -2.3945 0.9741
-0.7164 -6.0691 -2.3946 0.9741
-0.6037 -6.0819 -2.3948 0.9741
-0.5662 -6.0857 -2.3949 0.9741
-0.5285 -6.0893 -2.3950 0.9741
-0.3778 -6.1012 -2.3952 0.9741
-0.3401 -6.1036 -2.3953 0.9741
-0.3023 -6.1058 -2.3954 0.9741
-0.2645 -6.1077 -2.3955 0.9741
-0.1890 -6.1109 -2.3956 0.9741
-0.1134 -6.1132 -2.3957 0.9741
-0.0756 -6.1139 -2.3958 0.9741
0.0000 -6.1148 -2.3960 0.9741
0.1135 -6.1143 -2.3962 0.9741
0.1513 -6.1136 -2.3962 0.9741
0.2269 -6.1117 -2.3964 0.9741
0.3025 -6.1087 -2.3965 0.9741
0.3402 -6.1070 -2.3966 0.9741
0.3780 -6.1049 -2.3967 0.9741
0.4158 -6.1026 -2.3968 0.9741
0.4913 -6.0974 -2.3969 0.9741
0.5290 -6.0944 -2.3970 0.9741
0.5667 -6.0912 -2.3970 0.9741
0.6044 -6.0878 -2.3971 0.9741
0.6420 -6.0841 -2.3972 0.9741
0.7172 -6.0761 -2.3973 0.9741
0.7549 -6.0717 -2.3974 0.9741
0.8299 -6.0623 -2.3975 0.9741
0.8674 -6.0572 -2.3976 0.9741
0.9049 -6.0519 -2.3977 0.9741
1.0539 -6.0252 -2.3967 0.9741
1.1655 -6.0051 -2.3969 0.9741
1.2398 -5.9905 -2.3970 0.9741
1.3139 -5.9750 -2.3971 0.9741
1.3878 -5.9586 -2.3973 0.9741
1.5715 -5.9136 -2.3976 0.9741
1.6446 -5.8940 -2.3977 0.9741
1.7175 -5.8735 -2.3978 0.9741
1.7538 -5.8629 -2.3979 0.9741
1.7901 -5.8521 -2.3979 0.9741
1.8262 -5.8411 -2.3980 0.9741
1.8985 -5.8183 -2.3981 0.9740
1.9345 -5.8066 -2.3982 0.9740
1.9704 -5.7947 -2.3982 0.9740
2.0062 -5.7826 -2.3983 0.9740
2.0777 -5.7576 -2.3984 0.9740
2.1489 -5.7317 -2.3985 0.9740
2.1843 -5.7185 -2.3986 0.9740
2.2550 -5.6913 -2.3987 0.9740
2.3253 -5.6632 -2.3988 0.9740
2.3604 -5.6489 -2.3989 0.9740
2.4301 -5.6195 -2.3990 0.9740
2.4996 -5.5893 -2.3991 0.9740
2.6715 -5.5100 -2.3994 0.9740
2.7056 -5.4935 -2.3994 0.9740
2.8409 -5.4254 -2.3997 0.9740
2.9745 -5.3540 -2.3999 0.9740
3.0406 -5.3170 -2.4000 0.9740
3.3040 -5.6153 -2.5529 0.9724
3.4079 -5.5534 -2.5530 0.9724
3.4422 -5.5323 -2.5531 0.9724
3.5105 -5.4896 -2.5532 0.9724
3.6120 -5.4238 -2.5534 0.9724
3.6789 -5.3790 -2.5535 0.9724
3.7454 -5.3333 -2.5536 0.9724
3.8439 -5.2632 -2.5537 0.9724
3.8764 -5.2394 -2.5538 0.9724
3.9089 -5.2155 -2.5538 0.9724
3.9732 -5.1669 -2.5539 0.9724
4.0370 -5.1176 -2.5540 0.9724
4.0686 -5.0927 -2.5541 0.9724
4.1001 -5.0675 -2.5541 0.9724
4.1937 -4.9908 -2.5543 0.9724
4.2245 -4.9649 -2.5543 0.9724
4.2858 -4.9125 -2.5544 0.9724
4.3464 -4.8593 -2.5545 0.9724
4.3764 -4.8324 -2.5546 0.9724
4.4063 -4.8053 -2.5546 0.9724
4.4360 -4.7781 -2.5547 0.9724
4.5532 -4.6672 -2.5549 0.9724
4.5821 -4.6390 -2.5549 0.9724
4.6957 -4.5246 -2.5551 0.9724
4.7237 -4.4956 -2.5551 0.9724
4.7791 -4.4370 -2.5552 0.9724
4.8877 -4.3177 -2.5554 0.9724
4.9672 -4.2265 -2.5555 0.9724
4.9933 -4.1957 -2.5556 0.9724
5.0450 -4.1338 -2.5556 0.9724
5.0706 -4.1026 -2.5557 0.9724
5.1461 -4.0080 -2.5558 0.9724
5.1708 -3.9762 -2.5558 0.9724
5.2916 -3.8147 -2.5560 0.9724
5.3152 -3.7819 -2.5561 0.9724
5.3618 -3.7160 -2.5561 0.9724
5.3847 -3.6828 -2.5562 0.9724
5.4074 -3.6495 -2.5562 0.9724
5.4300 -3.6161 -2.5562 0.9724
5.4523 -3.5824 -2.5563 0.9724
5.4744 -3.5487 -2.5563 0.9724
5.5180 -3.4808 -2.5564 0.9724
5.5819 -3.3780 -2.5565 0.9724
5.6234 -3.3087 -2.5565 0.9724
5.7038 -3.1688 -2.5567 0.9724
5.7233 -3.1335 -2.5567 0.9724
5.7617 -3.0626 -2.5567 0.9724
5.7994 -2.9911 -2.5568 0.9724
5.8894 -2.8105 -2.5569 0.9724
5.9066 -2.7741 -2.5570 0.9724
5.9573 -2.6641 -2.5570 0.9724
5.9737 -2.6273 -2.5571 0.9724
5.9899 -2.5903 -2.5571 0.9724
6.0058 -2.5533 -2.5571 0.9724
6.0216 -2.5161 -2.5571 0.9724
6.0371 -2.4788 -2.5572 0.9724
6.1111 -2.2911 -2.5573 0.9724
6.1527 -2.1773 -2.5573 0.9724
6.1921 -2.0629 -2.5574 0.9723
6.2048 -2.0246 -2.5574 0.9723
6.2172 -1.9862 -2.5574 0.9723
6.2759 -1.7930 -2.5575 0.9723
6.2869 -1.7542 -2.5575 0.9723
6.2977 -1.7153 -2.5575 0.9723
6.3185 -1.6373 -2.5575 0.9723
6.3285 -1.5982 -2.5576 0.9723
6.3571 -1.4805 -2.5576 0.9723
6.3662 -1.4412 -2.5576 0.9723
6.3750 -1.4018 -2.5576 0.9723
6.3919 -1.3229 -2.5576 0.9723
6.4079 -1.2437 -2.5577 0.9723
6.4434 -1.0450 -2.5577 0.9723
6.4558 -0.9652 -2.5577 0.9723
6.4616 -0.9253 -2.5577 0.9723
6.4727 -0.8453 -2.5577 0.9723
6.4957 -0.6448 -2.5577 0.9723
6.4996 -0.6046 -2.5577 0.9723
6.5032 -0.5645 -2.5577 0.9723
6.5066 -0.5242 -2.5578 0.9723
6.5153 -0.4034 -2.5578 0.9723
6.5176 -0.3631 -2.5578 0.9723
6.5197 -0.3228 -2.5578 0.9723
6.5232 -0.2421 -2.5578 0.9723
6.5246 -0.2018 -2.5577 0.9723
6.5257 -0.1614 -2.5577 0.9723
6.5271 -0.0807 -2.5577 0.9723
6.5275 -0.0404 -2.5577 0.9723
6.5271 0.0808 -2.5577 0.9723
6.5265 0.1211 -2.5577 0.9723
6.5245 0.2018 -2.5577 0.9723
6.5231 0.2422 -2.5577 0.9723
6.5196 0.3228 -2.5577 0.9723
6.5123 0.4437 -2.5577 0.9723
6.5095 0.4840 -2.5577 0.9723
6.5029 0.5644 -2.5576 0.9723
6.4954 0.6448 -2.5576 0.9723
6.4869 0.7251 -2.5576 0.9723
6.4774 0.8053 -2.5576 0.9723
6.4612 0.9253 -2.5575 0.9723
6.4293 1.1246 -2.5575 0.9723
6.4222 1.1643 -2.5574 0.9723
6.4148 1.2040 -2.5574 0.9723
6.4073 1.2436 -2.5574 0.9723
6.3743 1.4017 -2.5573 0.9724
6.3471 1.5196 -2.5573 0.9724
6.3375 1.5589 -2.5573 0.9724
6.3277 1.5980 -2.5572 0.9724
6.3177 1.6371 -2.5572 0.9724
6.2968 1.7151 -2.5572 0.9724
6.2860 1.7540 -2.5572 0.9724
6.2750 1.7928 -2.5571 0.9724
6.2523 1.8703 -2.5571 0.9724
6.2405 1.9089 -2.5571 0.9724
6.2285 1.9474 -2.5570 0.9724
6.2163 1.9859 -2.5570 0.9724
6.1782 2.1008 -2.5569 0.9724
6.1516 2.1770 -2.5569 0.9724
6.1241 2.2529 -2.5568 0.9724
6.1100 2.2907 -2.5568 0.9724
6.0956 2.3284 -2.5568 0.9724
6.0512 2.4410 -2.5567 0.9724
6.0204 2.5156 -2.5566 0.9724
5.9887 2.5898 -2.5566 0.9724
5.8527 2.8825 -2.5563 0.9724
5.8346 2.9186 -2.5563 0.9724
5.7793 3.0262 -2.5562 0.9724
5.7604 3.0619 -2.5561 0.9724
5.7413 3.0974 -2.5561 0.9724
5.7024 3.1681 -2.5560 0.9724
5.6013 3.3426 -2.5558 0.9724
5.5804 3.3771 -2.5558 0.9724
5.5593 3.4115 -2.5558 0.9724
5.5381 3.4458 -2.5557 0.9724
5.4949 3.5139 -2.5557 0.9724
5.4729 3.5478 -2.5556 0.9724
5.4284 3.6151 -2.5555 0.9724
5.4059 3.6485 -2.5555 0.9724
5.3370 3.7480 -2.5554 0.9724
5.3137 3.7809 -2.5553 0.9724
5.2663 3.8462 -2.5552 0.9724
5.1938 3.9430 -2.5551 0.9724
5.1692 3.9750 -2.5551 0.9724
5.1195 4.0385 -2.5550 0.9724
5.0943 4.0700 -2.5549 0.9724
5.0434 4.1325 -2.5548 0.9724
4.9917 4.1944 -2.5547 0.9724
4.9656 4.2251 -2.5547 0.9724
4.9393 4.2557 -2.5546 0.9724
4.9128 4.2860 -2.5546 0.9724
4.8592 4.3463 -2.5545 0.9724
4.8049 4.4059 -2.5544 0.9724
4.7774 4.4355 -2.5544 0.9724
4.6659 4.5519 -2.5542 0.9724
4.5516 4.6656 -2.5540 0.9724
4.5225 4.6935 -2.5539 0.9724
4.3748 4.8306 -2.5536 0.9724
4.3448 4.8575 -2.5536 0.9724
4.3145 4.8842 -2.5535 0.9724
4.2842 4.9106 -2.5535 0.9724
4.2536 4.9369 -2.5534 0.9724
4.2229 4.9630 -2.5534 0.9724
4.1921 4.9889 -2.5533 0.9724
4.1299 5.0402 -2.5532 0.9724
4.0985 5.0655 -2.5531 0.9724
3.9395 5.1893 -2.5529 0.9724
3.8748 5.2374 -2.5528 0.9724
3.8423 5.2611 -2.5527 0.9724
3.8096 5.2846 -2.5526 0.9724
3.7768 5.3080 -2.5526 0.9724
3.7438 5.3311 -2.5525 0.9724
3.4493 4.9769 -2.3727 0.9743
3.3921 4.9595 -2.3543 0.9745
3.3008 4.9565 -2.3334 0.9747
3.2819 5.0629 -2.3641 0.9744
3.3097 5.2467 -2.4307 0.9737
3.3101 5.3200 -2.4551 0.9734
3.2745 5.3361 -2.4531 0.9735
3.3373 5.5924 -2.5518 0.9724
3.3026 5.6129 -2.5518 0.9724
3.2327 5.6530 -2.5516 0.9724
3.1271 5.7116 -2.5515 0.9724
3.0917 5.7307 -2.5514 0.9724
3.0204 5.7682 -2.5513 0.9724
2.8060 5.4404 -2.3985 0.9740
2.7044 5.4911 -2.3984 0.9740
2.6703 5.5076 -2.3983 0.9740
2.6361 5.5238 -2.3982 0.9740
2.3593 5.6463 -2.3978 0.9741
2.3243 5.6607 -2.3977 0.9741
2.2891 5.6748 -2.3976 0.9741
2.2187 5.7024 -2.3975 0.9741
2.1833 5.7158 -2.3975 0.9741
2.0767 5.7549 -2.3973 0.9741
2.0410 5.7675 -2.3972 0.9741
