ply
format ascii 1.0
element vertex 1550
property float32 x
property float32 y
property float32 z
property float32 I
end_header
37.3387 2.5439 -2.3088 0.8607
37.3402 2.7761 -2.3099 0.8607
40.1441 4.2360 -2.4903 0.8506
40.1168 4.4842 -2.4903 0.8506
40.0879 4.7321 -2.4902 0.8506
40.0573 4.9799 -2.4902 0.8506
39.9563 5.7219 -2.4901 0.8506
39.8810 6.2154 -2.4900 0.8506
39.7562 6.9537 -2.4898 0.8507
39.7269 7.7108 -2.4965 0.8503
39.7181 7.9643 -2.4990 0.8501
9.9046 2.0499 -0.6240 0.9603
9.2645 1.9772 -0.5844 0.9627
8.9923 1.9773 -0.5680 0.9638
7.6344 1.8778 -0.4850 0.9690
6.7436 1.9267 -0.4327 0.9723
6.6143 1.9786 -0.4259 0.9727
6.4686 1.9786 -0.4173 0.9733
6.1941 1.9788 -0.4011 0.9743
5.9401 1.9789 -0.3862 0.9752
5.8200 1.9789 -0.3792 0.9757
5.4845 1.9791 -0.3597 0.9769
5.3802 1.9792 -0.3537 0.9773
5.2794 1.9793 -0.3478 0.9777
4.9071 1.9795 -0.3264 0.9790
4.5965 1.9878 -0.3089 0.9801
4.5966 2.0216 -0.3098 0.9801
4.3687 2.0849 -0.2986 0.9808
4.3002 2.0849 -0.2948 0.9810
4.1114 2.0249 -0.2827 0.9818
4.0989 2.0503 -0.2827 0.9818
4.1046 2.0850 -0.2840 0.9817
3.9820 2.0851 -0.2773 0.9821
3.8650 2.0851 -0.2709 0.9826
3.8085 2.0852 -0.2679 0.9827
3.7532 2.0852 -0.2649 0.9829
3.6992 2.0852 -0.2620 0.9831
3.6464 2.0852 -0.2591 0.9833
3.4911 2.0252 -0.2490 0.9840
3.4680 2.0695 -0.2491 0.9839
3.4459 2.0854 -0.2485 0.9840
2.9752 1.9287 -0.2187 0.9859
2.9353 1.9287 -0.2167 0.9860
2.9317 1.9787 -0.2182 0.9859
2.8576 1.9805 -0.2145 0.9862
2.7835 1.9805 -0.2107 0.9864
2.7474 1.9806 -0.2089 0.9865
2.6770 1.9806 -0.2054 0.9867
2.5757 1.9807 -0.2004 0.9871
2.5430 1.9807 -0.1989 0.9872
2.5109 1.9807 -0.1973 0.9873
2.3871 1.9808 -0.1914 0.9876
2.3573 1.9808 -0.1899 0.9877
2.3279 1.9808 -0.1886 0.9878
2.0558 1.9809 -0.1761 0.9886
2.0412 1.9913 -0.1759 0.9886
2.0412 2.0161 -0.1770 0.9886
2.0412 2.0412 -0.1781 0.9885
2.0412 2.0667 -0.1792 0.9884
2.0413 2.0924 -0.1803 0.9884
2.0413 2.1185 -0.1815 0.9883
2.0413 2.1449 -0.1827 0.9882
2.0413 2.2262 -0.1863 0.9880
2.0413 2.2540 -0.1876 0.9879
2.0413 2.3108 -0.1902 0.9877
2.0413 2.3399 -0.1916 0.9876
2.0414 2.4294 -0.1958 0.9874
2.0414 2.5231 -0.2002 0.9871
2.0414 2.5553 -0.2018 0.9870
2.0414 2.5879 -0.2033 0.9869
2.0415 2.6211 -0.2050 0.9868
2.0415 2.6891 -0.2083 0.9866
2.0415 2.7239 -0.2100 0.9865
2.0415 2.7594 -0.2118 0.9863
2.0415 2.7954 -0.2135 0.9862
2.0416 2.9072 -0.2192 0.9859
2.0416 2.9458 -0.2211 0.9857
2.0416 2.9850 -0.2231 0.9856
2.0416 3.0250 -0.2251 0.9855
2.0416 3.0658 -0.2272 0.9853
2.0416 3.1073 -0.2294 0.9852
2.0417 3.1496 -0.2316 0.9851
2.0417 3.2366 -0.2361 0.9848
2.0418 3.3739 -0.2433 0.9843
2.0418 3.4215 -0.2458 0.9842
2.0418 3.4701 -0.2484 0.9840
2.0418 3.5705 -0.2537 0.9837
2.0419 3.6753 -0.2594 0.9833
2.0419 3.7295 -0.2623 0.9831
2.0246 3.8089 -0.2661 0.9829
1.9902 3.8586 -0.2678 0.9828
2.1472 4.2271 -0.2925 0.9812
2.1473 4.2927 -0.2961 0.9809
2.1067 4.3452 -0.2979 0.9808
2.1473 4.4996 -0.3076 0.9802
2.1474 4.7233 -0.3201 0.9794
2.1475 4.8019 -0.3245 0.9791
2.1475 4.9660 -0.3338 0.9786
2.1155 4.9761 -0.3336 0.9786
2.0985 5.0221 -0.3358 0.9784
2.0713 5.2279 -0.3469 0.9777
2.0385 5.2394 -0.3468 0.9777
2.0056 5.2507 -0.3467 0.9777
1.9907 5.3099 -0.3498 0.9775
1.9907 5.4116 -0.3557 0.9772
1.9908 5.5167 -0.3618 0.9768
2.0427 5.7721 -0.3777 0.9758
2.0427 5.8877 -0.3845 0.9753
2.0428 6.0076 -0.3915 0.9749
2.0428 6.1319 -0.3987 0.9744
2.0429 6.5342 -0.4223 0.9729
2.0192 6.7504 -0.4347 0.9722
1.9770 6.7613 -0.4346 0.9722
1.9429 6.8003 -0.4363 0.9721
1.9430 7.1336 -0.4561 0.9708
1.9430 7.3119 -0.4667 0.9701
1.9432 7.6946 -0.4896 0.9687
2.0436 8.3083 -0.5278 0.9663
2.0437 8.5359 -0.5415 0.9654
2.0443 10.1951 -0.6415 0.9592
2.0444 10.5332 -0.6619 0.9579
2.0446 10.8936 -0.6838 0.9566
2.0449 11.6909 -0.7322 0.9535
2.0450 12.1335 -0.7591 0.9519
2.0461 14.9459 -0.9306 0.9413
1.6792 15.0228 -0.9325 0.9412
1.3976 15.0229 -0.9308 0.9413
1.3039 15.0230 -0.9303 0.9414
1.0236 15.0231 -0.9289 0.9414
0.5577 15.0233 -0.9274 0.9415
0.3717 15.0235 -0.9271 0.9416
0.1858 15.0235 -0.9269 0.9416
0.0929 15.0236 -0.9268 0.9416
-0.3717 15.0238 -0.9271 0.9415
-0.4647 15.0239 -0.9273 0.9415
-0.5577 15.0239 -0.9275 0.9415
-0.6508 15.0240 -0.9277 0.9415
-0.8371 15.0241 -0.9283 0.9415
-0.9303 15.0241 -0.9286 0.9415
-1.0236 15.0242 -0.9290 0.9414
-1.3041 15.0243 -0.9303 0.9414
-1.3977 15.0244 -0.9309 0.9413
-1.5854 15.0245 -0.9320 0.9413
-1.7736 15.0246 -0.9333 0.9412
-1.8679 15.0246 -0.9340 0.9411
-1.9623 15.0246 -0.9348 0.9411
-2.0569 15.0247 -0.9355 0.9410
-2.2465 15.0248 -0.9372 0.9409
-2.3416 15.0248 -0.9381 0.9409
-2.4369 15.0249 -0.9390 0.9408
-2.5324 15.0249 -0.9400 0.9408
-2.8200 15.0251 -0.9431 0.9406
-2.9163 15.0251 -0.9442 0.9405
-3.2067 15.0253 -0.9478 0.9403
-3.4994 15.0254 -0.9517 0.9400
-3.7946 15.0256 -0.9560 0.9398
-3.8936 15.0256 -0.9576 0.9397
-4.1926 15.0258 -0.9624 0.9394
-4.5962 15.0260 -0.9694 0.9390
-4.6980 15.0260 -0.9712 0.9389
-4.9028 15.0261 -0.9751 0.9386
-5.0059 15.0262 -0.9771 0.9385
-5.2001 14.9884 -0.9787 0.9384
-5.3042 14.9884 -0.9808 0.9383
-5.5138 14.9885 -0.9852 0.9380
-5.6193 14.9886 -0.9875 0.9379
-5.8318 14.9887 -0.9922 0.9376
-6.1544 14.9889 -0.9996 0.9371
-6.2630 14.9889 -1.0022 0.9370
-6.3722 14.9890 -1.0048 0.9368
-6.4820 14.9890 -1.0074 0.9366
-6.8148 14.9892 -1.0158 0.9361
-6.9270 14.9893 -1.0187 0.9360
-7.1534 14.9894 -1.0246 0.9356
-7.6143 14.9896 -1.0372 0.9348
-7.7313 14.9897 -1.0405 0.9346
-7.8354 14.9637 -1.0420 0.9345
-8.0869 14.9898 -1.0507 0.9340
-8.2070 14.9899 -1.0543 0.9338
-8.3279 14.9900 -1.0579 0.9336
-8.5723 14.9901 -1.0653 0.9331
-8.6958 14.9902 -1.0691 0.9329
-9.0717 14.9903 -1.0809 0.9322
-9.1989 14.9904 -1.0850 0.9319
-9.8497 14.9907 -1.1066 0.9306
-10.1175 14.9909 -1.1157 0.9301
-10.3897 14.9910 -1.1252 0.9295
-10.8070 14.9912 -1.1401 0.9286
-10.9486 14.9913 -1.1452 0.9283
-11.0914 14.9913 -1.1504 0.9280
-11.2356 14.9914 -1.1557 0.9277
-11.5280 14.9916 -1.1667 0.9270
-11.8260 14.9917 -1.1780 0.9263
-12.5539 14.9403 -1.2039 0.9248
-13.0346 14.9405 -1.2232 0.9236
-13.3637 14.9407 -1.2366 0.9228
-13.6733 15.0978 -1.2566 0.9216
-13.8442 15.0979 -1.2637 0.9212
-14.4468 14.9931 -1.2845 0.9199
-14.9933 14.9933 -1.3081 0.9185
-15.3691 14.9935 -1.3246 0.9175
-15.5263 14.9606 -1.3301 0.9172
-15.4776 14.7302 -1.3181 0.9179
-15.3696 14.2693 -1.2938 0.9194
-15.4215 14.1409 -1.2908 0.9196
-15.4216 13.7938 -1.2764 0.9204
-15.4217 13.6232 -1.2694 0.9208
-15.4218 13.4544 -1.2626 0.9213
-15.4218 13.2874 -1.2558 0.9217
-15.4220 12.9586 -1.2427 0.9224
-15.4221 12.6366 -1.2300 0.9232
-15.4223 12.1657 -1.2118 0.9243
-15.4224 11.8593 -1.2002 0.9250
-15.4225 11.7083 -1.1945 0.9253
-15.4226 11.5587 -1.1890 0.9257
-15.4228 11.1181 -1.1729 0.9266
-15.4229 10.8308 -1.1626 0.9273
-15.4230 10.5485 -1.1527 0.9279
-15.4231 10.2709 -1.1431 0.9284
-15.4232 10.1338 -1.1385 0.9287
-15.4233 9.7292 -1.1250 0.9295
-15.3649 9.4287 -1.1121 0.9303
-15.4236 9.2041 -1.1080 0.9305
-15.4236 9.0752 -1.1040 0.9308
-15.4237 8.9473 -1.1000 0.9310
-15.4237 8.8203 -1.0961 0.9313
-15.4238 8.6942 -1.0923 0.9315
-15.4239 8.5690 -1.0885 0.9317
-15.4239 8.4446 -1.0848 0.9320
-15.4240 8.3211 -1.0812 0.9322
-15.4240 8.1984 -1.0776 0.9324
-15.4240 8.0765 -1.0741 0.9326
-15.4242 7.8350 -1.0673 0.9330
-15.4243 7.4784 -1.0575 0.9336
-15.4244 7.3610 -1.0543 0.9338
-15.4244 7.2442 -1.0513 0.9340
-15.4245 7.0127 -1.0453 0.9343
-15.4246 6.7838 -1.0395 0.9347
-15.4247 6.6703 -1.0367 0.9349
-15.4248 6.4451 -1.0313 0.9352
-15.4248 6.3333 -1.0287 0.9354
-15.4249 6.2222 -1.0261 0.9355
-15.4251 5.7829 -1.0163 0.9361
-15.4251 5.6744 -1.0139 0.9363
-15.4255 4.8229 -0.9970 0.9373
-15.4256 4.7184 -0.9951 0.9374
-15.4256 4.6143 -0.9933 0.9375
-15.4257 4.5105 -0.9915 0.9376
-15.4258 4.3042 -0.9880 0.9378
-15.4258 4.2016 -0.9863 0.9379
-15.3470 4.0783 -0.9796 0.9383
-15.4259 3.9973 -0.9831 0.9381
-15.4261 3.6934 -0.9785 0.9384
-15.4261 3.5927 -0.9771 0.9385
-15.4262 3.3921 -0.9744 0.9387
-15.4265 2.8953 -0.9683 0.9390
-15.4265 2.7967 -0.9672 0.9391
-15.4266 2.6983 -0.9661 0.9392
-15.4266 2.6000 -0.9651 0.9392
-15.4268 2.2092 -0.9614 0.9395
-15.4269 2.0148 -0.9598 0.9396
-15.4270 1.8211 -0.9583 0.9396
-15.4271 1.6279 -0.9570 0.9397
-15.4272 1.4352 -0.9558 0.9398
-16.7336 1.3482 -1.0357 0.9349
-18.1435 1.3489 -1.1224 0.9297
-19.8111 1.3497 -1.2250 0.9235
-29.1166 1.6222 -1.7990 0.8897
-28.8576 1.2500 -1.7819 0.8907
-28.8857 1.0723 -1.7832 0.8906
-28.9487 0.8954 -1.7867 0.8904
-29.0887 0.7197 -1.7951 0.8899
-29.4438 0.5463 -1.8167 0.8887
-35.5824 -0.0000 -2.4604 0.8670
-15.4283 -0.0954 -1.0668 0.9400
-15.4283 -0.1908 -1.0669 0.9400
-15.4284 -0.2863 -1.0670 0.9400
-15.4284 -0.3817 -1.0672 0.9400
-15.4284 -0.4772 -1.0673 0.9400
-15.4285 -0.5727 -1.0676 0.9400
-15.4285 -0.6683 -1.0678 0.9400
-15.4287 -0.9554 -1.0689 0.9399
-15.4287 -1.0512 -1.0693 0.9399
-15.4288 -1.1471 -1.0698 0.9399
-15.4288 -1.2431 -1.0703 0.9398
-15.4289 -1.4354 -1.0715 0.9398
-15.4290 -1.6281 -1.0728 0.9397
-15.4291 -1.7246 -1.0735 0.9396
-15.4293 -2.1123 -1.0768 0.9395
-15.4293 -2.2096 -1.0778 0.9394
-15.4294 -2.3071 -1.0788 0.9394
-15.4295 -2.4047 -1.0798 0.9393
-15.4295 -2.5025 -1.0809 0.9392
-15.4296 -2.6006 -1.0820 0.9392
-15.4296 -2.6988 -1.0831 0.9391
-15.4297 -2.8959 -1.0856 0.9390
-15.4298 -2.9949 -1.0868 0.9389
-15.4298 -3.0940 -1.0882 0.9389
-15.4300 -3.3930 -1.0924 0.9386
-15.4301 -3.5936 -1.0955 0.9385
-15.4302 -3.7954 -1.0988 0.9383
-15.4303 -3.9985 -1.1022 0.9381
-15.4304 -4.1005 -1.1040 0.9380
-15.4305 -4.3055 -1.1077 0.9378
-15.4305 -4.4086 -1.1097 0.9377
-15.4306 -4.5120 -1.1117 0.9376
-15.4307 -4.8245 -1.1179 0.9372
-15.4308 -4.9295 -1.1201 0.9371
-15.4309 -5.0349 -1.1224 0.9370
-15.4309 -5.1407 -1.1247 0.9369
-15.4310 -5.2470 -1.1270 0.9367
-15.4312 -5.6766 -1.1369 0.9362
-15.4313 -5.7852 -1.1396 0.9361
-15.4314 -5.8944 -1.1422 0.9359
-15.4315 -6.1142 -1.1477 0.9356
-15.4316 -6.3362 -1.1535 0.9353
-15.4319 -6.7870 -1.1657 0.9346
-15.4320 -7.0161 -1.1722 0.9343
-15.4321 -7.2478 -1.1789 0.9339
-15.3805 -7.5750 -1.1855 0.9336
-15.3806 -7.6936 -1.1892 0.9334
-15.3807 -7.8129 -1.1929 0.9332
-15.3808 -7.9330 -1.1967 0.9330
-15.3809 -8.1754 -1.2045 0.9325
-15.3810 -8.2979 -1.2085 0.9323
-15.3810 -8.4212 -1.2125 0.9321
-15.3811 -8.5453 -1.2167 0.9319
-15.3813 -8.7961 -1.2252 0.9314
-15.3813 -8.9228 -1.2296 0.9312
-15.4334 -9.3399 -1.2474 0.9302
-15.4335 -9.4708 -1.2521 0.9300
-15.4337 -9.7357 -1.2618 0.9294
-15.4337 -9.8697 -1.2668 0.9292
-15.4339 -10.1409 -1.2770 0.9286
-15.4340 -10.2782 -1.2822 0.9283
-15.4341 -10.4166 -1.2875 0.9281
-15.4343 -10.8389 -1.3041 0.9272
-17.1995 -12.3989 -1.4661 0.9185
-16.7590 -12.3992 -1.4415 0.9198
-16.3348 -12.2424 -1.4115 0.9214
-15.7854 -12.2945 -1.3835 0.9229
-15.4352 -12.3315 -1.3661 0.9238
-15.4354 -12.6476 -1.3799 0.9231
-15.4355 -12.8080 -1.3869 0.9227
-15.4356 -12.9701 -1.3941 0.9223
-15.4357 -13.1339 -1.4014 0.9220
-15.4358 -13.2994 -1.4089 0.9216
-15.4359 -13.4667 -1.4165 0.9211
-15.4361 -13.8068 -1.4320 0.9203
-15.4362 -13.9798 -1.4400 0.9199
-15.4016 -14.1227 -1.4449 0.9196
-15.5419 -14.7914 -1.4836 0.9176
-15.5420 -14.9758 -1.4924 0.9171
-15.5421 -15.1624 -1.5014 0.9166
-15.4931 -15.3027 -1.5057 0.9164
-15.5424 -15.5424 -1.5199 0.9156
-15.5425 -15.7360 -1.5294 0.9151
-15.4020 -15.7878 -1.5251 0.9154
-15.4375 -16.0212 -1.5384 0.9147
-15.4376 -16.2209 -1.5484 0.9141
-15.4380 -16.8360 -1.5795 0.9125
-15.4381 -17.0466 -1.5903 0.9119
-15.4384 -17.4766 -1.6124 0.9107
-15.4386 -17.6961 -1.6239 0.9101
-15.4390 -18.3739 -1.6595 0.9083
-15.4393 -18.8425 -1.6844 0.9069
-15.4395 -19.0823 -1.6973 0.9063
-13.5625 -17.4134 -1.5262 0.9153
-13.3904 -17.4135 -1.5189 0.9157
-13.2198 -17.4135 -1.5118 0.9161
-12.8836 -17.4137 -1.4978 0.9168
-12.5535 -17.4139 -1.4844 0.9175
-12.3906 -17.4140 -1.4778 0.9179
-12.2291 -17.4140 -1.4714 0.9182
-12.0691 -17.4141 -1.4651 0.9186
-11.7530 -17.4143 -1.4527 0.9192
-11.4422 -17.4144 -1.4408 0.9198
-11.2887 -17.4145 -1.4350 0.9202
-11.1364 -17.4146 -1.4293 0.9205
-10.5390 -17.4149 -1.4075 0.9216
-10.2470 -17.4150 -1.3972 0.9222
-9.8168 -17.4152 -1.3824 0.9230
-9.6754 -17.4154 -1.3776 0.9232
-9.2569 -17.4155 -1.3638 0.9240
-9.1193 -17.4156 -1.3593 0.9242
-8.8466 -17.4157 -1.3507 0.9247
-8.7116 -17.4158 -1.3465 0.9249
-8.5774 -17.4159 -1.3424 0.9251
-8.4440 -17.4160 -1.3383 0.9253
-8.3114 -17.4160 -1.3344 0.9255
-8.1796 -17.4161 -1.3305 0.9258
-8.0486 -17.4162 -1.3267 0.9260
-7.7887 -17.4163 -1.3192 0.9264
-7.4042 -17.4165 -1.3086 0.9269
-7.0257 -17.4167 -1.2986 0.9275
-6.9007 -17.4167 -1.2954 0.9276
-6.7765 -17.4168 -1.2923 0.9278
-6.5296 -17.4169 -1.2862 0.9281
-6.1637 -17.4171 -1.2775 0.9286
-6.0428 -17.4172 -1.2748 0.9287
-5.4457 -17.4175 -1.2619 0.9294
-5.2101 -17.4176 -1.2571 0.9297
-5.0930 -17.4176 -1.2548 0.9298
-4.5135 -17.4179 -1.2442 0.9304
-4.3988 -17.4180 -1.2422 0.9305
-4.2844 -17.4181 -1.2403 0.9306
-4.1703 -17.4181 -1.2385 0.9307
-4.0566 -17.4182 -1.2367 0.9308
-3.9432 -17.4182 -1.2349 0.9309
-3.8302 -17.4183 -1.2332 0.9310
-3.6049 -17.4184 -1.2300 0.9312
-3.3809 -17.4185 -1.2269 0.9313
-3.2692 -17.4186 -1.2255 0.9314
-3.1579 -17.4186 -1.2241 0.9315
-3.0467 -17.4187 -1.2227 0.9316
-2.9358 -17.4188 -1.2214 0.9316
-2.6045 -17.4189 -1.2179 0.9318
-2.4945 -17.4190 -1.2168 0.9319
-2.2750 -17.4191 -1.2147 0.9320
-2.1655 -17.4192 -1.2138 0.9320
-1.9471 -17.4192 -1.2120 0.9321
-1.7293 -17.4194 -1.2104 0.9322
-1.6205 -17.4194 -1.2097 0.9323
-1.4035 -17.4195 -1.2084 0.9323
-1.2951 -17.4196 -1.2078 0.9324
-1.1868 -17.4197 -1.2073 0.9324
-0.8625 -17.4198 -1.2060 0.9325
-0.7546 -17.4199 -1.2057 0.9325
-0.6467 -17.4199 -1.2054 0.9325
-0.4310 -17.4200 -1.2049 0.9325
-0.3232 -17.4201 -1.2048 0.9325
0.0000 -17.4203 -1.2046 0.9325
0.3232 -17.4204 -1.2048 0.9325
0.4310 -17.4205 -1.2049 0.9325
0.5388 -17.4205 -1.2052 0.9325
0.6467 -17.4206 -1.2054 0.9325
0.9706 -17.4207 -1.2065 0.9324
1.2952 -17.4209 -1.2079 0.9324
1.5121 -17.4210 -1.2091 0.9323
1.9473 -17.4213 -1.2121 0.9321
2.0565 -17.4213 -1.2130 0.9321
2.0502 -15.6981 -1.0947 0.9385
2.1300 -15.5593 -1.0859 0.9390
2.1305 -14.8774 -1.0392 0.9415
2.1317 -13.1431 -0.9207 0.9480
2.1321 -12.6497 -0.8870 0.9499
2.1327 -11.7636 -0.8267 0.9532
2.1334 -10.6392 -0.7503 0.9574
2.1336 -10.3092 -0.7280 0.9587
2.1345 -8.9153 -0.6339 0.9639
2.1347 -8.6786 -0.6180 0.9648
2.1348 -8.4535 -0.6029 0.9656
2.1350 -8.2391 -0.5885 0.9664
2.1353 -7.8395 -0.5618 0.9679
2.1355 -7.4745 -0.5375 0.9693
2.0360 -6.5118 -0.4718 0.9730
2.0361 -6.3735 -0.4627 0.9735
2.0361 -6.2404 -0.4539 0.9740
2.0362 -6.1122 -0.4455 0.9745
2.0502 -5.9094 -0.4325 0.9752
2.0847 -5.8910 -0.4321 0.9753
2.0848 -5.7774 -0.4247 0.9757
2.0850 -5.5614 -0.4107 0.9765
2.0851 -5.3591 -0.3976 0.9772
2.0852 -5.2628 -0.3914 0.9776
2.0853 -5.0787 -0.3796 0.9782
2.0854 -4.9908 -0.3740 0.9785
2.0854 -4.9054 -0.3686 0.9789
2.0856 -4.6636 -0.3532 0.9797
2.0856 -4.5873 -0.3484 0.9800
2.1229 -4.5201 -0.3453 0.9802
2.1795 -4.4953 -0.3454 0.9802
2.0859 -4.1700 -0.3224 0.9815
2.1377 -4.1447 -0.3225 0.9815
2.1377 -4.0826 -0.3187 0.9817
2.1378 -4.0219 -0.3150 0.9819
2.1379 -3.8482 -0.3044 0.9825
2.1379 -3.7928 -0.3011 0.9827
2.1380 -3.6856 -0.2946 0.9831
2.1380 -3.6337 -0.2915 0.9832
2.1381 -3.5829 -0.2885 0.9834
2.1381 -3.5331 -0.2856 0.9836
2.1381 -3.4843 -0.2827 0.9837
2.1382 -3.4365 -0.2799 0.9839
2.1382 -3.3437 -0.2744 0.9842
2.1382 -3.2986 -0.2718 0.9844
2.1383 -3.2544 -0.2693 0.9845
2.1384 -3.1265 -0.2619 0.9849
2.1384 -3.0054 -0.2551 0.9853
2.1385 -2.8905 -0.2486 0.9857
2.1385 -2.8534 -0.2466 0.9858
2.1386 -2.8170 -0.2446 0.9859
2.1386 -2.7811 -0.2426 0.9860
2.1387 -2.6770 -0.2369 0.9864
2.1387 -2.6433 -0.2351 0.9865
2.1387 -2.5136 -0.2282 0.9869
2.1388 -2.4824 -0.2266 0.9869
2.1388 -2.4516 -0.2250 0.9870
2.1388 -2.4212 -0.2234 0.9871
2.1388 -2.3912 -0.2218 0.9872
2.1592 -2.3257 -0.2194 0.9874
2.1862 -2.3257 -0.2207 0.9873
2.2410 -2.3258 -0.2233 0.9871
2.2972 -2.3258 -0.2260 0.9870
2.3841 -2.3258 -0.2303 0.9867
2.4138 -2.3259 -0.2318 0.9866
2.4439 -2.3259 -0.2333 0.9866
2.5365 -2.3259 -0.2380 0.9863
2.5683 -2.3259 -0.2396 0.9862
2.6004 -2.3260 -0.2412 0.9861
2.6330 -2.3260 -0.2429 0.9860
2.6661 -2.3260 -0.2447 0.9859
2.6996 -2.3260 -0.2464 0.9858
2.7337 -2.3260 -0.2482 0.9857
2.7682 -2.3260 -0.2500 0.9856
2.8032 -2.3261 -0.2519 0.9855
2.8388 -2.3261 -0.2538 0.9854
2.8749 -2.3261 -0.2557 0.9853
2.9116 -2.3261 -0.2577 0.9852
3.1142 -2.2744 -0.2667 0.9847
3.5084 -2.4316 -0.2952 0.9830
3.8550 -2.4317 -0.3152 0.9819
3.9084 -2.4318 -0.3183 0.9817
3.9628 -2.4318 -0.3215 0.9815
4.0184 -2.4318 -0.3248 0.9813
4.1331 -2.4319 -0.3316 0.9810
4.1922 -2.4319 -0.3351 0.9808
4.1964 -2.3998 -0.3343 0.9808
4.3776 -2.4321 -0.3463 0.9801
4.4421 -2.4321 -0.3502 0.9799
4.4713 -2.4122 -0.3513 0.9798
4.4867 -2.3848 -0.3513 0.9798
4.5019 -2.3573 -0.3514 0.9798
4.5317 -2.3020 -0.3515 0.9798
4.5484 -2.2752 -0.3517 0.9798
4.6196 -2.2752 -0.3561 0.9796
5.1188 -2.3273 -0.3888 0.9777
5.2041 -2.3273 -0.3942 0.9774
5.2918 -2.3274 -0.3997 0.9771
5.3820 -2.3274 -0.4055 0.9768
5.4747 -2.3274 -0.4114 0.9764
5.5703 -2.3275 -0.4174 0.9761
5.7701 -2.3276 -0.4302 0.9754
5.8747 -2.3276 -0.4369 0.9750
5.9642 -2.3205 -0.4425 0.9747
6.0554 -2.2276 -0.4461 0.9745
6.1731 -2.2276 -0.4538 0.9740
6.2950 -2.2277 -0.4617 0.9736
6.4211 -2.2278 -0.4700 0.9731
6.5519 -2.2278 -0.4785 0.9726
6.6875 -2.2279 -0.4874 0.9721
7.4475 -2.3285 -0.5396 0.9692
7.6127 -2.3286 -0.5505 0.9686
7.7848 -2.3287 -0.5619 0.9679
7.9642 -2.3288 -0.5738 0.9673
8.1513 -2.3289 -0.5862 0.9666
8.3468 -2.3290 -0.5992 0.9659
8.7649 -2.3292 -0.6271 0.9643
8.9889 -2.3293 -0.6421 0.9635
9.4708 -2.3296 -0.6744 0.9616
37.1418 -8.4084 -2.6332 0.8584
37.3955 -7.2583 -2.6341 0.8584
37.5301 -6.5644 -2.6345 0.8583
37.6888 -5.6353 -2.6350 0.8583
37.7247 -5.4023 -2.6352 0.8583
37.7592 -5.1692 -2.6353 0.8583
37.8236 -4.7022 -2.6355 0.8583
37.8536 -4.4684 -2.6356 0.8583
37.9586 -3.5314 -2.6361 0.8583
37.9810 -3.2967 -2.6362 0.8583
38.0020 -3.0618 -2.6363 0.8582
38.0215 -2.8268 -2.6363 0.8582
38.0395 -2.5917 -2.6364 0.8582
38.0709 -2.1211 -2.6366 0.8582
38.0843 -1.8857 -2.6367 0.8582
38.1068 -1.4146 -2.6368 0.8582
38.1157 -1.1789 -2.6369 0.8582
38.1363 -0.2358 -2.6371 0.8582
38.1281 0.9434 -2.6373 0.8582
38.1142 1.4149 -2.6373 0.8582
38.0821 2.1218 -2.6374 0.8582
38.0532 2.5926 -2.6374 0.8582
37.3416 2.7762 -2.5892 0.8606
37.3472 3.0090 -2.5908 0.8605
37.9983 3.2981 -2.6374 0.8582
37.9302 4.0024 -2.6373 0.8582
37.7530 5.4064 -2.6372 0.8582
37.7182 5.6396 -2.6371 0.8582
37.6820 5.8728 -2.6371 0.8582
37.6443 6.1055 -2.6370 0.8582
37.6051 6.3381 -2.6370 0.8582
37.5643 6.5704 -2.6369 0.8582
37.5221 6.8024 -2.6368 0.8582
37.4784 7.0341 -2.6368 0.8582
9.9049 2.0499 -0.6994 0.9603
8.2603 1.9777 -0.5873 0.9665
7.0675 1.8781 -0.5057 0.9711
6.5746 1.8784 -0.4728 0.9730
6.2800 1.8786 -0.4533 0.9741
6.1417 1.8786 -0.4441 0.9746
6.1237 1.9146 -0.4437 0.9746
6.0647 1.9788 -0.4411 0.9747
5.9400 1.9789 -0.4329 0.9752
5.5924 1.9791 -0.4102 0.9765
5.4845 1.9791 -0.4032 0.9769
5.2793 1.9792 -0.3899 0.9776
5.0873 1.9793 -0.3775 0.9784
4.8210 1.9795 -0.3604 0.9793
4.6137 1.9278 -0.3457 0.9802
4.5965 1.9877 -0.3463 0.9801
4.5965 2.0556 -0.3482 0.9800
4.4390 2.0848 -0.3391 0.9805
4.3687 2.0849 -0.3347 0.9808
4.1046 2.0850 -0.3183 0.9817
3.9820 2.0851 -0.3108 0.9821
3.8650 2.0851 -0.3037 0.9825
3.8085 2.0852 -0.3002 0.9827
3.7533 2.0852 -0.2969 0.9829
3.4911 2.0252 -0.2791 0.9839
3.4679 2.0405 -0.2782 0.9840
3.4459 2.0854 -0.2785 0.9840
2.9752 1.9287 -0.2452 0.9859
2.9353 1.9287 -0.2429 0.9860
2.8956 1.9805 -0.2426 0.9860
2.8576 1.9805 -0.2404 0.9862
2.7474 1.9805 -0.2342 0.9865
2.6089 1.9806 -0.2265 0.9870
2.5109 1.9807 -0.2211 0.9873
2.4792 1.9807 -0.2194 0.9874
2.4174 1.9807 -0.2161 0.9875
2.3871 1.9808 -0.2145 0.9876
2.3573 1.9808 -0.2129 0.9877
2.2704 1.9808 -0.2083 0.9880
2.2146 1.9809 -0.2055 0.9882
2.1872 1.9809 -0.2040 0.9882
2.1602 1.9809 -0.2027 0.9883
2.1336 1.9809 -0.2013 0.9884
2.1074 1.9809 -0.2000 0.9885
2.0814 1.9809 -0.1987 0.9885
2.0558 1.9809 -0.1974 0.9886
2.0412 1.9913 -0.1972 0.9886
2.0413 2.2539 -0.2103 0.9879
2.0413 2.2822 -0.2117 0.9878
2.0413 2.3692 -0.2162 0.9875
2.0413 2.3991 -0.2178 0.9874
2.0413 2.4601 -0.2210 0.9873
2.0414 2.4913 -0.2227 0.9872
2.0414 2.5878 -0.2279 0.9869
2.0414 2.6548 -0.2316 0.9867
2.0415 2.7593 -0.2373 0.9863
2.0414 2.7953 -0.2393 0.9862
2.0415 2.8319 -0.2414 0.9861
2.0415 2.8692 -0.2435 0.9860
2.0415 2.9457 -0.2478 0.9857
2.0415 2.9849 -0.2501 0.9856
2.0416 3.0657 -0.2547 0.9853
2.0416 3.1072 -0.2571 0.9852
2.0416 3.1495 -0.2595 0.9851
2.0416 3.2365 -0.2646 0.9848
2.0417 3.2814 -0.2672 0.9846
2.0417 3.3271 -0.2699 0.9845
2.0417 3.4700 -0.2784 0.9840
2.0417 3.5196 -0.2814 0.9838
2.0418 3.6222 -0.2875 0.9835
2.0418 3.6752 -0.2907 0.9833
1.9945 3.8089 -0.2973 0.9829
2.1471 4.2269 -0.3278 0.9812
2.1472 4.2925 -0.3319 0.9809
2.1472 4.4994 -0.3447 0.9802
2.1329 4.5413 -0.3469 0.9801
2.1043 4.5535 -0.3469 0.9801
2.0471 4.5775 -0.3467 0.9801
2.0183 4.5892 -0.3467 0.9801
1.9904 4.7635 -0.3570 0.9795
1.9905 5.0238 -0.3737 0.9786
1.9906 5.2112 -0.3857 0.9779
1.9906 5.3096 -0.3921 0.9775
2.0426 5.8874 -0.4309 0.9753
1.9859 5.9609 -0.4345 0.9751
1.9485 5.9719 -0.4344 0.9751
1.9425 6.2130 -0.4501 0.9742
1.9426 6.3508 -0.4592 0.9737
1.9427 6.6438 -0.4786 0.9726
1.9427 6.7999 -0.4890 0.9720
2.0431 7.3223 -0.5257 0.9700
2.0433 7.8853 -0.5633 0.9679
2.0435 8.3077 -0.5916 0.9663
2.0435 8.5352 -0.6069 0.9654
2.0441 10.1941 -0.7189 0.9592
2.0444 10.8925 -0.7663 0.9565
2.0452 13.1227 -0.9184 0.9481
2.0454 13.6794 -0.9564 0.9461
1.9620 15.0227 -1.0476 0.9411
1.8676 15.0227 -1.0468 0.9411
1.7733 15.0227 -1.0460 0.9412
1.4914 15.0229 -1.0439 0.9413
1.3976 15.0229 -1.0433 0.9413
1.3039 15.0230 -1.0427 0.9413
1.1169 15.0231 -1.0417 0.9414
1.0235 15.0231 -1.0412 0.9414
0.8370 15.0232 -1.0404 0.9415
0.1858 15.0235 -1.0389 0.9415
0.0929 15.0236 -1.0389 0.9415
-0.1858 15.0237 -1.0389 0.9415
-0.2788 15.0238 -1.0390 0.9415
-0.3717 15.0238 -1.0392 0.9415
-0.4647 15.0239 -1.0394 0.9415
-0.6508 15.0239 -1.0398 0.9415
-0.7439 15.0240 -1.0401 0.9415
-0.8371 15.0240 -1.0405 0.9415
-0.9303 15.0241 -1.0409 0.9414
-1.0236 15.0241 -1.0413 0.9414
-1.1170 15.0242 -1.0418 0.9414
-1.2105 15.0242 -1.0423 0.9414
-1.3041 15.0243 -1.0428 0.9413
-1.3977 15.0243 -1.0434 0.9413
-1.4915 15.0244 -1.0440 0.9413
-1.5854 15.0244 -1.0447 0.9412
-1.7736 15.0245 -1.0461 0.9411
-1.8679 15.0246 -1.0469 0.9411
-2.1516 15.0247 -1.0495 0.9410
-2.3416 15.0248 -1.0515 0.9409
-2.4369 15.0249 -1.0525 0.9408
-2.6280 15.0249 -1.0547 0.9407
-2.7239 15.0250 -1.0559 0.9406
-2.8200 15.0251 -1.0571 0.9405
-3.0129 15.0252 -1.0596 0.9404
-3.1096 15.0252 -1.0610 0.9403
-3.2067 15.0253 -1.0624 0.9403
-3.4994 15.0254 -1.0668 0.9400
-3.6959 15.0255 -1.0699 0.9398
-3.7946 15.0256 -1.0716 0.9398
-4.1926 15.0258 -1.0787 0.9394
-4.3937 15.0259 -1.0825 0.9392
-4.4947 15.0259 -1.0845 0.9391
-5.3042 14.9884 -1.0994 0.9382
-5.8318 14.9887 -1.1121 0.9375
-6.0463 14.9888 -1.1176 0.9373
-6.4819 14.9890 -1.1292 0.9366
-6.5923 14.9891 -1.1323 0.9365
-6.8148 14.9892 -1.1386 0.9361
-7.2675 14.9894 -1.1519 0.9354
-7.4979 14.9895 -1.1589 0.9350
-7.6142 14.9896 -1.1625 0.9348
-7.9400 14.9379 -1.1698 0.9344
-8.0589 14.9380 -1.1737 0.9342
-8.1786 14.9381 -1.1776 0.9340
-8.2991 14.9381 -1.1816 0.9338
-8.4205 14.9382 -1.1857 0.9336
-8.5427 14.9382 -1.1899 0.9333
-8.6658 14.9383 -1.1942 0.9331
-8.9455 14.9902 -1.2071 0.9324
-9.0717 14.9903 -1.2116 0.9322
-9.1989 14.9904 -1.2162 0.9319
-9.3270 14.9904 -1.2208 0.9317
-9.5863 14.9906 -1.2304 0.9311
-9.8497 14.9907 -1.2403 0.9306
-9.9830 14.9908 -1.2454 0.9303
-10.1175 14.9908 -1.2506 0.9301
-10.5276 14.9910 -1.2667 0.9292
-10.6667 14.9911 -1.2722 0.9289
-11.2356 14.9914 -1.2954 0.9276
-11.3811 14.9915 -1.3015 0.9273
-11.5280 14.9915 -1.3077 0.9270
-11.8260 14.9917 -1.3203 0.9263
-11.9772 14.9918 -1.3268 0.9259
-12.1299 14.9919 -1.3335 0.9256
-12.2842 14.9919 -1.3402 0.9252
-12.6858 15.0973 -1.3635 0.9240
-12.8460 15.0974 -1.3707 0.9236
-12.9656 15.0483 -1.3735 0.9234
-13.1715 15.0975 -1.3854 0.9228
-14.0600 14.9575 -1.4195 0.9210
-14.6268 14.9931 -1.4484 0.9194
-14.8089 14.9932 -1.4572 0.9190
-15.1800 14.9934 -1.4753 0.9180
-15.3691 14.9935 -1.4847 0.9175
-15.5267 14.9610 -1.4909 0.9172
-15.4777 14.7302 -1.4775 0.9179
-15.5268 14.5951 -1.4735 0.9181
-15.3700 14.2697 -1.4502 0.9193
-15.4219 13.9668 -1.4387 0.9200
-15.4220 13.7942 -1.4307 0.9204
-15.4221 13.4547 -1.4152 0.9212
-15.4223 12.9589 -1.3929 0.9224
-15.4224 12.7971 -1.3857 0.9228
-15.4225 12.6369 -1.3787 0.9232
-15.4784 12.3659 -1.3699 0.9236
-15.4227 12.1659 -1.3583 0.9243
-15.4227 12.0120 -1.3517 0.9246
-15.4228 11.8596 -1.3453 0.9250
-15.4229 11.7085 -1.3390 0.9253
-15.4230 11.2639 -1.3206 0.9263
-15.4231 11.1183 -1.3147 0.9266
-15.4231 10.9741 -1.3089 0.9269
-15.4232 10.8311 -1.3032 0.9272
-15.4233 10.6893 -1.2976 0.9275
-15.4233 10.5487 -1.2921 0.9278
-15.5289 9.6620 -1.2647 0.9293
-15.5289 9.5293 -1.2598 0.9296
-15.3721 9.1733 -1.2378 0.9307
-15.3723 8.6652 -1.2202 0.9317
-15.4242 8.5691 -1.2201 0.9317
-15.4242 8.4448 -1.2159 0.9319
-15.4243 8.3212 -1.2119 0.9321
-15.4243 8.1985 -1.2079 0.9324
-15.4245 7.8351 -1.1963 0.9330
-15.4245 7.7155 -1.1926 0.9332
-15.4246 7.5967 -1.1889 0.9334
-15.4246 7.4785 -1.1853 0.9336
-15.4247 7.3611 -1.1818 0.9338
-15.4247 7.2443 -1.1784 0.9340
-15.4249 6.8981 -1.1684 0.9345
-15.4249 6.7839 -1.1652 0.9347
-15.4251 6.4452 -1.1560 0.9352
-15.4252 6.1117 -1.1473 0.9356
-15.4253 5.8920 -1.1418 0.9359
-15.4254 5.7830 -1.1391 0.9361
-15.4254 5.6745 -1.1365 0.9362
-15.4255 5.5664 -1.1340 0.9364
-15.4255 5.4589 -1.1315 0.9365
-15.4256 5.3518 -1.1290 0.9366
-15.4256 5.2452 -1.1266 0.9368
-15.4257 5.1390 -1.1243 0.9369
-15.4257 5.0332 -1.1220 0.9370
-15.4258 4.8230 -1.1176 0.9373
-15.4259 4.7185 -1.1154 0.9374
-15.4260 4.4073 -1.1093 0.9377
-15.4261 4.3043 -1.1074 0.9378
-15.4261 4.2017 -1.1055 0.9379
-15.3504 4.0792 -1.0983 0.9383
-15.4262 3.9974 -1.1019 0.9381
-15.4264 3.6935 -1.0968 0.9384
-15.4264 3.5928 -1.0952 0.9385
-15.4265 3.4923 -1.0937 0.9386
-15.4265 3.3922 -1.0922 0.9386
-15.4267 3.0933 -1.0879 0.9389
-15.4267 2.8954 -1.0853 0.9390
-15.4268 2.7967 -1.0841 0.9391
-15.4268 2.6983 -1.0829 0.9391
-15.4269 2.5021 -1.0807 0.9393
-15.4270 2.4043 -1.0796 0.9393
-15.4271 2.1119 -1.0767 0.9395
-15.4272 2.0149 -1.0758 0.9395
-15.4272 1.9179 -1.0750 0.9396
-15.4274 1.6279 -1.0727 0.9397
-28.8577 1.6078 -1.9985 0.8906
-28.8516 1.4285 -1.9975 0.8906
-28.8577 1.2500 -1.9973 0.8906
-28.8982 0.8938 -1.9992 0.8905
-28.9975 0.7174 -2.0057 0.8902
-29.3147 0.5439 -2.0274 0.8891
-35.5808 0.4401 -2.4605 0.8670
-35.5823 0.2200 -2.4605 0.8670
-15.4286 -0.1908 -1.1821 0.9400
-15.4286 -0.2863 -1.1822 0.9400
-15.4287 -0.4772 -1.1826 0.9400
-15.4288 -0.5727 -1.1828 0.9399
-15.4288 -0.6683 -1.1831 0.9399
-15.4289 -0.8596 -1.1839 0.9399
-15.4292 -1.3392 -1.1865 0.9398
-15.4294 -1.7247 -1.1894 0.9396
-15.4294 -1.8214 -1.1903 0.9396
-15.3777 -1.9117 -1.1872 0.9397
-15.3777 -2.0084 -1.1881 0.9397
-15.3778 -2.2022 -1.1901 0.9396
-15.3779 -2.2993 -1.1912 0.9395
-15.3779 -2.3967 -1.1923 0.9395
-15.3780 -2.5919 -1.1947 0.9394
-15.3782 -2.8863 -1.1987 0.9392
-15.3782 -2.9849 -1.2001 0.9391
-15.4304 -3.6945 -1.2156 0.9383
-15.4305 -3.7955 -1.2174 0.9382
-15.4305 -3.8969 -1.2193 0.9381
-15.4308 -4.3056 -1.2273 0.9378
-15.4309 -4.6159 -1.2339 0.9374
-15.4310 -4.7200 -1.2363 0.9373
-15.4310 -4.8246 -1.2386 0.9372
-15.4311 -4.9296 -1.2411 0.9371
-15.4312 -5.0350 -1.2435 0.9370
-15.4313 -5.2471 -1.2487 0.9367
-15.4314 -5.3538 -1.2513 0.9366
-15.4315 -5.5686 -1.2568 0.9363
-15.4315 -5.6767 -1.2597 0.9362
-15.4316 -5.7854 -1.2626 0.9360
-15.4317 -5.8945 -1.2656 0.9359
-15.4317 -6.0041 -1.2686 0.9357
-15.4318 -6.1143 -1.2717 0.9356
-15.4321 -6.6735 -1.2881 0.9348
-15.4322 -6.7871 -1.2916 0.9346
-15.4324 -7.1318 -1.3024 0.9341
-15.4325 -7.2480 -1.3062 0.9339
-15.3807 -7.3401 -1.3057 0.9339
-15.5379 -7.7723 -1.3310 0.9327
-15.4889 -7.8679 -1.3309 0.9327
-15.5381 -8.0141 -1.3394 0.9323
-15.5382 -8.2591 -1.3481 0.9318
-15.5383 -8.3828 -1.3526 0.9316
-15.5022 -8.4875 -1.3540 0.9316
-15.5385 -8.6327 -1.3618 0.9312
-15.5385 -8.7589 -1.3665 0.9309
-15.5386 -8.8860 -1.3713 0.9307
-15.4892 -8.9853 -1.3719 0.9307
-15.3818 -9.0506 -1.3673 0.9309
-15.4336 -9.2101 -1.3769 0.9304
-15.4338 -9.4710 -1.3873 0.9299
-15.4339 -9.6029 -1.3926 0.9297
-15.4346 -10.6971 -1.4387 0.9274
-15.4346 -10.8391 -1.4449 0.9271
-17.1996 -12.3990 -1.6244 0.9185
-16.1944 -12.2943 -1.5577 0.9217
-15.9883 -12.2944 -1.5452 0.9223
-15.5858 -12.2946 -1.5208 0.9235
-15.4357 -12.4890 -1.5211 0.9234
-15.4358 -12.6479 -1.5288 0.9231
-15.4360 -12.9704 -1.5446 0.9223
-15.4362 -13.2998 -1.5610 0.9215
-15.4364 -13.6362 -1.5780 0.9207
-15.4365 -13.8072 -1.5867 0.9203
-15.4366 -13.9801 -1.5955 0.9198
-15.5421 -14.4295 -1.6247 0.9184
-15.4935 -15.3030 -1.6683 0.9163
-15.5428 -15.5428 -1.6840 0.9156
-15.5429 -15.7363 -1.6945 0.9151
-15.4379 -16.0217 -1.7045 0.9146
-15.4380 -16.2214 -1.7156 0.9141
-15.4383 -16.6287 -1.7383 0.9130
-15.4384 -16.8365 -1.7500 0.9124
-15.4386 -17.0471 -1.7620 0.9119
-15.4387 -17.2606 -1.7741 0.9113
-15.4390 -17.6966 -1.7992 0.9101
-15.4391 -17.9192 -1.8121 0.9095
-15.4393 -18.1451 -1.8252 0.9088
-15.4394 -18.3744 -1.8387 0.9082
-15.4396 -18.6070 -1.8523 0.9076
-15.4399 -19.0828 -1.8806 0.9062
-12.7178 -17.4138 -1.6520 0.9171
-12.3906 -17.4140 -1.6374 0.9178
-12.0691 -17.4141 -1.6232 0.9185
-11.9104 -17.4142 -1.6163 0.9188
-11.7531 -17.4143 -1.6096 0.9192
-11.5970 -17.4144 -1.6029 0.9195
-11.4422 -17.4145 -1.5964 0.9198
-11.2887 -17.4145 -1.5899 0.9201
-11.1364 -17.4146 -1.5836 0.9204
-10.8354 -17.4148 -1.5713 0.9210
-10.2470 -17.4151 -1.5480 0.9221
-10.1026 -17.4151 -1.5424 0.9224
-9.9592 -17.4152 -1.5370 0.9227
-9.8168 -17.4153 -1.5316 0.9229
-9.1193 -17.4156 -1.5061 0.9242
-8.9825 -17.4157 -1.5013 0.9244
-8.8466 -17.4158 -1.4965 0.9246
-8.7116 -17.4158 -1.4919 0.9249
-8.5774 -17.4159 -1.4873 0.9251
-8.1796 -17.4161 -1.4741 0.9257
-8.0486 -17.4162 -1.4699 0.9259
-7.9182 -17.4162 -1.4657 0.9261
-7.7887 -17.4163 -1.4616 0.9263
-7.6598 -17.4164 -1.4576 0.9265
-7.5317 -17.4164 -1.4537 0.9267
-7.0257 -17.4167 -1.4388 0.9274
-6.9008 -17.4168 -1.4352 0.9276
-6.6528 -17.4169 -1.4284 0.9279
-6.4071 -17.4170 -1.4218 0.9283
-6.2851 -17.4171 -1.4186 0.9284
-6.1637 -17.4171 -1.4154 0.9286
-5.9224 -17.4173 -1.4094 0.9289
-5.6831 -17.4174 -1.4036 0.9291
-5.5641 -17.4174 -1.4008 0.9293
-5.2101 -17.4176 -1.3928 0.9297
-4.8600 -17.4178 -1.3854 0.9300
-4.5136 -17.4180 -1.3785 0.9304
-4.2844 -17.4181 -1.3742 0.9306
-4.1704 -17.4181 -1.3721 0.9307
-4.0566 -17.4182 -1.3701 0.9308
-3.8302 -17.4183 -1.3663 0.9310
-3.7174 -17.4184 -1.3645 0.9310
-3.6050 -17.4184 -1.3627 0.9311
-3.3808 -17.4186 -1.3594 0.9313
-3.1579 -17.4187 -1.3562 0.9314
-3.0467 -17.4187 -1.3547 0.9315
-2.8252 -17.4188 -1.3519 0.9317
-2.7147 -17.4189 -1.3506 0.9317
-2.6045 -17.4189 -1.3493 0.9318
-2.4945 -17.4190 -1.3481 0.9318
-2.1655 -17.4192 -1.3448 0.9320
-2.0562 -17.4192 -1.3438 0.9321
-1.9471 -17.4193 -1.3428 0.9321
-1.7292 -17.4194 -1.3411 0.9322
-1.4035 -17.4195 -1.3389 0.9323
-0.7546 -17.4199 -1.3358 0.9324
-0.6467 -17.4200 -1.3355 0.9325
-0.5388 -17.4200 -1.3352 0.9325
-0.4310 -17.4201 -1.3350 0.9325
-0.2154 -17.4202 -1.3347 0.9325
-0.1077 -17.4202 -1.3346 0.9325
0.2155 -17.4204 -1.3347 0.9325
0.4310 -17.4205 -1.3350 0.9325
0.5388 -17.4205 -1.3353 0.9325
0.6467 -17.4206 -1.3355 0.9325
0.9706 -17.4208 -1.3367 0.9324
1.5121 -17.4211 -1.3397 0.9323
1.7295 -17.4212 -1.3412 0.9322
1.8383 -17.4212 -1.3421 0.9321
2.0565 -17.4213 -1.3439 0.9320
2.1287 -17.1228 -1.3219 0.9331
2.1112 -15.4214 -1.1925 0.9395
2.1307 -14.2501 -1.1039 0.9438
2.1311 -13.6740 -1.0602 0.9460
2.1314 -13.1417 -1.0200 0.9480
2.1321 -12.1898 -0.9481 0.9516
2.1327 -11.3631 -0.8857 0.9547
2.1329 -10.9892 -0.8576 0.9561
2.1332 -10.6383 -0.8312 0.9574
2.1334 -10.3083 -0.8065 0.9586
2.1340 -9.4265 -0.7405 0.9620
2.1344 -8.9146 -0.7023 0.9639
2.1348 -8.2385 -0.6520 0.9664
2.1353 -7.6525 -0.6087 0.9686
2.1357 -6.9822 -0.5594 0.9711
2.0362 -5.9883 -0.4846 0.9749
2.0363 -5.7543 -0.4676 0.9758
2.0364 -5.6433 -0.4596 0.9762
2.0365 -5.5361 -0.4519 0.9766
2.0366 -5.4323 -0.4445 0.9770
2.0366 -5.3319 -0.4373 0.9774
2.0475 -5.2626 -0.4326 0.9776
2.0851 -5.1691 -0.4270 0.9779
2.0852 -5.0785 -0.4206 0.9782
2.0853 -4.9052 -0.4083 0.9788
2.0854 -4.8223 -0.4025 0.9791
2.0854 -4.7417 -0.3968 0.9794
2.0855 -4.5871 -0.3860 0.9800
2.0858 -4.1698 -0.3572 0.9815
2.1376 -4.1445 -0.3573 0.9815
2.1377 -4.0218 -0.3489 0.9819
2.1377 -3.9625 -0.3449 0.9821
2.1378 -3.9046 -0.3410 0.9823
2.1379 -3.6854 -0.3264 0.9831
2.1379 -3.6335 -0.3230 0.9832
2.1381 -3.4364 -0.3101 0.9839
2.1381 -3.3436 -0.3041 0.9842
2.1382 -3.2985 -0.3011 0.9844
2.1382 -3.2109 -0.2955 0.9846
2.1383 -3.1683 -0.2928 0.9848
2.1383 -3.1264 -0.2902 0.9849
2.1383 -3.0853 -0.2876 0.9851
2.1384 -3.0053 -0.2826 0.9853
2.1385 -2.8904 -0.2755 0.9857
2.1385 -2.8534 -0.2732 0.9858
2.1385 -2.8169 -0.2709 0.9859
2.1385 -2.7811 -0.2688 0.9860
2.1386 -2.7458 -0.2666 0.9861
2.1386 -2.6432 -0.2605 0.9865
2.1387 -2.5453 -0.2547 0.9868
2.1387 -2.4515 -0.2492 0.9870
2.1387 -2.4211 -0.2475 0.9871
2.1388 -2.3616 -0.2441 0.9873
2.1388 -2.3325 -0.2424 0.9874
2.1592 -2.3257 -0.2431 0.9873
2.2410 -2.3258 -0.2474 0.9871
2.2972 -2.3258 -0.2504 0.9870
2.4744 -2.3259 -0.2602 0.9865
2.5052 -2.3259 -0.2619 0.9864
2.5365 -2.3259 -0.2637 0.9863
2.6004 -2.3260 -0.2673 0.9861
2.7337 -2.3260 -0.2750 0.9857
2.7682 -2.3261 -0.2770 0.9856
2.8388 -2.3261 -0.2812 0.9854
2.8749 -2.3261 -0.2833 0.9853
2.9488 -2.3261 -0.2877 0.9850
2.9866 -2.3262 -0.2900 0.9849
3.0293 -2.2998 -0.2914 0.9849
3.0346 -2.2744 -0.2905 0.9849
3.0741 -2.2744 -0.2930 0.9848
3.3729 -2.4315 -0.3185 0.9835
3.5085 -2.4316 -0.3270 0.9830
3.5553 -2.4316 -0.3300 0.9829
3.5655 -2.4064 -0.3295 0.9829
3.8026 -2.4317 -0.3458 0.9821
3.8550 -2.4318 -0.3492 0.9819
4.2169 -2.2750 -0.3671 0.9810
4.2802 -2.2750 -0.3713 0.9807
4.3448 -2.2751 -0.3757 0.9805
4.5484 -2.2752 -0.3896 0.9798
4.6196 -2.2752 -0.3945 0.9796
4.6927 -2.2753 -0.3995 0.9793
4.9550 -2.3272 -0.4194 0.9783
5.1188 -2.3273 -0.4308 0.9777
5.2822 -2.2843 -0.4409 0.9772
5.2967 -2.2518 -0.4409 0.9772
5.6216 -2.2273 -0.4633 0.9760
5.8315 -2.2275 -0.4782 0.9753
6.0554 -2.2276 -0.4943 0.9744
6.1731 -2.2276 -0.5028 0.9740
6.7104 -2.3281 -0.5442 0.9719
6.9888 -2.3283 -0.5644 0.9709
7.6128 -2.3286 -0.6099 0.9686
8.1514 -2.3289 -0.6495 0.9666
8.7650 -2.3292 -0.6948 0.9643
8.9890 -2.3293 -0.7114 0.9634
9.2240 -2.3295 -0.7289 0.9626
33.4112 -7.5638 -2.6245 0.8716
33.5061 -7.1508 -2.6248 0.8716
33.5515 -6.9439 -2.6249 0.8716
33.5956 -6.7366 -2.6250 0.8716
33.7589 -5.9048 -2.6256 0.8715
33.7964 -5.6962 -2.6257 0.8715
33.8326 -5.4873 -2.6258 0.8715
33.8675 -5.2782 -2.6259 0.8715
33.9010 -5.0689 -2.6261 0.8715
33.9330 -4.8594 -2.6262 0.8715
33.9640 -4.6496 -2.6263 0.8715
34.0739 -3.8087 -2.6267 0.8715
34.0981 -3.5981 -2.6268 0.8715
34.1423 -3.1763 -2.6270 0.8715
34.1624 -2.9652 -2.6271 0.8715
34.1812 -2.7539 -2.6271 0.8715
34.1986 -2.5426 -2.6272 0.8715
34.2293 -2.1195 -2.6274 0.8715
34.2547 -1.6961 -2.6275 0.8715
34.2653 -1.4843 -2.6276 0.8715
34.2892 -0.8484 -2.6277 0.8714
34.2944 -0.6363 -2.6278 0.8714
34.3009 -0.2121 -2.6279 0.8714
34.3021 -0.0000 -2.6279 0.8714
34.3019 0.2121 -2.6280 0.8714
34.2807 1.2726 -2.6281 0.8714
34.2628 1.6965 -2.6281 0.8714
34.2394 2.1201 -2.6281 0.8714
34.2257 2.3318 -2.6282 0.8714
34.2107 2.5434 -2.6282 0.8714
34.1765 2.9664 -2.6281 0.8714
34.1574 3.1777 -2.6281 0.8714
34.1369 3.3888 -2.6281 0.8714
34.1151 3.5998 -2.6281 0.8714
34.0920 3.8107 -2.6281 0.8714
34.0416 4.2320 -2.6280 0.8714
33.8923 5.2821 -2.6279 0.8714
33.8232 5.7006 -2.6278 0.8714
33.7095 6.3267 -2.6276 0.8715
33.6690 6.5350 -2.6276 0.8715
33.6271 6.7429 -2.6275 0.8715
9.9050 2.0500 -0.7749 0.9602
9.2643 1.9772 -0.7257 0.9627
8.0408 1.9778 -0.6344 0.9673
7.4438 1.9781 -0.5901 0.9696
7.2629 1.9782 -0.5767 0.9703
6.9246 1.9784 -0.5517 0.9715
6.1416 1.8786 -0.4920 0.9746
5.8811 1.8788 -0.4730 0.9755
5.7581 1.8788 -0.4640 0.9760
5.4512 1.8912 -0.4420 0.9771
5.4390 1.9248 -0.4420 0.9771
5.4268 1.9583 -0.4420 0.9771
5.3802 1.9792 -0.4392 0.9773
5.0872 1.9793 -0.4182 0.9783
4.8210 1.9795 -0.3993 0.9793
4.6137 1.9278 -0.3831 0.9801
4.5347 1.9278 -0.3775 0.9804
4.3111 1.9279 -0.3618 0.9812
4.1720 1.9280 -0.3521 0.9817
4.1381 1.9748 -0.3513 0.9818
4.1256 2.0002 -0.3513 0.9818
4.0987 2.0502 -0.3511 0.9818
4.0868 2.0760 -0.3512 0.9818
4.0425 2.0850 -0.3485 0.9819
3.8650 2.0851 -0.3364 0.9825
3.8085 2.0852 -0.3326 0.9827
3.4911 2.0252 -0.3092 0.9839
3.4678 2.0404 -0.3083 0.9840
3.3983 2.0854 -0.3055 0.9841
3.3516 2.0854 -0.3024 0.9843
3.0159 1.9286 -0.2743 0.9857
2.9752 1.9286 -0.2716 0.9859
2.9316 1.9523 -0.2698 0.9860
2.9316 1.9786 -0.2710 0.9859
2.8956 1.9805 -0.2688 0.9860
2.7835 1.9805 -0.2617 0.9864
2.6770 1.9806 -0.2551 0.9867
2.6427 1.9806 -0.2530 0.9868
2.6089 1.9806 -0.2509 0.9869
2.5757 1.9806 -0.2489 0.9870
2.5430 1.9807 -0.2469 0.9872
2.4480 1.9807 -0.2412 0.9874
2.4173 1.9807 -0.2394 0.9875
2.3871 1.9807 -0.2376 0.9876
2.3279 1.9808 -0.2342 0.9878
2.2990 1.9808 -0.2325 0.9879
2.2146 1.9808 -0.2276 0.9882
2.1872 1.9809 -0.2261 0.9882
2.0558 1.9809 -0.2187 0.9886
2.0411 1.9912 -0.2185 0.9886
2.0411 2.0160 -0.2198 0.9886
2.0411 2.0411 -0.2211 0.9885
2.0411 2.0666 -0.2225 0.9884
2.0412 2.0923 -0.2239 0.9883
2.0412 2.1715 -0.2283 0.9881
2.0412 2.1986 -0.2298 0.9880
2.0412 2.2539 -0.2330 0.9879
2.0412 2.2821 -0.2346 0.9878
2.0413 2.4293 -0.2431 0.9874
2.0413 2.4601 -0.2449 0.9873
2.0413 2.4913 -0.2467 0.9872
2.0413 2.5551 -0.2506 0.9870
2.0413 2.6210 -0.2545 0.9868
2.0414 2.6890 -0.2586 0.9865
2.0414 2.8691 -0.2698 0.9860
2.0415 2.9456 -0.2746 0.9857
2.0415 2.9848 -0.2770 0.9856
2.0415 3.0248 -0.2796 0.9855
2.0415 3.1071 -0.2848 0.9852
2.0416 3.1925 -0.2903 0.9849
2.0416 3.3270 -0.2990 0.9845
2.0416 3.3736 -0.3021 0.9843
2.0417 3.5702 -0.3151 0.9836
2.0418 3.7846 -0.3294 0.9829
1.9900 3.8583 -0.3326 0.9827
1.9984 4.0577 -0.3465 0.9820
1.9901 4.1046 -0.3495 0.9819
1.9901 4.1701 -0.3540 0.9816
1.9901 4.3065 -0.3635 0.9811
1.9902 4.4503 -0.3735 0.9806
1.9902 4.5252 -0.3787 0.9804
1.9903 4.6816 -0.3897 0.9798
1.9904 4.9341 -0.4076 0.9789
1.9904 5.1158 -0.4205 0.9782
1.9570 5.3199 -0.4343 0.9775
1.9421 5.3820 -0.4383 0.9773
1.9422 5.7121 -0.4622 0.9761
1.9423 5.8302 -0.4708 0.9756
1.9424 6.0802 -0.4890 0.9747
2.0429 6.9864 -0.5577 0.9712
2.0429 7.1505 -0.5697 0.9706
2.0431 7.6883 -0.6095 0.9686
2.0432 8.0907 -0.6393 0.9671
2.0433 8.3071 -0.6554 0.9663
2.0434 8.5346 -0.6723 0.9654
2.0435 8.7742 -0.6902 0.9645
2.0436 9.0269 -0.7091 0.9636
2.0437 9.5762 -0.7502 0.9615
2.0439 10.1932 -0.7965 0.9592
2.0443 11.2764 -0.8780 0.9551
2.0444 11.6885 -0.9091 0.9535
2.0446 12.1309 -0.9425 0.9518
2.0447 12.6071 -0.9785 0.9501
2.0455 14.9420 -1.1554 0.9413
1.8676 15.0227 -1.1598 0.9411
1.6792 15.0228 -1.1581 0.9412
1.5852 15.0228 -1.1573 0.9412
1.4913 15.0229 -1.1566 0.9412
1.3976 15.0229 -1.1559 0.9413
1.2104 15.0230 -1.1547 0.9413
1.1169 15.0231 -1.1541 0.9414
0.9302 15.0231 -1.1531 0.9414
0.8370 15.0232 -1.1527 0.9414
0.7438 15.0232 -1.1524 0.9414
0.5577 15.0233 -1.1518 0.9415
0.1858 15.0235 -1.1511 0.9415
-0.1858 15.0237 -1.1511 0.9415
-0.2788 15.0237 -1.1512 0.9415
-0.3717 15.0238 -1.1513 0.9415
-0.4647 15.0238 -1.1515 0.9415
-0.7439 15.0240 -1.1524 0.9414
-0.8371 15.0240 -1.1528 0.9414
-0.9303 15.0241 -1.1532 0.9414
-1.2105 15.0242 -1.1548 0.9413
-1.4915 15.0243 -1.1567 0.9412
-1.5854 15.0244 -1.1574 0.9412
-1.6794 15.0245 -1.1582 0.9412
-1.7736 15.0245 -1.1590 0.9411
-1.9623 15.0246 -1.1608 0.9410
-2.3416 15.0248 -1.1650 0.9408
-2.5324 15.0249 -1.1673 0.9407
-2.7239 15.0250 -1.1698 0.9406
-2.8200 15.0250 -1.1712 0.9405
-3.0129 15.0251 -1.1740 0.9404
-3.1096 15.0252 -1.1755 0.9403
-3.4994 15.0254 -1.1819 0.9400
-3.6959 15.0255 -1.1854 0.9398
-3.9929 15.0256 -1.1911 0.9395
-4.1926 15.0257 -1.1951 0.9393
-4.4947 15.0259 -1.2016 0.9390
-4.6818 14.9742 -1.2020 0.9390
-4.8859 14.9743 -1.2067 0.9388
-5.1953 14.9745 -1.2143 0.9384
-5.4037 14.9746 -1.2196 0.9381
-5.6141 14.9746 -1.2252 0.9379
-5.7199 14.9747 -1.2281 0.9377
-5.8263 14.9748 -1.2310 0.9376
-5.9332 14.9748 -1.2340 0.9374
-6.1486 14.9750 -1.2402 0.9371
-6.2572 14.9750 -1.2434 0.9370
-6.4819 14.9890 -1.2511 0.9366
-6.9270 14.9892 -1.2650 0.9359
-7.0155 14.9375 -1.2643 0.9359
-7.1714 15.0273 -1.2756 0.9354
-7.5169 15.0274 -1.2873 0.9348
-7.6335 15.0275 -1.2913 0.9346
-7.7508 15.0275 -1.2954 0.9344
-8.2646 15.0951 -1.3184 0.9333
-8.3863 15.0951 -1.3229 0.9331
-8.5090 15.0952 -1.3275 0.9328
-8.6325 15.0952 -1.3322 0.9326
-8.8202 14.9902 -1.3325 0.9326
-8.9455 14.9902 -1.3374 0.9324
-9.1988 14.9903 -1.3474 0.9319
-9.4562 14.9905 -1.3578 0.9314
-9.5863 14.9905 -1.3632 0.9311
-9.7175 14.9906 -1.3686 0.9308
-9.8497 14.9907 -1.3742 0.9306
-9.9830 14.9907 -1.3798 0.9303
-10.1174 14.9908 -1.3856 0.9300
-10.2530 14.9909 -1.3914 0.9297
-10.3897 14.9910 -1.3973 0.9294
-10.5276 14.9910 -1.4034 0.9291
-10.6666 14.9911 -1.4095 0.9288
-10.9485 14.9912 -1.4222 0.9282
-11.0914 14.9913 -1.4287 0.9279
-11.2356 14.9914 -1.4353 0.9276
-11.3811 14.9915 -1.4420 0.9273
-11.8260 14.9917 -1.4629 0.9263
-12.1299 14.9918 -1.4774 0.9256
-12.2842 14.9919 -1.4849 0.9252
-12.6858 15.0972 -1.5107 0.9239
-13.1715 15.0975 -1.5350 0.9228
-13.3369 15.0976 -1.5433 0.9224
-13.4718 15.0616 -1.5481 0.9221
-13.6317 15.0519 -1.5558 0.9218
-13.8041 15.0541 -1.5648 0.9213
-13.9785 15.0564 -1.5740 0.9209
-14.0603 14.9579 -1.5728 0.9209
-14.2689 14.9929 -1.5857 0.9203
-14.4467 14.9930 -1.5951 0.9199
-14.6267 14.9931 -1.6047 0.9194
-14.9933 14.9933 -1.6244 0.9185
-15.3690 14.9935 -1.6449 0.9175
-15.4224 13.7945 -1.5852 0.9203
-15.4224 13.6238 -1.5765 0.9208
-15.4227 12.9592 -1.5433 0.9224
-15.4228 12.7974 -1.5354 0.9227
-15.4228 12.6372 -1.5276 0.9231
-15.4229 12.4787 -1.5199 0.9235
-15.4783 12.3659 -1.5178 0.9236
-15.6763 12.3660 -1.5297 0.9230
-15.4231 12.0123 -1.4977 0.9246
-15.4232 11.7088 -1.4835 0.9253
-15.4233 11.5592 -1.4766 0.9256
-15.4233 11.4110 -1.4698 0.9259
-15.4234 11.2641 -1.4632 0.9262
-15.4237 10.5490 -1.4316 0.9278
-15.5290 10.2034 -1.4235 0.9282
-15.5290 10.0665 -1.4178 0.9284
-15.4800 9.7649 -1.4022 0.9292
-15.5292 9.6622 -1.4012 0.9293
-15.5292 9.5295 -1.3959 0.9295
-15.5025 9.1216 -1.3780 0.9304
-15.5295 9.0087 -1.3754 0.9305
-15.5295 8.8808 -1.3705 0.9307
-15.3726 8.6654 -1.3519 0.9317
-15.4245 8.5693 -1.3518 0.9317
-15.4245 8.4449 -1.3472 0.9319
-15.4246 8.3214 -1.3427 0.9321
-15.4246 8.1987 -1.3383 0.9323
-15.4247 8.0768 -1.3339 0.9325
-15.4250 7.3612 -1.3094 0.9337
-15.4250 7.2445 -1.3056 0.9339
-15.4251 7.1284 -1.3018 0.9341
-15.4252 6.7841 -1.2910 0.9346
-15.4254 6.4454 -1.2808 0.9351
-15.4254 6.3336 -1.2775 0.9353
-15.4255 6.1118 -1.2712 0.9356
-15.4256 6.0017 -1.2681 0.9358
-15.4257 5.6746 -1.2592 0.9362
-15.4258 5.5666 -1.2564 0.9363
-15.4258 5.4590 -1.2536 0.9365
-15.4259 5.2453 -1.2483 0.9367
-15.4260 5.1391 -1.2457 0.9369
-15.4260 5.0333 -1.2431 0.9370
-15.3744 4.7027 -1.2317 0.9375
-15.3745 4.4956 -1.2272 0.9378
-15.3746 4.1876 -1.2208 0.9381
-15.3748 3.7818 -1.2130 0.9385
-15.3749 3.5807 -1.2094 0.9386
-15.3750 3.3808 -1.2060 0.9388
-15.3750 3.2813 -1.2044 0.9389
-15.4271 2.7968 -1.2012 0.9390
-15.4272 2.6001 -1.1986 0.9392
-15.4272 2.5021 -1.1973 0.9392
-15.4273 2.4043 -1.1962 0.9393
-15.4273 2.3067 -1.1950 0.9393
-15.4274 2.1120 -1.1929 0.9394
-15.4275 1.9179 -1.1910 0.9395
-15.4276 1.8211 -1.1901 0.9396
-15.5254 1.3476 -1.1939 0.9394
-16.3185 1.3148 -1.2542 0.9364
-19.8104 1.3497 -1.5212 0.9234
-28.8543 1.4287 -2.2133 0.8906
-32.2169 0.5977 -2.4686 0.8787
-32.2208 0.1992 -2.4685 0.8787
-15.4289 -0.3817 -1.2977 0.9399
-15.4290 -0.4772 -1.2979 0.9399
-15.4291 -0.6683 -1.2986 0.9399
-15.4292 -0.8596 -1.2994 0.9399
-15.4292 -0.9554 -1.2998 0.9398
-15.4293 -1.0512 -1.3004 0.9398
-15.4294 -1.2431 -1.3016 0.9398
-15.4295 -1.4354 -1.3030 0.9397
-15.4296 -1.6282 -1.3046 0.9396
-15.4296 -1.7247 -1.3055 0.9396
-15.4297 -1.8214 -1.3064 0.9395
-15.3779 -1.9118 -1.3030 0.9397
-15.5350 -2.1267 -1.3184 0.9390
-15.5351 -2.2247 -1.3196 0.9389
-15.5351 -2.3229 -1.3208 0.9389
-15.5352 -2.5197 -1.3233 0.9388
-15.5353 -2.6184 -1.3247 0.9387
-15.5354 -2.9158 -1.3291 0.9385
-15.5355 -3.0154 -1.3307 0.9385
-15.5356 -3.2153 -1.3340 0.9383
-15.5357 -3.3156 -1.3357 0.9382
-15.5357 -3.4162 -1.3375 0.9381
-15.3788 -3.5817 -1.3277 0.9386
-15.4307 -3.6945 -1.3341 0.9383
-15.4308 -3.7956 -1.3362 0.9382
-15.4308 -3.8970 -1.3382 0.9381
-15.4309 -4.1006 -1.3425 0.9379
-15.4310 -4.3057 -1.3471 0.9377
-15.4311 -4.4088 -1.3494 0.9376
-15.4312 -4.5122 -1.3518 0.9375
-15.4313 -4.7201 -1.3569 0.9373
-15.4315 -5.0351 -1.3649 0.9369
-15.4316 -5.3539 -1.3734 0.9365
-15.4317 -5.4611 -1.3764 0.9364
-15.4318 -5.5687 -1.3795 0.9363
-15.4318 -5.6769 -1.3826 0.9361
-15.4320 -5.8946 -1.3890 0.9358
-15.4321 -6.1144 -1.3957 0.9355
-15.4323 -6.4482 -1.4063 0.9351
-15.4324 -6.5607 -1.4100 0.9349
-15.4325 -6.7873 -1.4176 0.9346
-15.4326 -6.9015 -1.4215 0.9344
-15.4326 -7.0164 -1.4255 0.9342
-15.4327 -7.1319 -1.4295 0.9340
-15.5381 -7.5336 -1.4520 0.9330
-15.5382 -7.6526 -1.4564 0.9328
-15.4892 -7.8680 -1.4608 0.9326
-15.5385 -8.1364 -1.4748 0.9320
-15.5386 -8.2593 -1.4796 0.9318
-15.5386 -8.3830 -1.4846 0.9316
-15.5023 -8.4875 -1.4861 0.9315
-15.5389 -8.8862 -1.5051 0.9307
-15.3821 -9.0508 -1.5007 0.9309
-15.4340 -9.2103 -1.5113 0.9304
-15.4346 -10.1413 -1.5529 0.9285
-15.4347 -10.4170 -1.5657 0.9280
-15.4350 -10.8393 -1.5859 0.9271
-16.8952 -12.3390 -1.7591 0.9194
-15.9883 -12.2945 -1.6959 0.9222
-15.4360 -12.4893 -1.6696 0.9234
-15.4363 -12.9707 -1.6953 0.9223
-15.4364 -13.1345 -1.7042 0.9219
-15.4366 -13.3001 -1.7133 0.9215
-15.4368 -13.6365 -1.7319 0.9206
-15.4369 -13.8075 -1.7415 0.9202
-15.4370 -13.9804 -1.7512 0.9198
-15.4016 -14.1227 -1.7570 0.9195
-15.5428 -14.9765 -1.8149 0.9170
-15.5429 -15.1631 -1.8258 0.9165
-15.5432 -15.5432 -1.8483 0.9155
-15.4387 -16.6291 -1.9079 0.9129
-15.4390 -17.0475 -1.9339 0.9118
-15.4391 -17.2610 -1.9472 0.9112
-15.4393 -17.4775 -1.9609 0.9106
-15.4397 -18.1456 -2.0033 0.9088
-15.4402 -18.8436 -2.0484 0.9068
-15.4403 -19.0833 -2.0640 0.9062
-13.2199 -17.4136 -1.8383 0.9160
-13.0510 -17.4137 -1.8298 0.9164
-12.7178 -17.4139 -1.8131 0.9171
-12.5535 -17.4139 -1.8050 0.9174
-12.3906 -17.4140 -1.7971 0.9178
-12.2292 -17.4141 -1.7892 0.9181
-11.9104 -17.4143 -1.7740 0.9188
-11.2887 -17.4146 -1.7450 0.9201
-11.1365 -17.4146 -1.7381 0.9204
-10.9854 -17.4147 -1.7313 0.9207
-10.6867 -17.4149 -1.7180 0.9213
-10.3925 -17.4150 -1.7052 0.9218
-9.6754 -17.4154 -1.6752 0.9231
-9.2570 -17.4156 -1.6584 0.9239
-9.1193 -17.4157 -1.6530 0.9241
-8.8467 -17.4158 -1.6425 0.9246
-8.7116 -17.4159 -1.6374 0.9248
-8.1796 -17.4161 -1.6179 0.9257
-7.9183 -17.4163 -1.6087 0.9261
-7.6598 -17.4164 -1.5998 0.9265
-7.4042 -17.4165 -1.5913 0.9268
-7.2774 -17.4166 -1.5872 0.9270
-7.1512 -17.4166 -1.5831 0.9272
-7.0257 -17.4167 -1.5791 0.9274
-6.9008 -17.4168 -1.5752 0.9276
-6.7765 -17.4168 -1.5714 0.9277
-6.6528 -17.4169 -1.5677 0.9279
-6.4071 -17.4170 -1.5604 0.9282
-6.2852 -17.4171 -1.5569 0.9284
-6.0428 -17.4172 -1.5501 0.9287
-5.8025 -17.4173 -1.5437 0.9290
-5.6831 -17.4174 -1.5405 0.9291
-5.5642 -17.4175 -1.5374 0.9292
-5.4457 -17.4175 -1.5344 0.9294
-5.3277 -17.4176 -1.5315 0.9295
-5.2102 -17.4177 -1.5287 0.9296
-4.9763 -17.4178 -1.5232 0.9299
-4.7442 -17.4179 -1.5179 0.9301
-4.6287 -17.4179 -1.5154 0.9302
-4.3988 -17.4180 -1.5106 0.9304
-4.2844 -17.4181 -1.5082 0.9305
-4.0566 -17.4182 -1.5038 0.9307
-3.8302 -17.4183 -1.4996 0.9309
-3.6049 -17.4185 -1.4956 0.9311
-3.4928 -17.4185 -1.4938 0.9312
-3.3809 -17.4186 -1.4920 0.9313
-3.1579 -17.4187 -1.4885 0.9314
-3.0467 -17.4187 -1.4869 0.9315
-2.9358 -17.4188 -1.4853 0.9315
-2.8252 -17.4189 -1.4838 0.9316
-2.7147 -17.4189 -1.4823 0.9317
-2.4945 -17.4190 -1.4796 0.9318
-2.1655 -17.4192 -1.4759 0.9320
-1.9471 -17.4193 -1.4738 0.9321
-1.7293 -17.4194 -1.4719 0.9321
-1.5120 -17.4195 -1.4702 0.9322
-1.2951 -17.4196 -1.4688 0.9323
-1.1868 -17.4197 -1.4681 0.9323
-0.8625 -17.4199 -1.4665 0.9324
-0.6467 -17.4200 -1.4657 0.9324
-0.5388 -17.4200 -1.4654 0.9324
-0.4310 -17.4201 -1.4652 0.9324
-0.3232 -17.4202 -1.4650 0.9325
0.0000 -17.4203 -1.4648 0.9325
0.1077 -17.4204 -1.4648 0.9325
0.2155 -17.4204 -1.4649 0.9325
0.3232 -17.4205 -1.4650 0.9324
0.4310 -17.4205 -1.4652 0.9324
0.5388 -17.4206 -1.4655 0.9324
0.7546 -17.4207 -1.4662 0.9324
0.8626 -17.4207 -1.4666 0.9324
1.0787 -17.4209 -1.4676 0.9323
