ply
format ascii 1.0
element vertex 1547
property float32 x
property float32 y
property float32 z
property float32 I
end_header
13.8406 -22.8705 0.3377 0.8986
14.4987 -23.3024 0.3467 0.8960
14.8559 -22.9173 0.3450 0.8965
15.0550 -22.9129 0.3464 0.8961
15.2636 -22.9202 0.3479 0.8957
16.1910 -23.3615 0.3591 0.8925
16.4112 -23.3692 0.3608 0.8920
16.6335 -23.3770 0.3625 0.8916
17.3131 -23.4007 0.3677 0.8901
21.2301 -27.9648 0.4436 0.8690
21.3358 -27.0471 0.4352 0.8713
21.9148 -26.0806 0.4304 0.8726
22.1999 -26.0905 0.4328 0.8719
22.4882 -26.1006 0.4353 0.8713
22.7798 -26.1108 0.4378 0.8706
23.3733 -26.1315 0.4429 0.8691
24.2906 -26.1636 0.4510 0.8669
41.3515 -38.8701 0.7170 0.7969
41.4656 -38.4971 0.7148 0.7974
41.5789 -38.1263 0.7127 0.7980
41.6916 -37.7577 0.7106 0.7985
25.6761 -22.9659 0.4352 0.8713
25.1154 -21.9113 0.4211 0.8752
24.8484 -21.4092 0.4144 0.8770
24.3392 -20.4515 0.4016 0.8806
24.1336 -20.0254 0.3962 0.8821
24.8817 -19.6276 0.4004 0.8809
25.4536 -19.3236 0.4037 0.8800
25.6463 -19.2211 0.4049 0.8797
25.8402 -19.1180 0.4061 0.8793
26.0353 -19.0143 0.4073 0.8790
26.4289 -18.8050 0.4098 0.8783
27.0286 -18.4861 0.4137 0.8772
27.2311 -18.3785 0.4150 0.8768
28.2641 -17.8292 0.4222 0.8749
28.4750 -17.7171 0.4237 0.8745
29.1171 -17.3757 0.4284 0.8732
31.6549 -18.1023 0.4607 0.8643
31.8912 -17.9767 0.4625 0.8638
32.1294 -17.8500 0.4643 0.8633
32.3695 -17.7223 0.4662 0.8628
32.6116 -17.5936 0.4681 0.8622
32.8556 -17.4638 0.4701 0.8617
33.1018 -17.3330 0.4721 0.8612
33.6004 -17.0679 0.4761 0.8601
33.8529 -16.9336 0.4782 0.8595
33.9844 -16.7374 0.4786 0.8594
33.7979 -16.3867 0.4745 0.8605
33.2568 -15.3689 0.4628 0.8637
33.3113 -15.1449 0.4623 0.8638
33.5646 -15.0103 0.4645 0.8632
33.8203 -14.8743 0.4668 0.8626
34.5383 -14.1812 0.4717 0.8613
35.1684 -13.6832 0.4767 0.8599
36.2801 -13.0921 0.4873 0.8570
37.5386 -13.0237 0.5020 0.8530
37.6921 -12.8164 0.5030 0.8528
37.9921 -12.6568 0.5059 0.8520
38.6030 -12.3321 0.5120 0.8503
39.2288 -11.9993 0.5183 0.8487
39.5475 -11.8299 0.5215 0.8478
49.6309 -13.8484 0.6510 0.8137
49.6423 -13.5212 0.6500 0.8140
49.8907 -12.9282 0.6511 0.8137
68.0648 -13.6483 0.8770 0.7575
39.3718 -3.1721 0.4990 0.8538
50.0503 -3.0992 0.6335 0.8182
50.2393 -2.7991 0.6357 0.8177
50.2610 -2.1771 0.6356 0.8177
50.2719 -1.8662 0.6355 0.8177
50.2936 -1.2443 0.6356 0.8177
50.3153 -0.6223 0.6357 0.8177
50.3262 -0.3112 0.6358 0.8176
50.2771 0.0000 0.6352 0.8178
49.8321 0.3082 0.6296 0.8193
50.4461 3.1237 0.6385 0.8169
50.4681 3.7522 0.6393 0.8167
50.4790 4.0671 0.6398 0.8166
50.4901 4.3824 0.6403 0.8165
50.5011 4.6982 0.6408 0.8164
50.5121 5.0145 0.6413 0.8162
50.5232 5.3313 0.6418 0.8161
68.8554 8.9928 0.8773 0.7575
51.2729 7.9909 0.6556 0.8125
50.4338 9.1432 0.6475 0.8146
55.5457 14.7608 0.7261 0.7946
54.3469 14.8027 0.7116 0.7983
52.0872 14.8816 0.6844 0.8052
51.5857 15.4309 0.6802 0.8062
51.5980 15.7829 0.6817 0.8059
51.6227 16.4914 0.6846 0.8051
51.6477 17.2062 0.6877 0.8043
51.6603 17.5660 0.6893 0.8039
51.6729 17.9275 0.6910 0.8035
51.7370 19.7621 0.6997 0.8013
47.4727 18.8094 0.6451 0.8152
52.1554 21.4148 0.7123 0.7981
51.8567 23.1906 0.7177 0.7967
51.8704 23.5828 0.7199 0.7962
51.8980 24.3743 0.7244 0.7950
51.9120 24.7739 0.7267 0.7945
51.9260 25.1760 0.7290 0.7939
51.9544 25.9883 0.7339 0.7926
51.9976 27.2274 0.7415 0.7907
57.9473 33.6154 0.8463 0.7649
52.0775 30.6422 0.7633 0.7853
51.3885 30.6663 0.7560 0.7871
51.1964 30.9826 0.7560 0.7871
51.2119 31.4263 0.7591 0.7863
51.2275 31.8736 0.7622 0.7856
51.2433 32.3247 0.7654 0.7848
52.2456 34.3282 0.7898 0.7787
52.2790 35.2835 0.7968 0.7770
52.2959 35.7676 0.8004 0.7761
52.3129 36.2562 0.8041 0.7752
52.3651 37.7494 0.8155 0.7724
52.4633 40.3425 0.8361 0.7674
15.0837 12.0507 0.2439 0.9257
14.4228 13.5574 0.2501 0.9239
14.2189 13.5323 0.2480 0.9245
13.8546 13.5161 0.2445 0.9255
13.6901 13.5219 0.2431 0.9259
13.5275 13.5275 0.2417 0.9263
13.2079 13.5387 0.2390 0.9271
12.8374 13.6569 0.2368 0.9278
12.6842 13.6622 0.2355 0.9281
12.4791 13.6092 0.2333 0.9288
12.2342 13.6779 0.2318 0.9292
11.9419 13.6881 0.2295 0.9299
11.7979 13.6931 0.2283 0.9302
11.6554 13.6981 0.2272 0.9306
11.0161 13.6152 0.2213 0.9323
10.6152 13.6292 0.2182 0.9332
10.4839 13.6338 0.2173 0.9335
10.2249 13.6429 0.2154 0.9341
10.0971 13.6473 0.2145 0.9343
9.9703 13.6518 0.2136 0.9346
9.4735 13.6691 0.2101 0.9356
9.1970 13.6269 0.2077 0.9364
9.1797 13.7846 0.2092 0.9359
9.0600 13.7888 0.2084 0.9361
8.9411 13.7929 0.2077 0.9364
8.6964 13.7862 0.2059 0.9369
8.5895 13.8052 0.2054 0.9370
8.4741 13.8092 0.2047 0.9372
8.3594 13.8132 0.2040 0.9375
8.2454 13.8172 0.2033 0.9377
8.0976 13.7622 0.2017 0.9381
8.0200 13.8251 0.2019 0.9381
7.7974 13.8329 0.2006 0.9385
7.5212 13.7373 0.1979 0.9393
7.1763 13.3021 0.1909 0.9413
7.0724 13.3057 0.1904 0.9415
6.8664 13.3129 0.1892 0.9418
6.7643 13.3164 0.1887 0.9420
6.3617 13.3305 0.1866 0.9426
6.2624 13.3340 0.1861 0.9428
5.7736 13.3510 0.1838 0.9435
5.6772 13.3544 0.1833 0.9436
5.3910 13.3644 0.1821 0.9440
5.2965 13.3677 0.1817 0.9441
5.2023 13.3710 0.1813 0.9442
5.1086 13.3743 0.1809 0.9443
5.0153 13.3775 0.1805 0.9445
4.9223 13.3808 0.1801 0.9446
4.8297 13.3840 0.1798 0.9447
4.7376 13.3872 0.1794 0.9448
4.5542 13.3936 0.1787 0.9450
4.4631 13.3968 0.1784 0.9451
4.1915 13.4063 0.1775 0.9454
4.1017 13.4094 0.1772 0.9454
3.9228 13.4157 0.1766 0.9456
3.8338 13.4188 0.1763 0.9457
3.6566 13.4250 0.1758 0.9459
3.4804 13.4311 0.1753 0.9460
3.3052 13.4372 0.1748 0.9461
3.2179 13.4403 0.1746 0.9462
3.1309 13.4433 0.1744 0.9463
3.0440 13.4463 0.1742 0.9463
2.9574 13.4494 0.1740 0.9464
2.7847 13.4554 0.1736 0.9465
2.6987 13.4584 0.1734 0.9466
2.6128 13.4614 0.1732 0.9466
2.5271 13.4644 0.1731 0.9467
2.4415 13.4674 0.1729 0.9467
2.3561 13.4704 0.1728 0.9468
2.2708 13.4733 0.1726 0.9468
2.1857 13.4763 0.1725 0.9469
2.1007 13.4793 0.1723 0.9469
1.8465 13.4882 0.1720 0.9470
1.6776 13.4941 0.1718 0.9471
1.3408 13.5058 0.1715 0.9472
1.2567 13.5088 0.1714 0.9472
1.1728 13.5117 0.1713 0.9472
1.0050 13.5176 0.1712 0.9472
0.9212 13.5205 0.1712 0.9472
0.8374 13.5234 0.1712 0.9472
0.7537 13.5263 0.1712 0.9472
0.6699 13.5293 0.1711 0.9473
0.5024 13.5351 0.1711 0.9473
0.4187 13.5380 0.1711 0.9473
0.3351 13.5409 0.1711 0.9473
0.2513 13.5439 0.1711 0.9473
0.0838 13.5497 0.1712 0.9472
-0.0000 13.5526 0.1712 0.9472
-0.0838 13.5556 0.1713 0.9472
-0.2516 13.5614 0.1714 0.9472
-0.3356 13.5644 0.1714 0.9472
-0.4197 13.5673 0.1715 0.9471
-0.5038 13.5702 0.1716 0.9471
-0.5879 13.5732 0.1716 0.9471
-0.7566 13.5791 0.1718 0.9470
-0.8410 13.5820 0.1719 0.9470
-1.2649 13.5968 0.1725 0.9468
-1.4354 13.6028 0.1728 0.9468
-1.5209 13.6058 0.1730 0.9467
-1.6064 13.6088 0.1731 0.9467
-1.7782 13.6147 0.1735 0.9466
-2.2106 13.6299 0.1744 0.9463
-2.5604 13.6421 0.1754 0.9460
-2.6485 13.6452 0.1756 0.9459
-2.7367 13.6482 0.1759 0.9458
-2.8253 13.6513 0.1761 0.9458
-2.9141 13.6544 0.1764 0.9457
-3.0032 13.6575 0.1767 0.9456
-3.0926 13.6607 0.1769 0.9455
-3.1822 13.6638 0.1772 0.9454
-3.2722 13.6669 0.1775 0.9453
-3.4531 13.6733 0.1782 0.9451
-3.6353 13.6796 0.1788 0.9450
-3.9111 13.6892 0.1799 0.9446
-4.0968 13.6957 0.1806 0.9444
-4.2841 13.7023 0.1814 0.9442
-4.3784 13.7055 0.1818 0.9441
-4.4730 13.7088 0.1822 0.9439
-4.6637 13.7155 0.1830 0.9437
-4.8561 13.7222 0.1839 0.9434
-4.9530 13.7256 0.1843 0.9433
-5.0504 13.7290 0.1848 0.9432
-5.1483 13.7324 0.1853 0.9430
-5.3456 13.7393 0.1863 0.9427
-5.4451 13.7428 0.1868 0.9426
-5.7467 13.7533 0.1883 0.9421
-5.8484 13.7569 0.1889 0.9420
-6.1570 13.7677 0.1905 0.9415
-6.6841 13.7861 0.1936 0.9406
-6.7915 13.7898 0.1942 0.9404
-7.0086 13.7974 0.1955 0.9400
-7.1183 13.8012 0.1962 0.9398
-7.2287 13.8051 0.1969 0.9396
-7.3399 13.8090 0.1976 0.9394
-7.5647 13.8168 0.1990 0.9389
-7.7929 13.8248 0.2005 0.9385
-8.2597 13.8411 0.2036 0.9376
-8.3787 13.8453 0.2045 0.9373
-8.6197 13.8537 0.2061 0.9368
-8.8647 13.8622 0.2079 0.9363
-8.9888 13.8666 0.2088 0.9360
-9.2402 13.8753 0.2106 0.9355
-10.8662 15.8875 0.2432 0.9259
-10.8867 15.3004 0.2372 0.9276
-10.8933 15.1110 0.2353 0.9282
-11.1559 15.0785 0.2370 0.9277
-11.3047 15.0837 0.2381 0.9274
-11.7604 15.0996 0.2418 0.9263
-11.8733 15.0517 0.2422 0.9262
-12.3180 15.2243 0.2474 0.9247
-12.8068 15.2414 0.2515 0.9235
-13.4467 15.2219 0.2566 0.9220
-13.7373 15.1687 0.2585 0.9214
-13.9147 15.1748 0.2601 0.9209
-14.4602 15.1939 0.2650 0.9195
-14.6466 15.2004 0.2667 0.9190
-14.8354 15.2070 0.2684 0.9185
-15.2204 15.2204 0.2719 0.9175
-15.5607 15.1805 0.2746 0.9167
-15.8570 15.2793 0.2782 0.9157
-16.2758 15.2992 0.2822 0.9145
-16.7069 15.3196 0.2864 0.9133
-17.1509 15.3406 0.2907 0.9121
-18.0021 15.3176 0.2986 0.9098
-18.5268 15.3731 0.3041 0.9082
-8.4227 6.9015 0.1376 0.9574
-8.4907 6.7834 0.1373 0.9575
-8.5663 6.7574 0.1378 0.9573
-56.0482 41.4675 0.8808 0.7566
-56.0849 40.4309 0.8735 0.7584
-49.5882 34.8237 0.7655 0.7847
-49.6037 34.3786 0.7625 0.7855
-49.6191 33.9369 0.7595 0.7863
-49.6345 33.4987 0.7565 0.7870
-49.6647 32.6324 0.7508 0.7884
-49.6797 32.2042 0.7480 0.7891
-49.7239 30.9380 0.7399 0.7911
-49.7528 30.1090 0.7347 0.7924
-49.7671 29.6987 0.7322 0.7931
-49.8567 29.3356 0.7308 0.7934
-50.0366 28.2051 0.7256 0.7947
-49.8373 27.6880 0.7203 0.7961
-49.8648 26.9016 0.7158 0.7972
-49.8784 26.5120 0.7136 0.7977
-49.8919 26.1248 0.7115 0.7983
-49.9452 24.5982 0.7034 0.8003
-49.9583 24.2220 0.7014 0.8008
-49.9714 23.8478 0.6995 0.8013
-50.0102 22.7370 0.6940 0.8027
-50.1980 22.0774 0.6928 0.8030
-50.9505 21.6603 0.6994 0.8013
-52.9209 21.7291 0.7227 0.7954
-56.1364 21.8414 0.7610 0.7859
-56.6774 21.6492 0.7665 0.7845
-56.7050 20.8598 0.7633 0.7853
-56.7187 20.4675 0.7618 0.7857
-56.7459 19.6876 0.7588 0.7864
-56.7594 19.2999 0.7574 0.7868
-56.7729 18.9136 0.7560 0.7871
-41.5964 13.5724 0.5528 0.8394
-56.8131 17.7630 0.7520 0.7881
-56.8264 17.3821 0.7508 0.7884
-56.8397 17.0025 0.7495 0.7887
-56.8529 16.6241 0.7483 0.7890
-56.8792 15.8708 0.7460 0.7896
-57.1926 15.1984 0.7476 0.7892
-57.9086 15.0059 0.7558 0.7872
-58.3540 14.7368 0.7604 0.7860
-58.6004 14.4141 0.7624 0.7855
-59.7377 14.3027 0.7760 0.7821
-61.7078 14.3715 0.8005 0.7761
-63.8062 14.4448 0.8265 0.7697
-66.0780 14.5301 0.8548 0.7629
-65.0178 -21.6603 0.3569 0.7602
-56.9552 -19.7602 0.3140 0.7857
-55.9380 -19.7957 0.3090 0.7887
-54.9524 -19.8301 0.3043 0.7916
-50.2450 -18.8370 0.2795 0.8068
-52.1694 -19.9273 0.2909 0.7998
-51.2955 -19.9578 0.2867 0.8024
-48.8761 -20.0682 0.2752 0.8095
-48.9139 -21.1525 0.2776 0.8080
-48.9395 -21.8860 0.2792 0.8070
-48.9524 -22.2561 0.2801 0.8065
-48.9785 -23.0031 0.2818 0.8054
-48.7238 -23.2524 0.2812 0.8058
-47.3125 -23.3016 0.2747 0.8098
-45.9649 -23.3487 0.2685 0.8137
-44.1704 -23.4780 0.2605 0.8187
-44.1829 -23.8362 0.2615 0.8181
-44.1955 -24.1971 0.2624 0.8175
-44.2082 -24.5606 0.2634 0.8169
-44.2209 -24.9268 0.2644 0.8162
-44.2599 -26.0424 0.2675 0.8143
-44.2731 -26.4201 0.2685 0.8136
-44.2864 -26.8008 0.2696 0.8130
-44.2998 -27.1846 0.2707 0.8123
-44.3269 -27.9618 0.2730 0.8109
-44.3407 -28.3553 0.2741 0.8102
-44.3545 -28.7522 0.2753 0.8094
-44.3685 -29.1525 0.2765 0.8087
-44.4112 -30.3749 0.2802 0.8064
-44.4257 -30.7898 0.2815 0.8056
-44.4403 -31.2085 0.2828 0.8048
-44.4550 -31.6312 0.2842 0.8039
-44.4850 -32.4886 0.2869 0.8022
-48.6851 -36.9603 0.3184 0.7831
-48.7021 -37.4502 0.3200 0.7821
-48.7194 -37.9452 0.3216 0.7811
-48.7353 -38.4442 0.3233 0.7801
-48.7708 -39.4605 0.3267 0.7781
-48.7888 -39.9769 0.3285 0.7770
-48.8071 -40.4989 0.3303 0.7759
-48.8441 -41.5604 0.3340 0.7737
-20.1354 -25.8526 0.1707 0.8772
-19.8865 -25.8613 0.1699 0.8777
-19.1526 -25.8869 0.1677 0.8791
-17.5100 -25.9443 0.1630 0.8823
-17.2828 -25.9522 0.1624 0.8827
-16.6112 -25.9757 0.1606 0.8840
-16.3905 -25.9834 0.1600 0.8844
-16.1716 -25.9910 0.1594 0.8848
-15.7382 -26.0062 0.1583 0.8855
-15.5237 -26.0137 0.1578 0.8859
-15.3108 -26.0211 0.1572 0.8862
-15.0992 -26.0285 0.1567 0.8866
-14.8890 -26.0358 0.1562 0.8869
-14.6802 -26.0431 0.1557 0.8873
-14.2866 -26.0941 0.1549 0.8878
-14.3011 -26.5084 0.1569 0.8865
-14.3311 -27.3689 0.1609 0.8838
-14.3467 -27.8160 0.1630 0.8823
-14.1698 -27.8950 0.1630 0.8824
-13.7457 -27.9098 0.1620 0.8830
-13.5355 -27.9171 0.1616 0.8833
-13.1184 -27.9317 0.1607 0.8839
-12.9115 -27.9389 0.1603 0.8842
-12.7057 -27.9461 0.1599 0.8844
-12.0944 -27.9675 0.1587 0.8853
-11.8926 -27.9745 0.1583 0.8855
-10.1935 -26.1992 0.1464 0.8936
-10.0098 -26.2056 0.1461 0.8939
-9.6448 -26.2183 0.1455 0.8943
-9.4635 -26.2247 0.1452 0.8945
-9.2828 -26.2311 0.1449 0.8947
-9.1029 -26.2375 0.1446 0.8949
-8.9237 -26.2439 0.1444 0.8950
-8.7451 -26.2502 0.1441 0.8952
-8.5672 -26.2566 0.1438 0.8954
-8.2132 -26.2690 0.1433 0.8958
-8.0371 -26.2751 0.1431 0.8959
-7.3383 -26.2995 0.1422 0.8965
-6.6478 -26.3236 0.1414 0.8971
-6.4764 -26.3296 0.1412 0.8972
-6.3054 -26.3356 0.1410 0.8973
-6.1349 -26.3415 0.1409 0.8975
-5.9647 -26.3475 0.1407 0.8976
-5.7950 -26.3534 0.1405 0.8977
-5.6256 -26.3593 0.1404 0.8978
-5.1197 -26.3770 0.1399 0.8981
-4.7840 -26.3887 0.1397 0.8983
-4.6167 -26.3946 0.1396 0.8984
-4.1163 -26.4120 0.1392 0.8986
-3.7840 -26.4236 0.1390 0.8987
-3.6182 -26.4294 0.1389 0.8988
-3.4526 -26.4352 0.1389 0.8988
-3.2871 -26.4410 0.1388 0.8989
-2.6271 -26.4641 0.1385 0.8991
-2.4625 -26.4698 0.1385 0.8991
-2.5075 -28.8898 0.1510 0.8905
-2.4283 -30.1391 0.1575 0.8861
-1.8674 -30.1587 0.1574 0.8862
-1.4939 -30.1717 0.1573 0.8862
0.7440 -24.0526 0.1253 0.9082
0.8931 -24.0579 0.1254 0.9082
1.0495 -24.2292 0.1263 0.9075
1.2000 -24.2345 0.1264 0.9075
1.3506 -24.2397 0.1264 0.9075
1.8033 -24.2555 0.1267 0.9073
2.2580 -24.2714 0.1270 0.9071
2.5623 -24.2821 0.1272 0.9069
2.8676 -24.2927 0.1274 0.9068
3.1742 -24.3034 0.1277 0.9066
3.3279 -24.3088 0.1278 0.9065
3.6363 -24.3196 0.1281 0.9063
3.7910 -24.3249 0.1282 0.9062
4.1017 -24.3358 0.1285 0.9060
3.8114 -21.0236 0.1113 0.9181
5.0434 -24.3687 0.1296 0.9053
5.2019 -24.3742 0.1298 0.9051
5.4826 -24.2181 0.1293 0.9054
5.6416 -24.2237 0.1295 0.9053
5.8481 -23.7751 0.1275 0.9067
7.8587 -31.1180 0.1672 0.8795
7.8702 -30.3712 0.1634 0.8821
7.8935 -29.7035 0.1601 0.8843
7.9158 -29.0625 0.1569 0.8865
7.9972 -26.7346 0.1453 0.8944
8.0674 -24.7246 0.1355 0.9012
8.0835 -24.2641 0.1332 0.9028
8.0990 -23.8186 0.1310 0.9043
8.1141 -23.3873 0.1289 0.9057
8.1682 -23.0813 0.1275 0.9067
8.4950 -23.0927 0.1282 0.9063
8.6597 -23.0984 0.1285 0.9060
9.4961 -23.1277 0.1302 0.9048
9.6662 -23.1336 0.1306 0.9046
10.3563 -23.1577 0.1321 0.9035
10.8849 -23.1762 0.1334 0.9026
11.6056 -23.2013 0.1351 0.9014
11.9733 -23.2142 0.1360 0.9008
12.3460 -23.2272 0.1370 0.9001
12.5344 -23.2338 0.1375 0.8998
13.4975 -23.2674 0.1401 0.8980
13.8932 -23.2812 0.1412 0.8972
14.0934 -23.2882 0.1418 0.8968
14.2952 -23.2953 0.1424 0.8964
14.4987 -23.3024 0.1429 0.8960
14.9108 -23.3168 0.1441 0.8952
15.1196 -23.3241 0.1448 0.8948
15.5424 -23.3388 0.1460 0.8939
15.7567 -23.3463 0.1467 0.8934
15.9728 -23.3539 0.1474 0.8930
16.4112 -23.3692 0.1487 0.8921
16.8578 -23.3848 0.1501 0.8911
17.0844 -23.3927 0.1509 0.8906
17.3131 -23.4007 0.1516 0.8901
20.9514 -27.9551 0.1820 0.8696
21.3242 -27.3790 0.1807 0.8704
21.3358 -27.0471 0.1794 0.8713
21.3472 -26.7201 0.1781 0.8721
21.3585 -26.3978 0.1769 0.8730
21.9148 -26.0806 0.1774 0.8726
22.1999 -26.0905 0.1784 0.8719
22.4882 -26.1006 0.1794 0.8713
23.0749 -26.1211 0.1815 0.8699
23.9811 -26.1527 0.1848 0.8677
24.2906 -26.1636 0.1859 0.8669
24.6039 -26.1745 0.1871 0.8662
41.3515 -38.8701 0.2956 0.7969
41.4656 -38.4971 0.2947 0.7975
41.5789 -38.1263 0.2938 0.7980
41.6916 -37.7577 0.2930 0.7985
25.6761 -22.9659 0.1794 0.8713
25.3912 -22.4299 0.1765 0.8733
24.3192 -19.9267 0.1638 0.8818
24.5057 -19.8276 0.1642 0.8815
24.6932 -19.7279 0.1646 0.8812
24.8817 -19.6276 0.1651 0.8809
25.0713 -19.5269 0.1655 0.8806
22.2766 -17.1300 0.1464 0.8937
25.4536 -19.3236 0.1664 0.8800
25.8402 -19.1180 0.1674 0.8793
26.0353 -19.0143 0.1679 0.8790
26.2315 -18.9100 0.1684 0.8787
26.6276 -18.6994 0.1695 0.8780
26.8274 -18.5931 0.1700 0.8776
27.0286 -18.4862 0.1706 0.8772
27.2311 -18.3785 0.1711 0.8769
27.6401 -18.1610 0.1723 0.8761
27.8466 -18.0512 0.1728 0.8757
28.0546 -17.9406 0.1734 0.8753
28.6875 -17.6041 0.1753 0.8740
28.9015 -17.4903 0.1759 0.8736
29.3343 -17.2602 0.1773 0.8727
29.5532 -17.1438 0.1779 0.8723
31.6549 -18.1023 0.1899 0.8643
31.8912 -17.9767 0.1907 0.8638
32.1294 -17.8500 0.1914 0.8633
32.3695 -17.7223 0.1922 0.8628
32.6116 -17.5936 0.1930 0.8622
32.8556 -17.4638 0.1938 0.8617
33.6004 -17.0679 0.1963 0.8601
33.4342 -15.7026 0.1924 0.8626
33.2568 -15.3690 0.1908 0.8637
33.3113 -15.1449 0.1906 0.8638
33.8203 -14.8743 0.1924 0.8626
34.4714 -14.6546 0.1951 0.8609
34.6705 -14.4867 0.1957 0.8604
34.6302 -13.9693 0.1945 0.8613
35.1684 -13.6832 0.1965 0.8599
35.9976 -13.2423 0.1998 0.8578
36.2801 -13.0921 0.2009 0.8570
37.2443 -13.1802 0.2058 0.8538
37.6921 -12.8164 0.2074 0.8528
37.9921 -12.6568 0.2086 0.8520
38.6030 -12.3321 0.2111 0.8504
38.9140 -12.1667 0.2124 0.8495
39.8702 -11.6583 0.2164 0.8469
49.6194 -14.1765 0.2688 0.8135
49.6423 -13.5212 0.2680 0.8140
68.0191 -14.9569 0.3627 0.7569
68.0344 -14.5198 0.3623 0.7571
68.0496 -14.0836 0.3619 0.7573
50.1469 -3.7283 0.2619 0.8178
50.2284 -3.1102 0.2621 0.8177
50.2393 -2.7991 0.2621 0.8177
50.2501 -2.4881 0.2620 0.8177
50.2827 -1.5553 0.2620 0.8177
50.3262 -0.3112 0.2621 0.8177
50.3479 0.3114 0.2622 0.8176
50.2988 0.6222 0.2620 0.8177
55.5946 1.7196 0.2897 0.8005
50.4242 2.4967 0.2629 0.8171
50.4681 3.7522 0.2636 0.8167
50.5121 5.0145 0.2644 0.8162
50.5232 5.3313 0.2646 0.8161
50.5343 5.6487 0.2648 0.8160
50.5454 5.9666 0.2651 0.8158
50.5565 6.2852 0.2653 0.8156
50.5075 6.5965 0.2653 0.8157
50.0607 6.8533 0.2632 0.8170
51.2610 7.9890 0.2702 0.8126
50.3999 8.1744 0.2659 0.8153
50.4451 9.4678 0.2673 0.8144
53.1950 14.8429 0.2876 0.8018
52.0872 14.8816 0.2821 0.8052
51.3480 15.0145 0.2786 0.8074
51.4585 17.4974 0.2831 0.8046
51.4748 17.8589 0.2838 0.8042
51.4913 18.2221 0.2845 0.8037
51.5586 19.6940 0.2875 0.8019
47.4711 18.8087 0.2659 0.8153
51.6824 22.3498 0.2933 0.7983
51.7008 22.7383 0.2942 0.7978
51.7569 23.9185 0.2970 0.7961
51.7760 24.3170 0.2979 0.7955
51.8344 25.5287 0.3009 0.7936
51.8543 25.9382 0.3020 0.7930
51.8744 26.3506 0.3030 0.7924
51.9151 27.1842 0.3052 0.7910
57.9473 33.6154 0.3489 0.7649
52.0732 30.6397 0.3146 0.7853
51.1964 30.9826 0.3117 0.7871
51.2119 31.4263 0.3129 0.7864
51.2275 31.8736 0.3142 0.7856
52.2128 33.8462 0.3241 0.7797
52.1103 34.7026 0.3261 0.7785
52.1352 35.1865 0.3276 0.7776
52.1605 35.6751 0.3291 0.7766
52.2383 37.1692 0.3339 0.7738
52.2649 37.6771 0.3356 0.7728
52.2918 38.1902 0.3373 0.7718
52.3190 38.7085 0.3390 0.7708
52.3466 39.2321 0.3407 0.7698
52.4633 40.3425 0.3447 0.7674
52.4740 40.8696 0.3464 0.7664
14.9806 12.1208 0.1004 0.9258
52.5701 43.6214 0.3558 0.7609
52.6304 45.3461 0.3618 0.7574
52.6509 45.9342 0.3639 0.7562
14.6035 13.5581 0.1038 0.9234
14.2189 13.5323 0.1022 0.9245
14.0211 13.5103 0.1014 0.9251
13.8546 13.5161 0.1008 0.9255
13.6901 13.5219 0.1002 0.9259
13.3668 13.5331 0.0991 0.9267
13.2079 13.5387 0.0985 0.9271
12.9663 13.6242 0.0980 0.9275
12.2342 13.6779 0.0956 0.9292
11.9419 13.6881 0.0946 0.9299
11.1522 13.6105 0.0916 0.9320
11.0161 13.6152 0.0912 0.9323
7.5571 9.5800 0.0636 0.9524
10.6152 13.6292 0.0900 0.9332
10.4839 13.6338 0.0896 0.9335
10.3538 13.6384 0.0892 0.9338
10.2249 13.6429 0.0888 0.9341
10.0970 13.6473 0.0884 0.9343
9.9703 13.6518 0.0880 0.9346
9.4735 13.6691 0.0866 0.9356
9.0600 13.7888 0.0859 0.9361
8.3594 13.8132 0.0841 0.9375
8.0200 13.8251 0.0832 0.9381
7.7974 13.8329 0.0827 0.9385
7.0724 13.3057 0.0785 0.9415
6.8664 13.3129 0.0780 0.9418
6.7643 13.3164 0.0778 0.9420
6.5619 13.3235 0.0774 0.9423
6.3617 13.3305 0.0769 0.9426
6.1636 13.3374 0.0765 0.9429
5.8704 13.3477 0.0759 0.9433
5.6772 13.3544 0.0756 0.9436
5.3910 13.3644 0.0751 0.9440
5.2023 13.3710 0.0747 0.9442
5.1086 13.3743 0.0746 0.9443
5.0153 13.3775 0.0744 0.9445
4.9223 13.3808 0.0743 0.9446
4.7376 13.3872 0.0740 0.9448
4.5542 13.3936 0.0737 0.9450
4.4631 13.3968 0.0735 0.9451
4.3722 13.4000 0.0734 0.9452
4.0121 13.4126 0.0729 0.9455
3.4804 13.4311 0.0723 0.9460
3.2179 13.4403 0.0720 0.9462
3.1309 13.4433 0.0719 0.9463
2.9574 13.4494 0.0717 0.9464
2.7847 13.4554 0.0716 0.9465
2.6987 13.4584 0.0715 0.9466
2.6128 13.4614 0.0714 0.9466
2.5271 13.4644 0.0714 0.9467
2.4415 13.4674 0.0713 0.9467
2.3561 13.4704 0.0712 0.9468
2.2708 13.4733 0.0712 0.9468
2.1007 13.4793 0.0711 0.9469
2.0159 13.4822 0.0710 0.9469
1.9311 13.4852 0.0710 0.9470
1.5932 13.4970 0.0708 0.9471
1.4248 13.5029 0.0707 0.9471
1.2567 13.5088 0.0707 0.9472
1.0050 13.5176 0.0706 0.9472
0.8374 13.5234 0.0706 0.9472
0.7537 13.5263 0.0706 0.9473
0.6699 13.5293 0.0706 0.9473
0.5862 13.5322 0.0705 0.9473
0.2513 13.5439 0.0706 0.9473
0.1676 13.5468 0.0706 0.9473
-0.0000 13.5526 0.0706 0.9472
-0.0838 13.5556 0.0706 0.9472
-0.1677 13.5585 0.0706 0.9472
-0.2516 13.5614 0.0706 0.9472
-0.4197 13.5673 0.0707 0.9472
-0.5038 13.5702 0.0707 0.9471
-0.6722 13.5761 0.0708 0.9471
-0.7566 13.5791 0.0708 0.9471
-0.9256 13.5850 0.0709 0.9470
-1.0950 13.5909 0.0710 0.9469
-1.2649 13.5968 0.0711 0.9468
-1.4354 13.6028 0.0712 0.9468
-1.6064 13.6088 0.0714 0.9467
-1.8643 13.6178 0.0716 0.9465
-1.9506 13.6208 0.0717 0.9464
-2.0371 13.6238 0.0717 0.9464
-2.2977 13.6329 0.0720 0.9462
-2.5604 13.6421 0.0723 0.9460
-2.7367 13.6482 0.0725 0.9458
-2.8253 13.6513 0.0726 0.9458
-3.0926 13.6607 0.0729 0.9455
-3.1822 13.6638 0.0731 0.9454
-3.3625 13.6701 0.0733 0.9452
-3.5440 13.6764 0.0736 0.9451
-3.6353 13.6796 0.0737 0.9450
-3.9111 13.6892 0.0742 0.9446
-4.0038 13.6925 0.0743 0.9445
-4.0968 13.6957 0.0745 0.9444
-4.2841 13.7023 0.0748 0.9442
-4.3784 13.7055 0.0749 0.9441
-4.6637 13.7155 0.0755 0.9437
-4.7597 13.7189 0.0756 0.9436
-4.9530 13.7256 0.0760 0.9433
-5.1483 13.7324 0.0764 0.9430
-5.2467 13.7359 0.0766 0.9429
-5.3456 13.7393 0.0768 0.9427
-5.5451 13.7463 0.0772 0.9424
-5.7467 13.7533 0.0776 0.9421
-6.1570 13.7677 0.0786 0.9415
-6.3658 13.7750 0.0790 0.9411
-6.5773 13.7823 0.0795 0.9407
-6.6841 13.7861 0.0798 0.9406
-6.7915 13.7898 0.0801 0.9404
-6.8997 13.7936 0.0803 0.9402
-7.3399 13.8090 0.0815 0.9394
-7.6784 13.8208 0.0823 0.9387
-7.7929 13.8248 0.0827 0.9385
-8.0245 13.8329 0.0833 0.9380
-8.1416 13.8370 0.0836 0.9378
-8.2597 13.8411 0.0839 0.9376
-8.7417 13.8579 0.0853 0.9366
-9.2402 13.8753 0.0868 0.9355
-9.3676 13.8798 0.0872 0.9352
-10.8867 15.3004 0.0978 0.9276
-10.8933 15.1110 0.0970 0.9282
-11.4551 15.0889 0.0987 0.9270
-11.7604 15.0996 0.0997 0.9263
-11.8733 15.0517 0.0998 0.9262
-12.3180 15.2243 0.1020 0.9247
-12.4792 15.2299 0.1025 0.9243
-12.6421 15.2356 0.1031 0.9239
-12.8069 15.2413 0.1037 0.9235
-13.4467 15.2219 0.1058 0.9220
-13.5142 15.1090 0.1056 0.9221
-14.0943 15.1811 0.1079 0.9205
-14.2761 15.1875 0.1086 0.9200
-14.6466 15.2004 0.1099 0.9190
-15.0266 15.2137 0.1114 0.9180
-15.5607 15.1805 0.1132 0.9167
-15.9308 15.3504 0.1152 0.9153
-16.0914 15.3144 0.1157 0.9150
-16.3458 15.3649 0.1168 0.9142
-16.5576 15.3723 0.1177 0.9136
-17.2119 15.3952 0.1203 0.9118
-8.4904 6.7832 0.0566 0.9575
-55.9686 41.9467 0.3643 0.7560
-56.0231 40.3864 0.3597 0.7586
-49.5882 34.8237 0.3156 0.7848
-49.6037 34.3786 0.3143 0.7855
-49.6192 33.9369 0.3131 0.7863
-49.6496 33.0639 0.3107 0.7877
-49.7092 31.3571 0.3061 0.7905
-49.7528 30.1090 0.3029 0.7925
-50.3887 28.8156 0.3023 0.7928
-50.0366 28.2051 0.2992 0.7947
-49.8373 27.6880 0.2969 0.7961
-49.8511 27.2935 0.2960 0.7967
-49.8784 26.5120 0.2942 0.7978
-49.8919 26.1248 0.2933 0.7983
-49.9320 24.9766 0.2908 0.7999
-49.9583 24.2220 0.2892 0.8008
-49.9973 23.1053 0.2869 0.8023
-50.0230 22.3706 0.2854 0.8032
-51.9196 21.6941 0.2931 0.7985
-52.9209 21.7291 0.2980 0.7955
-56.1364 21.8414 0.3137 0.7859
-56.7050 20.8598 0.3147 0.7853
-56.7459 19.6876 0.3128 0.7864
-56.7729 18.9136 0.3117 0.7871
-56.7998 18.1452 0.3106 0.7878
-56.8131 17.7630 0.3100 0.7881
-56.8397 17.0025 0.3090 0.7887
-56.8529 16.6241 0.3085 0.7890
-57.1926 15.1984 0.3082 0.7892
-57.9085 15.0059 0.3116 0.7872
-58.3540 14.7368 0.3134 0.7860
-58.6004 14.4141 0.3143 0.7855
-59.7377 14.3027 0.3199 0.7822
-61.7078 14.3715 0.3300 0.7761
-66.0779 14.5301 0.3524 0.7629
-65.0178 -21.6602 -0.1519 0.7602
-58.0055 -19.7235 -0.1358 0.7827
-55.9380 -19.7957 -0.1315 0.7887
-50.2286 -18.4773 -0.1179 0.8073
-49.6207 -20.0163 -0.1186 0.8073
-48.8761 -20.0682 -0.1171 0.8095
-48.8886 -20.4276 -0.1174 0.8090
-48.9012 -20.7890 -0.1178 0.8085
-48.9139 -21.1525 -0.1181 0.8080
-48.9267 -21.5182 -0.1185 0.8075
-48.9395 -21.8860 -0.1188 0.8070
-48.9524 -22.2561 -0.1192 0.8065
-48.9785 -23.0031 -0.1199 0.8054
-48.7238 -23.2524 -0.1197 0.8058
-48.0099 -23.2773 -0.1183 0.8078
-47.3125 -23.3016 -0.1169 0.8098
-46.8636 -23.4417 -0.1161 0.8109
-46.1941 -23.4651 -0.1148 0.8128
-44.1704 -23.4780 -0.1109 0.8187
-44.1829 -23.8362 -0.1113 0.8181
-44.3113 -25.3401 -0.1131 0.8153
-44.3243 -25.7126 -0.1136 0.8147
-44.2731 -26.4201 -0.1143 0.8136
-44.3269 -27.9618 -0.1162 0.8109
-44.3407 -28.3553 -0.1167 0.8102
-44.3685 -29.1525 -0.1177 0.8087
-44.3968 -29.9637 -0.1187 0.8071
-44.4551 -31.6312 -0.1209 0.8039
-48.6665 -36.4740 -0.1348 0.7841
-48.7006 -37.4490 -0.1362 0.7821
-48.7179 -37.9441 -0.1369 0.7811
-43.6049 -34.8367 -0.1237 0.7999
-48.8441 -41.5604 -0.1421 0.7737
-48.8630 -42.1001 -0.1430 0.7726
-20.3866 -25.8438 -0.0730 0.8766
-19.6397 -25.8699 -0.0720 0.8782
-19.3951 -25.8784 -0.0717 0.8787
-18.9121 -25.8953 -0.0711 0.8796
-15.2071 -21.3724 -0.0581 0.9004
-15.0862 -21.4824 -0.0582 0.9003
-17.7391 -25.9363 -0.0696 0.8819
-15.7382 -26.0062 -0.0674 0.8855
-15.5237 -26.0137 -0.0671 0.8859
-15.3108 -26.0211 -0.0669 0.8862
-14.8890 -26.0358 -0.0665 0.8869
-14.4727 -26.0504 -0.0660 0.8876
-14.1698 -27.8950 -0.0693 0.8824
-13.1184 -27.9317 -0.0684 0.8839
-12.9115 -27.9389 -0.0682 0.8842
-12.7056 -27.9461 -0.0680 0.8844
-12.2971 -27.9604 -0.0677 0.8850
-11.4920 -27.9885 -0.0671 0.8860
-11.2930 -27.9955 -0.0669 0.8863
-11.0950 -28.0024 -0.0668 0.8865
-9.6448 -26.2183 -0.0619 0.8943
-9.2264 -26.0717 -0.0613 0.8953
-8.6919 -26.0903 -0.0609 0.8958
-8.5664 -26.2542 -0.0612 0.8954
-8.3896 -26.2620 -0.0611 0.8956
-8.0369 -26.2746 -0.0609 0.8959
-7.8615 -26.2810 -0.0608 0.8961
-7.3383 -26.2995 -0.0605 0.8965
-6.8197 -26.3176 -0.0603 0.8970
-6.4763 -26.3292 -0.0601 0.8972
-6.3053 -26.3350 -0.0600 0.8973
-6.0974 -26.1809 -0.0596 0.8981
-5.9283 -26.1868 -0.0595 0.8982
-5.7596 -26.1927 -0.0594 0.8983
-5.2844 -26.3535 -0.0596 0.8981
-5.1195 -26.3762 -0.0595 0.8981
-4.7839 -26.3882 -0.0594 0.8983
-4.4496 -26.4004 -0.0593 0.8984
-4.1163 -26.4120 -0.0592 0.8986
-3.9500 -26.4178 -0.0592 0.8987
-3.6182 -26.4294 -0.0591 0.8988
-3.4525 -26.4352 -0.0591 0.8988
-3.2871 -26.4410 -0.0591 0.8989
-2.7919 -26.4583 -0.0590 0.8990
-2.6272 -26.4640 -0.0589 0.8991
-2.4625 -26.4698 -0.0589 0.8991
-2.4283 -30.1391 -0.0670 0.8861
-2.2412 -30.1456 -0.0670 0.8861
-1.6807 -30.1652 -0.0670 0.8862
-1.1205 -30.1848 -0.0669 0.8862
-0.9544 -30.8555 -0.0684 0.8838
0.1620 -26.1896 -0.0580 0.9005
0.2932 -23.7008 -0.0525 0.9095
0.7440 -24.0526 -0.0533 0.9082
1.2000 -24.2345 -0.0538 0.9075
1.6522 -24.2503 -0.0539 0.9074
1.8033 -24.2555 -0.0539 0.9073
1.9547 -24.2608 -0.0539 0.9072
2.2580 -24.2714 -0.0540 0.9071
2.4100 -24.2767 -0.0541 0.9070
2.5623 -24.2821 -0.0541 0.9070
2.7148 -24.2874 -0.0542 0.9069
2.8676 -24.2927 -0.0542 0.9068
3.0207 -24.2981 -0.0543 0.9067
3.4819 -24.3142 -0.0544 0.9064
3.7910 -24.3250 -0.0546 0.9062
3.9462 -24.3304 -0.0546 0.9061
3.8112 -21.0228 -0.0474 0.9181
3.9358 -20.9699 -0.0473 0.9182
4.7277 -24.3577 -0.0550 0.9055
4.8853 -24.3632 -0.0551 0.9054
5.0434 -24.3687 -0.0552 0.9053
5.2019 -24.3742 -0.0552 0.9051
5.3518 -24.3380 -0.0552 0.9051
5.4826 -24.2181 -0.0550 0.9054
5.6416 -24.2237 -0.0551 0.9053
5.9681 -24.2632 -0.0554 0.9049
6.0771 -24.0635 -0.0550 0.9055
7.8702 -30.3712 -0.0695 0.8821
7.8935 -29.7035 -0.0681 0.8843
7.9780 -27.2839 -0.0630 0.8925
7.9972 -26.7346 -0.0618 0.8944
8.0156 -26.2051 -0.0607 0.8962
8.0674 -24.7247 -0.0576 0.9012
8.0990 -23.8186 -0.0558 0.9043
8.1141 -23.3873 -0.0549 0.9057
8.1682 -23.0813 -0.0543 0.9067
8.3312 -23.0870 -0.0544 0.9065
8.8252 -23.1042 -0.0548 0.9058
9.1639 -23.1287 -0.0551 0.9053
9.3322 -23.1345 -0.0553 0.9050
9.6662 -23.1336 -0.0556 0.9046
9.8372 -23.1396 -0.0557 0.9043
10.0092 -23.1456 -0.0559 0.9041
10.7135 -23.1828 -0.0566 0.9029
11.0694 -23.1952 -0.0570 0.9023
11.2491 -23.2015 -0.0571 0.9020
11.6121 -23.2142 -0.0575 0.9014
11.9799 -23.2270 -0.0579 0.9007
12.1657 -23.2335 -0.0581 0.9004
12.3529 -23.2400 -0.0583 0.9001
12.7312 -23.2533 -0.0588 0.8994
12.9225 -23.2600 -0.0590 0.8990
13.1079 -23.2538 -0.0592 0.8987
13.3020 -23.2606 -0.0594 0.8984
13.4975 -23.2674 -0.0596 0.8980
14.1012 -23.3011 -0.0604 0.8968
14.3031 -23.3082 -0.0606 0.8964
14.5067 -23.3153 -0.0609 0.8960
14.9191 -23.3297 -0.0614 0.8951
15.3385 -23.3443 -0.0619 0.8943
15.7654 -23.3593 -0.0625 0.8934
16.2000 -23.3744 -0.0630 0.8925
16.4203 -23.3821 -0.0633 0.8920
16.6427 -23.3899 -0.0636 0.8915
17.3131 -23.4007 -0.0645 0.8901
20.9514 -27.9551 -0.0774 0.8696
21.3125 -27.7157 -0.0775 0.8695
21.3472 -26.7201 -0.0758 0.8721
21.3585 -26.3978 -0.0753 0.8730
21.3696 -26.0800 -0.0747 0.8738
21.6329 -26.0707 -0.0751 0.8733
21.9148 -26.0806 -0.0755 0.8726
22.2110 -26.1035 -0.0760 0.8719
22.4994 -26.1136 -0.0764 0.8712
23.0863 -26.1341 -0.0773 0.8698
24.2906 -26.1636 -0.0791 0.8669
24.6039 -26.1745 -0.0796 0.8662
41.3515 -38.8701 -0.1258 0.7969
41.5789 -38.1263 -0.1250 0.7980
41.6916 -37.7577 -0.1247 0.7985
24.1336 -20.0254 -0.0695 0.8821
24.3192 -19.9267 -0.0697 0.8818
24.8817 -19.6277 -0.0702 0.8809
22.2760 -17.1294 -0.0623 0.8937
25.4536 -19.3236 -0.0708 0.8800
26.0353 -19.0143 -0.0715 0.8790
26.2315 -18.9100 -0.0717 0.8787
26.6276 -18.6994 -0.0721 0.8780
26.8274 -18.5931 -0.0723 0.8776
27.2311 -18.3785 -0.0728 0.8769
27.6401 -18.1610 -0.0733 0.8761
28.0546 -17.9406 -0.0738 0.8753
28.2641 -17.8292 -0.0741 0.8749
28.4750 -17.7171 -0.0743 0.8745
28.6875 -17.6041 -0.0746 0.8740
28.9015 -17.4903 -0.0749 0.8736
29.1171 -17.3757 -0.0751 0.8732
29.3343 -17.2602 -0.0754 0.8727
31.8912 -17.9767 -0.0811 0.8638
32.1294 -17.8500 -0.0815 0.8633
32.3695 -17.7223 -0.0818 0.8628
32.6116 -17.5936 -0.0821 0.8622
33.6004 -17.0679 -0.0835 0.8601
33.7979 -16.3867 -0.0832 0.8605
33.6145 -16.0418 -0.0825 0.8616
33.3113 -15.1449 -0.0811 0.8638
33.5646 -15.0103 -0.0815 0.8632
33.8203 -14.8743 -0.0819 0.8626
34.2096 -14.7937 -0.0826 0.8615
34.4714 -14.6546 -0.0830 0.8609
35.1684 -13.6832 -0.0836 0.8599
35.8349 -13.4346 -0.0848 0.8581
35.9976 -13.2423 -0.0850 0.8578
36.2801 -13.0921 -0.0855 0.8570
37.9921 -12.6568 -0.0888 0.8520
38.6030 -12.3321 -0.0898 0.8504
38.9140 -12.1667 -0.0904 0.8495
39.2288 -11.9993 -0.0909 0.8487
39.5475 -11.8299 -0.0915 0.8478
39.8702 -11.6583 -0.0921 0.8469
49.6309 -13.8484 -0.1142 0.8137
49.6537 -13.1950 -0.1139 0.8142
68.0191 -14.9569 -0.1544 0.7569
68.0344 -14.5198 -0.1542 0.7571
68.0648 -13.6484 -0.1539 0.7575
50.3233 -3.4286 -0.1118 0.8173
50.3777 -1.8701 -0.1117 0.8174
50.3995 -1.2470 -0.1117 0.8174
50.4104 -0.9354 -0.1117 0.8174
50.4212 -0.6237 -0.1118 0.8173
50.4321 -0.3119 -0.1118 0.8173
50.4430 0.0000 -0.1118 0.8173
50.4539 0.3121 -0.1118 0.8172
50.4648 0.6242 -0.1119 0.8172
50.3097 0.9335 -0.1115 0.8177
50.3247 1.2452 -0.1116 0.8176
50.3533 2.1812 -0.1117 0.8174
50.5414 2.8160 -0.1122 0.8167
50.5964 4.3916 -0.1126 0.8162
50.6074 4.7081 -0.1126 0.8160
50.6185 5.0250 -0.1127 0.8159
50.6296 5.3425 -0.1128 0.8158
50.6407 5.6606 -0.1129 0.8156
50.6518 5.9792 -0.1130 0.8155
50.5186 6.9160 -0.1130 0.8155
50.3999 8.1744 -0.1132 0.8153
50.4112 8.4965 -0.1133 0.8151
50.4225 8.8194 -0.1134 0.8148
50.4451 9.4678 -0.1138 0.8144
56.7944 14.7172 -0.1300 0.7908
55.5458 14.7608 -0.1274 0.7946
54.3469 14.8027 -0.1248 0.7983
53.1950 14.8429 -0.1224 0.8018
52.0872 14.8816 -0.1201 0.8052
51.5735 15.0804 -0.1191 0.8066
51.5980 15.7829 -0.1196 0.8059
51.6103 16.1363 -0.1198 0.8055
51.6352 16.8480 -0.1204 0.8047
51.6477 17.2062 -0.1207 0.8043
51.6603 17.5660 -0.1209 0.8039
51.6729 17.9275 -0.1212 0.8035
51.6856 18.2908 -0.1215 0.8031
51.7240 19.3915 -0.1224 0.8017
47.4694 18.8081 -0.1132 0.8153
50.3078 21.0206 -0.1208 0.8041
51.8161 22.0282 -0.1248 0.7983
51.8295 22.4134 -0.1252 0.7978
51.8430 22.8009 -0.1255 0.7973
51.8704 23.5828 -0.1263 0.7962
51.8980 24.3743 -0.1271 0.7951
50.4275 24.4495 -0.1242 0.7992
51.9544 25.9883 -0.1288 0.7927
51.9831 26.8115 -0.1296 0.7914
51.2119 31.4263 -0.1332 0.7864
52.2291 33.8569 -0.1380 0.7796
52.2456 34.3282 -0.1386 0.7788
52.2622 34.8038 -0.1392 0.7779
52.2790 35.2835 -0.1398 0.7770
52.3129 36.2562 -0.1411 0.7752
52.4007 38.7689 -0.1445 0.7705
52.4370 39.8086 -0.1459 0.7685
52.4633 40.3425 -0.1467 0.7674
52.4740 40.8696 -0.1474 0.7664
15.0827 12.0498 -0.0428 0.9257
14.9862 12.2795 -0.0429 0.9254
52.5701 43.6214 -0.1514 0.7609
52.5900 44.1899 -0.1522 0.7598
51.2759 46.4377 -0.1533 0.7583
14.4228 13.5574 -0.0439 0.9239
14.2189 13.5323 -0.0435 0.9245
13.6901 13.5219 -0.0426 0.9259
13.2079 13.5387 -0.0419 0.9271
12.9445 13.6013 -0.0416 0.9276
12.6341 13.6083 -0.0412 0.9284
12.3304 13.6151 -0.0407 0.9292
11.8869 13.6251 -0.0401 0.9302
11.7421 13.6283 -0.0399 0.9306
11.5987 13.6315 -0.0397 0.9309
11.4569 13.6347 -0.0395 0.9312
11.2896 13.6057 -0.0392 0.9317
7.5571 9.5800 -0.0270 0.9524
10.6152 13.6292 -0.0383 0.9332
10.2249 13.6429 -0.0378 0.9341
9.8446 13.6562 -0.0373 0.9349
9.5962 13.6648 -0.0370 0.9354
9.1969 13.6269 -0.0365 0.9364
9.1458 13.7336 -0.0366 0.9361
8.7876 13.7417 -0.0362 0.9368
8.5533 13.7469 -0.0359 0.9373
8.4374 13.7496 -0.0358 0.9375
8.2082 13.7547 -0.0355 0.9379
8.0947 13.7572 -0.0354 0.9381
7.8702 13.7623 -0.0351 0.9386
7.7590 13.7648 -0.0350 0.9388
7.1763 13.3021 -0.0335 0.9413
6.9691 13.3093 -0.0333 0.9417
6.8664 13.3129 -0.0332 0.9418
6.7643 13.3164 -0.0331 0.9420
6.6628 13.3200 -0.0330 0.9422
6.4615 13.3270 -0.0328 0.9425
6.2624 13.3340 -0.0326 0.9428
6.1636 13.3374 -0.0326 0.9429
6.0654 13.3408 -0.0325 0.9431
5.8704 13.3477 -0.0323 0.9433
5.4860 13.3611 -0.0320 0.9439
5.3910 13.3644 -0.0319 0.9440
5.2965 13.3677 -0.0319 0.9441
5.1086 13.3743 -0.0317 0.9443
4.9223 13.3808 -0.0316 0.9446
4.8297 13.3840 -0.0315 0.9447
4.7376 13.3872 -0.0315 0.9448
4.6457 13.3904 -0.0314 0.9449
4.4631 13.3968 -0.0313 0.9451
4.3722 13.4000 -0.0312 0.9452
4.2817 13.4031 -0.0312 0.9453
4.1017 13.4094 -0.0311 0.9455
3.9228 13.4157 -0.0310 0.9456
3.8338 13.4188 -0.0309 0.9457
3.5684 13.4280 -0.0308 0.9459
3.3927 13.4342 -0.0307 0.9461
3.3052 13.4372 -0.0307 0.9462
3.2179 13.4403 -0.0306 0.9462
3.0440 13.4463 -0.0306 0.9463
2.8710 13.4524 -0.0305 0.9465
2.6987 13.4584 -0.0304 0.9466
2.6128 13.4614 -0.0304 0.9466
2.4415 13.4674 -0.0303 0.9467
2.2708 13.4733 -0.0303 0.9468
2.1007 13.4793 -0.0302 0.9469
1.9311 13.4852 -0.0302 0.9470
1.8465 13.4882 -0.0302 0.9470
1.7620 13.4911 -0.0302 0.9470
1.6776 13.4941 -0.0301 0.9471
1.5932 13.4970 -0.0301 0.9471
1.2567 13.5088 -0.0301 0.9472
1.0888 13.5146 -0.0300 0.9472
0.8374 13.5234 -0.0300 0.9472
0.5862 13.5322 -0.0300 0.9473
0.4187 13.5380 -0.0300 0.9473
0.2513 13.5439 -0.0300 0.9473
-0.0000 13.5526 -0.0300 0.9472
-0.0838 13.5556 -0.0300 0.9472
-0.1677 13.5585 -0.0301 0.9472
-0.2516 13.5614 -0.0301 0.9472
-0.3356 13.5644 -0.0301 0.9472
-0.4197 13.5673 -0.0301 0.9472
-0.5879 13.5732 -0.0301 0.9471
-0.8410 13.5820 -0.0302 0.9470
-0.9256 13.5850 -0.0302 0.9470
-1.0103 13.5879 -0.0302 0.9470
-1.0950 13.5909 -0.0302 0.9469
-1.2649 13.5968 -0.0303 0.9468
-1.3501 13.5998 -0.0303 0.9468
-1.4354 13.6028 -0.0303 0.9468
-1.5209 13.6058 -0.0303 0.9467
-1.7782 13.6147 -0.0304 0.9466
-1.9506 13.6208 -0.0305 0.9464
-2.0371 13.6238 -0.0305 0.9464
-2.2977 13.6329 -0.0306 0.9462
-2.3851 13.6359 -0.0307 0.9461
-2.4726 13.6390 -0.0307 0.9461
-2.5604 13.6421 -0.0308 0.9460
-2.8253 13.6513 -0.0309 0.9458
-3.0032 13.6575 -0.0310 0.9456
-3.0926 13.6607 -0.0310 0.9455
-3.2722 13.6669 -0.0311 0.9453
-3.3625 13.6701 -0.0312 0.9452
-3.4531 13.6732 -0.0313 0.9452
-3.5440 13.6764 -0.0313 0.9451
-3.6353 13.6796 -0.0314 0.9450
-3.7268 13.6828 -0.0314 0.9449
-3.8188 13.6860 -0.0315 0.9447
-3.9111 13.6892 -0.0316 0.9446
-4.0968 13.6957 -0.0317 0.9444
-4.1903 13.6990 -0.0317 0.9443
-4.3784 13.7055 -0.0319 0.9441
-4.5681 13.7122 -0.0320 0.9438
-4.6637 13.7155 -0.0321 0.9437
-5.1483 13.7324 -0.0325 0.9430
-5.2467 13.7359 -0.0326 0.9429
-5.3456 13.7393 -0.0327 0.9427
-5.4451 13.7428 -0.0328 0.9426
-5.5451 13.7463 -0.0329 0.9424
-6.1570 13.7677 -0.0334 0.9415
-6.2611 13.7713 -0.0335 0.9413
-6.3658 13.7750 -0.0336 0.9411
-6.5773 13.7823 -0.0338 0.9407
-6.6841 13.7861 -0.0340 0.9406
-6.7915 13.7898 -0.0341 0.9404
-7.1183 13.8012 -0.0344 0.9398
-7.2287 13.8051 -0.0345 0.9396
-7.3399 13.8090 -0.0347 0.9394
-7.4519 13.8129 -0.0348 0.9392
-7.7929 13.8248 -0.0352 0.9385
-8.0245 13.8329 -0.0354 0.9380
-8.3787 13.8453 -0.0359 0.9373
-8.4987 13.8494 -0.0360 0.9371
-8.6197 13.8537 -0.0362 0.9368
-8.7417 13.8579 -0.0363 0.9366
-9.1139 13.8709 -0.0368 0.9358
-9.2402 13.8753 -0.0369 0.9355
-9.3676 13.8798 -0.0371 0.9352
-10.8662 15.8875 -0.0427 0.9259
-10.8731 15.6885 -0.0423 0.9265
-10.8800 15.4929 -0.0420 0.9271
-11.0085 15.0733 -0.0414 0.9281
-11.4551 15.0889 -0.0420 0.9270
-11.7604 15.0996 -0.0424 0.9263
-12.2628 15.1560 -0.0432 0.9250
-12.5889 15.1715 -0.0437 0.9242
-12.7548 15.1794 -0.0439 0.9238
-12.9225 15.1873 -0.0442 0.9233
-13.5142 15.1090 -0.0449 0.9221
-14.0943 15.1811 -0.0459 0.9205
-14.2761 15.1875 -0.0462 0.9200
-14.4602 15.1939 -0.0465 0.9195
-14.8354 15.2070 -0.0471 0.9185
-15.2204 15.2204 -0.0477 0.9175
-15.4168 15.2273 -0.0480 0.9170
-15.5607 15.1805 -0.0482 0.9167
-15.8570 15.2793 -0.0488 0.9157
-16.0649 15.2892 -0.0492 0.9151
-16.2758 15.2992 -0.0495 0.9145
-16.4898 15.3093 -0.0499 0.9139
-16.7069 15.3196 -0.0502 0.9133
-16.9272 15.3300 -0.0506 0.9127
-17.1509 15.3406 -0.0510 0.9121
-17.7687 15.3094 -0.0520 0.9104
-18.0021 15.3176 -0.0524 0.9098
-18.2392 15.3258 -0.0528 0.9091
-8.4432 6.8314 -0.0241 0.9575
-8.4901 6.7829 -0.0241 0.9575
-8.5656 6.7569 -0.0242 0.9573
-55.9870 41.4222 -0.1544 0.7569
-56.0410 39.8750 -0.1524 0.7595
-49.5882 34.8237 -0.1343 0.7848
-49.6191 33.9369 -0.1332 0.7863
-49.6345 33.4987 -0.1327 0.7870
-49.6945 31.7791 -0.1307 0.7898
-49.7092 31.3570 -0.1303 0.7905
-49.7528 30.1090 -0.1289 0.7925
-49.8567 29.3356 -0.1282 0.7934
-49.8648 26.9016 -0.1256 0.7972
-49.8919 26.1248 -0.1248 0.7983
-49.9053 25.7398 -0.1245 0.7988
-49.9320 24.9766 -0.1237 0.7999
-49.9714 23.8478 -0.1227 0.8013
-49.9844 23.4756 -0.1224 0.8018
-49.9973 23.1053 -0.1221 0.8023
-50.0102 22.7370 -0.1218 0.8027
-50.1980 22.0774 -0.1215 0.8030
-53.9562 21.7652 -0.1289 0.7924
-55.0274 21.8026 -0.1312 0.7892
-56.6912 21.2537 -0.1342 0.7849
-56.7050 20.8598 -0.1339 0.7853
-56.7323 20.0768 -0.1334 0.7861
-56.7459 19.6876 -0.1331 0.7864
-56.7594 19.2999 -0.1329 0.7868
-56.7729 18.9136 -0.1326 0.7871
-56.7998 18.1452 -0.1322 0.7878
-56.8264 17.3821 -0.1317 0.7884
-56.8397 17.0025 -0.1315 0.7887
-56.8529 16.6241 -0.1313 0.7890
-56.8661 16.2469 -0.1311 0.7893
-57.9085 15.0059 -0.1326 0.7872
-58.3540 14.7368 -0.1334 0.7860
-58.6004 14.4141 -0.1337 0.7855
-61.7078 14.3715 -0.1404 0.7761
-66.3591 -21.6521 -0.6730 0.7564
-65.0198 -21.6609 -0.6607 0.7602
-58.0055 -19.7235 -0.5907 0.7826
-56.1332 -19.8648 -0.5741 0.7881
-50.2286 -18.4774 -0.5160 0.8073
-50.2328 -18.8324 -0.5172 0.8069
-51.2954 -19.9578 -0.5307 0.8024
-50.4462 -19.9874 -0.5231 0.8049
-49.0109 -21.9179 -0.5176 0.8067
-49.0238 -22.2885 -0.5192 0.8062
-49.0368 -22.6614 -0.5208 0.8057
-48.0099 -23.2773 -0.5144 0.8078
-47.3125 -23.3016 -0.5085 0.8098
-44.6762 -23.3937 -0.4862 0.8173
-44.1704 -23.4780 -0.4823 0.8186
-44.3113 -25.3401 -0.4921 0.8153
-44.2998 -27.1846 -0.5011 0.8123
-44.3826 -29.5563 -0.5141 0.8079
-44.4550 -31.6312 -0.5260 0.8039
-44.4850 -32.4886 -0.5311 0.8022
-48.6665 -36.4740 -0.5863 0.7841
-48.7006 -37.4490 -0.5923 0.7821
-48.8441 -41.5604 -0.6183 0.7737
-18.7875 -20.4888 -0.2680 0.8948
-18.3401 -20.5044 -0.2652 0.8958
-17.9020 -20.5197 -0.2625 0.8968
-17.6862 -20.5272 -0.2612 0.8973
-17.4725 -20.5347 -0.2599 0.8978
-16.6382 -20.5638 -0.2550 0.8996
-15.4432 -20.6055 -0.2483 0.9021
-16.1870 -21.8786 -0.2624 0.8968
-15.7822 -21.8927 -0.2602 0.8977
-17.7391 -25.9363 -0.3029 0.8819
-17.0572 -25.9601 -0.2995 0.8832
-16.3906 -25.9834 -0.2962 0.8844
-15.9541 -25.9986 -0.2941 0.8851
-15.7382 -26.0062 -0.2931 0.8855
-15.3108 -26.0211 -0.2911 0.8862
-15.0992 -26.0285 -0.2901 0.8866
-14.8890 -26.0358 -0.2892 0.8869
-14.4727 -26.0504 -0.2873 0.8876
-14.3011 -26.5084 -0.2904 0.8865
-14.3159 -26.9332 -0.2941 0.8851
-14.3311 -27.3689 -0.2979 0.8837
-14.1698 -27.8950 -0.3016 0.8824
-13.6053 -28.0612 -0.3007 0.8827
-13.3951 -28.0686 -0.2998 0.8830
-13.1861 -28.0759 -0.2990 0.8833
-12.9781 -28.0832 -0.2983 0.8836
-12.7712 -28.0904 -0.2975 0.8839
-12.5009 -27.9533 -0.2952 0.8847
-11.9540 -28.1189 -0.2946 0.8850
-11.7522 -28.1259 -0.2939 0.8852
-11.3513 -28.1399 -0.2925 0.8857
-11.1522 -28.1469 -0.2919 0.8859
-9.6448 -26.2183 -0.2693 0.8943
-9.1412 -26.3477 -0.2689 0.8944
-8.2475 -26.3788 -0.2665 0.8953
-8.0707 -26.3850 -0.2660 0.8955
-7.8944 -26.3912 -0.2656 0.8957
-7.6866 -26.2873 -0.2640 0.8962
-7.5122 -26.2934 -0.2636 0.8964
-7.3383 -26.2995 -0.2632 0.8965
-6.6757 -26.4338 -0.2629 0.8967
-6.0974 -26.1809 -0.2592 0.8980
-5.7596 -26.1927 -0.2586 0.8983
-5.4233 -26.2044 -0.2580 0.8985
-5.2844 -26.3535 -0.2591 0.8981
-5.1197 -26.3770 -0.2590 0.8981
-4.6167 -26.3945 -0.2583 0.8984
-4.4496 -26.4004 -0.2581 0.8984
-3.7840 -26.4236 -0.2574 0.8987
-3.6182 -26.4294 -0.2572 0.8988
-3.1219 -26.4468 -0.2567 0.8990
-2.9568 -26.4525 -0.2566 0.8990
-2.6272 -26.4640 -0.2564 0.8991
-2.4625 -26.4698 -0.2563 0.8991
-2.5075 -28.8898 -0.2796 0.8905
-2.2413 -30.1457 -0.2914 0.8861
-1.8674 -30.1587 -0.2913 0.8861
-1.3072 -30.1782 -0.2912 0.8862
-1.9298 -62.3899 -0.6018 0.7790
-1.5437 -62.3927 -0.6017 0.7791
-1.1577 -62.3955 -0.6017 0.7791
-0.3859 -62.4011 -0.6016 0.7791
0.2988 -24.1554 -0.2329 0.9079
0.8931 -24.0579 -0.2321 0.9082
1.0495 -24.2292 -0.2338 0.9075
1.5013 -24.2450 -0.2342 0.9074
1.6522 -24.2503 -0.2343 0.9073
1.9547 -24.2608 -0.2347 0.9072
2.4100 -24.2767 -0.2352 0.9070
2.5623 -24.2821 -0.2354 0.9069
2.8676 -24.2927 -0.2358 0.9068
3.0207 -24.2980 -0.2361 0.9067
3.1742 -24.3034 -0.2363 0.9066
3.6363 -24.3196 -0.2371 0.9063
3.7910 -24.3250 -0.2373 0.9062
3.9462 -24.3304 -0.2376 0.9061
4.2576 -24.3412 -0.2382 0.9059
3.8111 -21.0219 -0.2060 0.9181
4.7277 -24.3577 -0.2392 0.9055
4.8853 -24.3632 -0.2396 0.9054
5.2019 -24.3742 -0.2403 0.9051
7.8708 -30.3737 -0.3025 0.8820
7.8935 -29.7035 -0.2963 0.8843
7.8617 -28.1754 -0.2820 0.8896
7.9589 -27.8570 -0.2793 0.8906
7.9780 -27.2838 -0.2741 0.8925
8.0156 -26.2051 -0.2642 0.8962
8.0335 -25.6943 -0.2595 0.8979
8.0507 -25.2011 -0.2551 0.8996
8.0674 -24.7247 -0.2507 0.9012
8.1141 -23.3873 -0.2387 0.9057
8.4950 -23.0927 -0.2372 0.9063
8.6597 -23.0985 -0.2378 0.9060
8.8252 -23.1042 -0.2384 0.9058
8.9966 -23.1228 -0.2392 0.9055
9.1639 -23.1287 -0.2398 0.9053
9.3322 -23.1346 -0.2405 0.9050
9.5014 -23.1404 -0.2412 0.9048
10.3563 -23.1577 -0.2446 0.9035
10.8909 -23.1890 -0.2470 0.9026
11.2491 -23.2015 -0.2486 0.9020
11.4300 -23.2078 -0.2494 0.9017
11.7954 -23.2206 -0.2511 0.9011
12.1656 -23.2334 -0.2528 0.9004
12.4624 -23.1003 -0.2531 0.9003
12.6408 -23.0882 -0.2538 0.9001
13.2148 -23.1082 -0.2566 0.8990
13.4975 -23.2674 -0.2593 0.8980
13.7019 -23.2868 -0.2605 0.8976
13.9007 -23.2938 -0.2615 0.8972
14.1011 -23.3010 -0.2626 0.8968
14.3031 -23.3082 -0.2637 0.8964
14.5067 -23.3153 -0.2647 0.8960
14.7120 -23.3225 -0.2659 0.8956
15.1279 -23.3370 -0.2681 0.8947
15.7402 -23.3219 -0.2713 0.8936
16.0850 -23.2085 -0.2722 0.8932
16.5245 -23.2238 -0.2748 0.8922
16.8578 -23.3848 -0.2779 0.8911
17.0844 -23.3927 -0.2793 0.8906
17.3131 -23.4007 -0.2806 0.8901
20.9514 -27.9551 -0.3368 0.8696
21.2301 -27.9648 -0.3385 0.8690
21.3242 -27.3790 -0.3346 0.8704
21.3358 -27.0471 -0.3321 0.8713
21.3472 -26.7201 -0.3297 0.8721
21.3585 -26.3978 -0.3274 0.8730
21.3696 -26.0800 -0.3251 0.8738
21.9148 -26.0806 -0.3284 0.8726
22.2110 -26.1035 -0.3304 0.8719
22.4994 -26.1136 -0.3323 0.8712
23.3850 -26.1445 -0.3382 0.8691
23.6872 -26.1551 -0.3402 0.8684
24.2906 -26.1636 -0.3442 0.8669
49.6917 -47.8813 -0.6653 0.7588
49.7116 -47.3111 -0.6616 0.7599
41.3515 -38.8702 -0.5472 0.7969
41.4656 -38.4971 -0.5455 0.7975
25.3912 -22.4299 -0.3266 0.8733
25.1154 -21.9113 -0.3213 0.8752
24.1336 -20.0254 -0.3023 0.8821
22.2753 -17.1289 -0.2709 0.8937
25.8402 -19.1180 -0.3099 0.8793
26.2315 -18.9100 -0.3118 0.8787
26.8274 -18.5931 -0.3147 0.8776
27.2311 -18.3785 -0.3167 0.8769
27.4349 -18.2701 -0.3178 0.8765
28.4750 -17.7171 -0.3233 0.8745
28.6875 -17.6041 -0.3245 0.8740
28.9015 -17.4903 -0.3257 0.8736
29.5532 -17.1438 -0.3294 0.8723
31.8912 -17.9767 -0.3529 0.8638
32.1294 -17.8500 -0.3544 0.8633
32.8557 -17.4638 -0.3587 0.8617
33.1018 -17.3329 -0.3602 0.8612
33.8529 -16.9336 -0.3649 0.8595
33.9844 -16.7374 -0.3652 0.8594
33.7979 -16.3866 -0.3621 0.8605
33.2568 -15.3689 -0.3532 0.8637
33.3113 -15.1449 -0.3528 0.8638
33.8203 -14.8743 -0.3562 0.8626
34.0787 -14.7371 -0.3580 0.8620
34.6033 -14.4586 -0.3616 0.8607
34.8694 -14.3172 -0.3634 0.8600
35.4099 -14.0298 -0.3672 0.8587
35.9618 -13.7364 -0.3711 0.8573
36.2422 -13.5873 -0.3732 0.8566
36.5257 -13.4365 -0.3752 0.8558
37.9921 -12.6569 -0.3861 0.8520
38.2958 -12.4954 -0.3884 0.8512
38.6030 -12.3321 -0.3907 0.8503
38.9140 -12.1667 -0.3931 0.8495
39.2288 -11.9993 -0.3955 0.8487
39.5475 -11.8299 -0.3980 0.8478
35.3357 -10.0955 -0.3543 0.8633
35.3450 -9.8622 -0.3538 0.8635
35.3729 -9.1662 -0.3523 0.8640
35.3911 -8.7053 -0.3514 0.8643
35.4002 -8.4757 -0.3509 0.8645
35.4092 -8.2466 -0.3505 0.8646
35.4181 -8.0181 -0.3501 0.8648
36.8658 -7.6297 -0.3630 0.8602
68.0648 -13.6483 -0.6693 0.7575
43.6515 -7.3571 -0.4268 0.8377
45.6507 -7.4041 -0.4459 0.8311
48.1933 -7.5109 -0.4702 0.8227
50.8544 -7.6038 -0.4957 0.8141
50.3233 -3.4286 -0.4863 0.8173
50.3342 -3.1167 -0.4862 0.8173
50.3669 -2.1817 -0.4860 0.8174
50.3777 -1.8701 -0.4860 0.8174
50.3995 -1.2470 -0.4861 0.8174
50.4104 -0.9354 -0.4861 0.8174
50.4213 -0.6237 -0.4862 0.8173
50.4539 0.3121 -0.4864 0.8172
50.4648 0.6242 -0.4866 0.8172
50.3097 0.9335 -0.4851 0.8177
50.3247 1.2452 -0.4853 0.8176
50.3744 1.5582 -0.4859 0.8174
50.3533 2.1812 -0.4859 0.8174
50.5304 2.5020 -0.4878 0.8168
50.5414 2.8160 -0.4880 0.8167
50.5523 3.1303 -0.4883 0.8166
50.5743 3.7601 -0.4889 0.8164
50.5964 4.3916 -0.4896 0.8162
50.6074 4.7081 -0.4900 0.8160
50.6185 5.0250 -0.4904 0.8159
50.6296 5.3425 -0.4908 0.8157
50.6407 5.6606 -0.4913 0.8156
50.6518 5.9792 -0.4917 0.8154
50.6630 6.2984 -0.4922 0.8153
50.5186 6.9160 -0.4916 0.8155
50.7231 7.2638 -0.4940 0.8147
51.2372 7.9853 -0.5000 0.8127
50.4112 8.4965 -0.4929 0.8151
50.4451 9.4678 -0.4948 0.8144
55.4269 14.7292 -0.5529 0.7950
53.3568 14.8881 -0.5341 0.8012
52.0872 14.8816 -0.5223 0.8052
51.5735 15.0804 -0.5180 0.8066
50.0970 14.9856 -0.5041 0.8113
51.6728 16.5073 -0.5230 0.8049
51.6477 17.2062 -0.5248 0.8043
51.6021 17.5462 -0.5255 0.8041
51.6856 18.2908 -0.5286 0.8031
50.2669 18.1394 -0.5152 0.8075
51.7111 19.0228 -0.5312 0.8022
51.7369 19.7621 -0.5340 0.8013
51.7499 20.1347 -0.5354 0.8008
52.1555 21.4148 -0.5436 0.7981
50.3078 21.0206 -0.5257 0.8040
51.8295 22.4134 -0.5444 0.7978
51.8567 23.1906 -0.5477 0.7967
51.8841 23.9773 -0.5511 0.7956
51.8980 24.3743 -0.5528 0.7950
50.4275 24.4495 -0.5403 0.7992
51.9401 25.5808 -0.5582 0.7933
52.0191 26.4241 -0.5625 0.7918
52.0647 30.6347 -0.5824 0.7853
51.3760 30.6588 -0.5768 0.7872
51.1964 30.9826 -0.5769 0.7871
51.2119 31.4263 -0.5793 0.7864
51.2433 32.3247 -0.5841 0.7848
52.2291 33.8568 -0.6001 0.7796
52.2456 34.3282 -0.6027 0.7787
52.2048 34.7655 -0.6047 0.7781
52.3296 35.3177 -0.6087 0.7768
52.2959 35.7676 -0.6108 0.7761
50.8711 37.1526 -0.6073 0.7773
52.4015 38.7695 -0.6284 0.7705
52.4633 40.3425 -0.6381 0.7674
52.4740 40.8696 -0.6412 0.7664
52.5701 43.6214 -0.6586 0.7609
52.5900 44.1899 -0.6623 0.7597
52.6814 45.3901 -0.6704 0.7572
52.6509 45.9342 -0.6736 0.7562
14.6035 13.5581 -0.1921 0.9234
14.4228 13.5574 -0.1908 0.9239
14.2189 13.5323 -0.1892 0.9245
14.0211 13.5103 -0.1877 0.9251
13.6901 13.5219 -0.1855 0.9259
13.2079 13.5387 -0.1824 0.9271
12.9663 13.6242 -0.1813 0.9275
12.3826 13.6727 -0.1778 0.9289
11.9419 13.6881 -0.1751 0.9299
11.5143 13.7030 -0.1726 0.9309
11.2896 13.6057 -0.1705 0.9317
