ply
format ascii 1.0
element vertex 1527
property float32 x
property float32 y
property float32 z
property float32 I
end_header
-16.0221 15.2485 -2.1910 0.9149
-16.2296 15.2557 -2.2064 0.9144
-16.4399 15.2631 -2.2221 0.9138
-16.6533 15.2705 -2.2382 0.9132
-16.8698 15.2781 -2.2545 0.9126
-17.0955 15.1018 -2.2596 0.9124
-17.1887 14.9959 -2.2596 0.9124
-17.2812 14.8894 -2.2596 0.9124
-17.5548 14.5666 -2.2596 0.9124
-8.4157 6.8957 -1.0778 0.9572
-8.4374 6.8268 -1.0751 0.9573
-8.5575 6.7505 -1.0797 0.9571
-18.3390 13.5682 -2.2598 0.9124
-18.4227 13.4547 -2.2598 0.9124
-18.6695 13.1108 -2.2598 0.9124
-18.7504 12.9952 -2.2598 0.9124
-18.8305 12.8791 -2.2599 0.9124
-18.9099 12.7624 -2.2599 0.9124
-10.9249 7.2754 -1.3002 0.9486
-10.8869 7.0573 -1.2852 0.9492
-10.8819 6.8644 -1.2745 0.9496
-11.1886 6.8659 -1.3004 0.9486
-11.2198 6.6017 -1.2895 0.9490
-11.4373 6.6349 -1.3098 0.9482
-11.3924 6.5149 -1.3000 0.9486
-11.5847 6.4361 -1.3128 0.9481
-11.6694 6.3890 -1.3179 0.9479
-12.0203 6.4849 -1.3529 0.9466
-12.3459 6.4647 -1.3805 0.9455
-12.6955 6.4489 -1.4105 0.9444
-12.7574 6.3814 -1.4130 0.9443
-13.0625 6.4333 -1.4424 0.9432
-13.1188 6.3606 -1.4442 0.9431
-13.0759 6.1412 -1.4310 0.9436
-14.3840 6.3262 -1.5566 0.9388
-14.6629 6.3409 -1.5825 0.9378
-15.0571 6.2915 -1.6165 0.9365
-15.5966 6.2915 -1.6659 0.9346
-16.1135 6.2694 -1.7127 0.9329
-16.3676 6.2520 -1.7356 0.9320
-16.2938 6.1086 -1.7237 0.9324
-17.1638 6.0741 -1.8035 0.9294
-18.7039 6.2311 -1.9529 0.9238
-19.3371 6.1774 -2.0109 0.9216
-19.3028 6.0352 -2.0034 0.9219
-21.7844 6.6635 -2.2566 0.9125
-21.8221 6.5277 -2.2563 0.9125
-21.9643 5.9825 -2.2550 0.9126
-23.5297 6.0973 -2.4078 0.9069
-23.6084 5.8071 -2.4083 0.9069
-23.6469 5.6617 -2.4086 0.9069
-23.7581 5.2243 -2.4097 0.9068
-23.8314 4.9322 -2.4107 0.9068
-23.9067 4.6402 -2.4123 0.9068
-23.9440 4.4940 -2.4133 0.9067
-24.0313 4.0504 -2.4141 0.9067
-24.0582 3.9020 -2.4143 0.9067
-24.0842 3.7535 -2.4145 0.9067
-24.1093 3.6049 -2.4148 0.9067
-24.1565 3.3070 -2.4152 0.9066
-24.1787 3.1579 -2.4154 0.9066
-24.2398 2.7095 -2.4161 0.9066
-24.3209 1.9595 -2.4170 0.9066
-24.3436 1.6586 -2.4170 0.9066
-24.3536 1.5080 -2.4170 0.9066
-24.3626 1.3574 -2.4171 0.9066
-24.3706 1.2067 -2.4171 0.9066
-24.3777 1.0560 -2.4171 0.9066
-24.3932 0.6036 -2.4171 0.9066
-24.3988 0.3018 -2.4171 0.9066
-22.6397 -0.1400 -2.4126 0.9130
-22.6360 -0.4200 -2.4125 0.9130
-22.6328 -0.5600 -2.4125 0.9130
-22.6287 -0.6999 -2.4125 0.9130
-22.6112 -1.1196 -2.4124 0.9130
-22.6035 -1.2593 -2.4124 0.9130
-22.5950 -1.3991 -2.4124 0.9130
-22.5754 -1.6784 -2.4123 0.9130
-22.5642 -1.8180 -2.4123 0.9130
-22.5254 -2.2361 -2.4121 0.9130
-22.4952 -2.5145 -2.4120 0.9130
-22.4788 -2.6535 -2.4120 0.9130
-22.4432 -2.9312 -2.4119 0.9130
-22.4241 -3.0698 -2.4118 0.9130
-22.3833 -3.3468 -2.4117 0.9130
-22.3155 -3.7612 -2.4115 0.9130
-22.2912 -3.8990 -2.4114 0.9130
-22.2660 -4.0366 -2.4114 0.9130
-22.2399 -4.1741 -2.4113 0.9130
-22.2129 -4.3114 -2.4112 0.9130
-22.1851 -4.4485 -2.4111 0.9130
-22.1269 -4.7223 -2.4110 0.9130
-21.9315 -5.5386 -2.4104 0.9130
-21.8959 -5.6739 -2.4103 0.9130
-21.8595 -5.8089 -2.4102 0.9130
-21.8222 -5.9438 -2.4101 0.9130
-21.7451 -6.2127 -2.4099 0.9130
-21.6646 -6.4805 -2.4097 0.9131
-21.5807 -6.7473 -2.4094 0.9131
-21.5375 -6.8803 -2.4093 0.9131
-21.3563 -7.4094 -2.4088 0.9131
-21.3090 -7.5409 -2.4087 0.9131
-21.0074 -8.3234 -2.4079 0.9131
-20.9543 -8.4527 -2.4077 0.9131
-20.7906 -8.8386 -2.4074 0.9131
-20.7355 -8.9670 -2.4074 0.9131
-20.6797 -9.0950 -2.4074 0.9131
-20.4484 -9.6037 -2.4074 0.9131
-20.2667 -9.9814 -2.4074 0.9131
-20.2046 -10.1066 -2.4074 0.9131
-20.0781 -10.3557 -2.4074 0.9131
-20.0136 -10.4797 -2.4074 0.9131
-19.9485 -10.6032 -2.4074 0.9131
-19.8825 -10.7265 -2.4074 0.9131
-19.8158 -10.8492 -2.4074 0.9131
-19.7483 -10.9715 -2.4074 0.9131
-19.5414 -11.3359 -2.4074 0.9131
-19.3277 -11.6966 -2.4074 0.9131
-19.1074 -12.0531 -2.4074 0.9131
-19.0325 -12.1711 -2.4074 0.9131
-18.8805 -12.4055 -2.4074 0.9131
-18.8034 -12.5220 -2.4074 0.9131
-18.5679 -12.8687 -2.4074 0.9131
-17.9936 -13.6602 -2.4074 0.9131
-17.9088 -13.7712 -2.4074 0.9131
-17.8232 -13.8817 -2.4074 0.9131
-17.7371 -13.9916 -2.4074 0.9131
-17.6502 -14.1011 -2.4074 0.9131
-17.4744 -14.3183 -2.4074 0.9131
-17.3855 -14.4261 -2.4074 0.9131
-17.0234 -14.8517 -2.4074 0.9131
-16.8384 -15.0611 -2.4074 0.9131
-16.7450 -15.1650 -2.4074 0.9131
-16.4608 -15.4730 -2.4074 0.9131
-16.0730 -15.8754 -2.4074 0.9131
-15.9745 -15.9745 -2.4074 0.9131
-15.6754 -16.2681 -2.4074 0.9131
-15.5745 -16.3647 -2.4074 0.9131
-15.2682 -16.6508 -2.4074 0.9131
-15.0611 -16.8384 -2.4074 0.9131
-14.9567 -16.9312 -2.4074 0.9131
-14.7461 -17.1149 -2.4074 0.9131
-14.6400 -17.2058 -2.4074 0.9131
-14.4261 -17.3855 -2.4074 0.9131
-14.2100 -17.5626 -2.4074 0.9131
-13.9917 -17.7371 -2.4074 0.9131
-13.8817 -17.8232 -2.4074 0.9131
-13.5487 -18.0777 -2.4074 0.9131
-13.4366 -18.1611 -2.4074 0.9131
-13.2110 -18.3259 -2.4074 0.9131
-13.0974 -18.4073 -2.4074 0.9131
-12.9833 -18.4879 -2.4074 0.9131
-12.7537 -18.6471 -2.4074 0.9131
-12.6381 -18.7256 -2.4074 0.9131
-12.0754 -18.8830 -2.3885 0.9138
-11.9114 -18.8826 -2.3790 0.9141
-11.5869 -18.8819 -2.3607 0.9147
-11.4265 -18.8815 -2.3518 0.9150
-11.1094 -18.8807 -2.3344 0.9156
-10.9525 -18.8802 -2.3259 0.9159
-10.6421 -18.8793 -2.3094 0.9165
-10.4885 -18.8789 -2.3014 0.9168
-10.1845 -18.8779 -2.2857 0.9173
-9.8845 -18.8769 -2.2706 0.9179
-9.5935 -18.8861 -2.2573 0.9183
-9.4668 -18.9255 -2.2550 0.9184
-9.3496 -18.9837 -2.2550 0.9184
-9.2320 -19.0412 -2.2550 0.9184
-9.1141 -19.0979 -2.2550 0.9184
-8.8772 -19.2091 -2.2550 0.9184
-8.7582 -19.2637 -2.2550 0.9184
-8.6389 -19.3175 -2.2550 0.9184
-8.5193 -19.3705 -2.2550 0.9184
-8.2791 -19.4744 -2.2550 0.9184
-8.0375 -19.5753 -2.2550 0.9184
-7.9163 -19.6247 -2.2550 0.9184
-7.7948 -19.6732 -2.2550 0.9184
-7.5509 -19.7681 -2.2550 0.9184
-7.4285 -19.8144 -2.2550 0.9184
-7.3058 -19.8600 -2.2550 0.9184
-6.9361 -19.9921 -2.2550 0.9184
-6.8124 -20.0347 -2.2550 0.9184
-6.6884 -20.0764 -2.2550 0.9184
-6.5641 -20.1174 -2.2550 0.9184
-6.4395 -20.1576 -2.2550 0.9184
-6.1897 -20.2357 -2.2550 0.9184
-6.0645 -20.2736 -2.2550 0.9184
-5.8133 -20.3470 -2.2550 0.9184
-5.6873 -20.3826 -2.2550 0.9184
-5.5611 -20.4174 -2.2550 0.9184
-5.4348 -20.4514 -2.2550 0.9184
-5.1814 -20.5170 -2.2550 0.9184
-4.4167 -20.6951 -2.2550 0.9184
-4.1604 -20.7482 -2.2550 0.9184
-4.0320 -20.7735 -2.2550 0.9184
-3.9035 -20.7980 -2.2550 0.9184
-3.6460 -20.8447 -2.2550 0.9184
-3.5170 -20.8669 -2.2550 0.9184
-3.3879 -20.8882 -2.2550 0.9184
-2.9984 -20.9380 -2.2539 0.9184
-2.3471 -20.9976 -2.2515 0.9185
-2.0864 -21.0171 -2.2506 0.9185
-1.9560 -21.0259 -2.2502 0.9186
-1.8257 -21.0341 -2.2498 0.9186
-1.4345 -21.0551 -2.2489 0.9186
-0.9129 -21.0744 -2.2478 0.9186
-0.5216 -21.0825 -2.2473 0.9187
-0.3912 -21.0840 -2.2471 0.9187
-0.2608 -21.0848 -2.2470 0.9187
-0.1304 -21.0850 -2.2469 0.9187
0.0000 -21.0847 -2.2468 0.9187
0.1304 -21.0837 -2.2467 0.9187
0.3911 -21.0798 -2.2467 0.9187
0.5215 -21.0770 -2.2467 0.9187
0.6518 -21.0736 -2.2467 0.9187
0.7822 -21.0695 -2.2467 0.9187
0.9125 -21.0648 -2.2468 0.9187
1.0428 -21.0595 -2.2469 0.9187
1.5637 -21.0322 -2.2474 0.9187
1.6939 -21.0238 -2.2476 0.9187
1.8240 -21.0149 -2.2478 0.9186
2.0843 -20.9951 -2.2483 0.9186
2.3444 -20.9729 -2.2488 0.9186
2.4743 -20.9608 -2.2491 0.9186
2.8641 -20.9210 -2.2502 0.9186
2.9939 -20.9065 -2.2505 0.9186
3.2535 -20.8756 -2.2514 0.9185
3.3832 -20.8593 -2.2518 0.9185
3.8950 -20.7528 -2.2501 0.9186
4.0289 -20.7575 -2.2532 0.9185
4.1604 -20.7482 -2.2550 0.9184
4.7999 -20.6096 -2.2550 0.9184
4.9273 -20.5795 -2.2550 0.9184
5.0545 -20.5487 -2.2550 0.9184
5.1814 -20.5170 -2.2550 0.9184
5.3082 -20.4846 -2.2550 0.9184
5.4348 -20.4514 -2.2550 0.9184
5.8133 -20.3470 -2.2550 0.9184
5.9390 -20.3107 -2.2550 0.9184
6.0645 -20.2736 -2.2550 0.9184
6.1898 -20.2357 -2.2550 0.9184
6.4395 -20.1576 -2.2550 0.9184
6.5641 -20.1174 -2.2550 0.9184
6.6884 -20.0764 -2.2550 0.9184
6.8124 -20.0346 -2.2550 0.9184
7.0596 -19.9488 -2.2550 0.9184
7.3058 -19.8600 -2.2550 0.9184
7.7948 -19.6732 -2.2550 0.9184
7.9163 -19.6246 -2.2550 0.9184
8.3993 -19.4229 -2.2550 0.9184
8.9958 -19.1539 -2.2550 0.9184
9.1141 -19.0979 -2.2550 0.9184
9.2320 -19.0412 -2.2550 0.9184
9.4668 -18.9255 -2.2550 0.9184
9.5837 -18.8666 -2.2550 0.9184
9.9320 -18.6856 -2.2550 0.9184
10.0474 -18.6238 -2.2550 0.9184
10.1624 -18.5613 -2.2550 0.9184
10.3912 -18.4342 -2.2550 0.9184
10.8440 -18.1715 -2.2550 0.9184
10.9562 -18.1041 -2.2550 0.9184
11.0679 -18.0361 -2.2550 0.9184
11.7524 -17.8864 -2.2806 0.9175
12.4605 -17.7435 -2.3104 0.9165
12.6034 -17.7130 -2.3166 0.9163
12.7471 -17.6823 -2.3228 0.9160
12.8914 -17.6515 -2.3292 0.9158
13.3247 -17.5516 -2.3482 0.9152
13.6160 -17.4820 -2.3613 0.9147
13.7628 -17.4469 -2.3680 0.9145
13.9105 -17.4115 -2.3748 0.9143
14.2046 -17.3356 -2.3882 0.9138
14.3523 -17.2965 -2.3950 0.9136
14.5008 -17.2572 -2.4020 0.9133
14.6400 -17.2058 -2.4074 0.9131
14.7462 -17.1149 -2.4074 0.9131
14.8517 -17.0234 -2.4074 0.9131
14.9567 -16.9312 -2.4074 0.9131
15.1649 -16.7450 -2.4074 0.9131
15.2682 -16.6508 -2.4074 0.9131
15.4730 -16.4607 -2.4074 0.9131
15.6754 -16.2681 -2.4074 0.9131
15.7758 -16.1708 -2.4074 0.9131
15.8754 -16.0730 -2.4074 0.9131
15.9746 -15.9745 -2.4074 0.9131
16.1709 -15.7757 -2.4074 0.9131
16.2681 -15.6754 -2.4074 0.9131
16.3648 -15.5745 -2.4074 0.9131
16.6509 -15.2682 -2.4074 0.9131
16.7450 -15.1649 -2.4074 0.9131
16.8384 -15.0611 -2.4074 0.9131
17.2058 -14.6400 -2.4074 0.9131
17.3856 -14.4261 -2.4074 0.9131
17.5627 -14.2099 -2.4074 0.9131
17.6502 -14.1011 -2.4074 0.9131
17.7371 -13.9916 -2.4074 0.9131
17.8233 -13.8817 -2.4074 0.9131
17.9088 -13.7712 -2.4074 0.9131
17.9936 -13.6602 -2.4074 0.9131
18.2439 -13.3240 -2.4074 0.9131
18.3259 -13.2109 -2.4074 0.9131
18.4073 -13.0973 -2.4074 0.9131
18.6471 -12.7536 -2.4074 0.9131
18.8035 -12.5220 -2.4074 0.9131
18.9569 -12.2885 -2.4074 0.9131
19.1074 -12.0531 -2.4074 0.9131
19.1815 -11.9347 -2.4074 0.9131
19.2550 -11.8158 -2.4074 0.9131
19.3997 -11.5768 -2.4074 0.9131
19.4709 -11.4566 -2.4074 0.9131
19.7483 -10.9715 -2.4074 0.9131
19.9485 -10.6033 -2.4074 0.9131
20.0137 -10.4797 -2.4074 0.9131
20.1418 -10.2313 -2.4074 0.9131
20.3281 -9.8559 -2.4074 0.9131
20.4484 -9.6037 -2.4074 0.9131
20.5074 -9.4771 -2.4074 0.9131
20.5656 -9.3501 -2.4074 0.9131
20.6797 -9.0950 -2.4074 0.9131
20.7906 -8.8386 -2.4074 0.9131
20.8449 -8.7098 -2.4074 0.9131
21.0540 -8.1916 -2.4074 0.9131
21.1042 -8.0612 -2.4074 0.9131
21.2023 -7.7996 -2.4074 0.9131
21.2501 -7.6683 -2.4074 0.9131
21.2971 -7.5367 -2.4074 0.9131
21.5199 -6.8747 -2.4074 0.9131
21.5620 -6.7415 -2.4074 0.9131
21.6034 -6.6080 -2.4074 0.9131
21.7222 -6.2061 -2.4074 0.9131
21.8690 -5.6670 -2.4074 0.9131
21.9375 -5.3960 -2.4074 0.9131
21.9704 -5.2602 -2.4074 0.9131
22.0025 -5.1243 -2.4074 0.9131
22.0338 -4.9881 -2.4074 0.9131
22.0642 -4.8518 -2.4074 0.9131
22.0938 -4.7152 -2.4074 0.9131
22.2037 -4.1673 -2.4074 0.9131
22.3219 -3.4788 -2.4074 0.9131
22.3430 -3.3407 -2.4074 0.9131
22.4011 -2.9256 -2.4074 0.9131
22.4188 -2.7871 -2.4074 0.9131
22.4516 -2.5096 -2.4074 0.9131
22.4667 -2.3707 -2.4074 0.9131
22.4809 -2.2317 -2.4074 0.9131
22.5068 -1.9535 -2.4074 0.9131
22.5184 -1.8143 -2.4074 0.9131
22.5292 -1.6750 -2.4074 0.9131
22.5482 -1.3962 -2.4074 0.9131
22.5637 -1.1172 -2.4074 0.9131
22.5758 -0.8380 -2.4074 0.9131
22.5845 -0.5588 -2.4074 0.9131
22.5910 -0.1397 -2.4074 0.9131
22.5897 0.2794 -2.4074 0.9131
22.5875 0.4191 -2.4074 0.9131
22.5637 1.1173 -2.4074 0.9131
22.5564 1.2568 -2.4074 0.9131
22.5482 1.3962 -2.4074 0.9131
22.5391 1.5357 -2.4074 0.9131
22.5292 1.6750 -2.4074 0.9131
22.5184 1.8143 -2.4074 0.9131
22.5068 1.9535 -2.4074 0.9131
22.4515 2.5096 -2.4074 0.9131
22.4356 2.6484 -2.4074 0.9131
22.4012 2.9257 -2.4074 0.9131
22.3430 3.3408 -2.4074 0.9131
22.3219 3.4789 -2.4074 0.9131
22.3000 3.6169 -2.4074 0.9131
22.2290 4.0299 -2.4074 0.9131
22.1504 4.4416 -2.4074 0.9131
22.1226 4.5785 -2.4074 0.9131
22.0938 4.7153 -2.4074 0.9131
22.0338 4.9881 -2.4074 0.9131
22.0025 5.1243 -2.4074 0.9131
21.9705 5.2603 -2.4074 0.9131
21.9374 5.3961 -2.4074 0.9131
21.9037 5.5316 -2.4074 0.9131
21.7973 5.9371 -2.4074 0.9131
21.7602 6.0717 -2.4074 0.9131
21.7222 6.2062 -2.4074 0.9131
21.6835 6.3404 -2.4074 0.9131
21.5620 6.7416 -2.4074 0.9131
21.4333 7.1404 -2.4074 0.9131
21.3888 7.2728 -2.4074 0.9131
21.0028 8.3217 -2.4074 0.9131
20.9510 8.4514 -2.4074 0.9131
20.8983 8.5808 -2.4074 0.9131
20.8449 8.7099 -2.4074 0.9131
20.7356 8.9670 -2.4074 0.9131
20.6231 9.2228 -2.4074 0.9131
20.5656 9.3502 -2.4074 0.9131
20.4484 9.6038 -2.4074 0.9131
20.3886 9.7301 -2.4074 0.9131
20.2046 10.1066 -2.4074 0.9131
20.0781 10.3557 -2.4074 0.9131
20.0137 10.4797 -2.4074 0.9131
19.9485 10.6033 -2.4074 0.9131
19.8158 10.8492 -2.4074 0.9131
19.6801 11.0935 -2.4074 0.9131
19.6111 11.2150 -2.4074 0.9131
19.5414 11.3360 -2.4074 0.9131
19.4709 11.4566 -2.4074 0.9131
17.7568 11.5106 -2.2550 0.9184
17.5402 11.8380 -2.2550 0.9184
17.4667 11.9463 -2.2550 0.9184
17.3176 12.1614 -2.2550 0.9184
17.0114 12.5860 -2.2550 0.9184
16.9333 12.6910 -2.2550 0.9184
16.8545 12.7954 -2.2550 0.9184
16.7750 12.8995 -2.2550 0.9184
15.0568 11.7271 -2.0337 0.9261
14.8896 11.8956 -2.0308 0.9262
14.7285 12.0683 -2.0291 0.9263
16.2011 13.6133 -2.2550 0.9184
16.1166 13.7132 -2.2550 0.9184
15.8594 14.0099 -2.2550 0.9184
15.6849 14.2049 -2.2550 0.9184
15.5968 14.3017 -2.2550 0.9184
14.6035 13.5581 -2.1234 0.9230
14.2189 13.5323 -2.0917 0.9241
13.3668 13.5332 -2.0270 0.9263
13.0024 13.4941 -1.9969 0.9274
12.9663 13.6242 -2.0042 0.9271
12.6842 13.6622 -1.9866 0.9278
12.0873 13.6831 -1.9455 0.9292
11.7980 13.6932 -1.9261 0.9299
11.6554 13.6982 -1.9166 0.9302
11.5143 13.7031 -1.9073 0.9305
11.2897 13.6057 -1.8840 0.9314
7.5571 9.5800 -1.3002 0.9521
10.2249 13.6429 -1.8168 0.9337
9.9703 13.6518 -1.8014 0.9343
9.5962 13.6648 -1.7793 0.9350
9.1970 13.6270 -1.7519 0.9360
9.0600 13.7888 -1.7581 0.9358
8.9411 13.7929 -1.7516 0.9360
8.2454 13.8172 -1.7146 0.9373
8.0976 13.7622 -1.7015 0.9378
8.0200 13.8251 -1.7032 0.9377
7.9083 13.8290 -1.6976 0.9379
7.7974 13.8329 -1.6921 0.9381
7.5212 13.7373 -1.6689 0.9389
7.1763 13.3021 -1.6106 0.9410
7.0724 13.3057 -1.6057 0.9412
6.9691 13.3093 -1.6009 0.9414
5.5682 10.7959 -1.2944 0.9523
5.4348 10.6991 -1.2788 0.9529
5.3213 10.6382 -1.2675 0.9533
5.0958 10.5103 -1.2447 0.9541
5.3505 11.2117 -1.3238 0.9513
5.2115 11.2771 -1.3238 0.9513
5.1416 11.3091 -1.3238 0.9513
4.9310 11.4025 -1.3238 0.9513
4.8603 11.4328 -1.3238 0.9513
4.7895 11.4626 -1.3238 0.9513
4.7186 11.4920 -1.3238 0.9513
4.6474 11.5210 -1.3238 0.9513
4.5761 11.5495 -1.3238 0.9513
4.5046 11.5776 -1.3238 0.9513
4.4329 11.6052 -1.3238 0.9513
3.9550 10.5495 -1.2006 0.9557
3.8943 10.5861 -1.2020 0.9556
3.8346 10.6262 -1.2038 0.9556
3.7750 10.6673 -1.2058 0.9555
3.7145 10.7064 -1.2076 0.9554
4.0218 12.5894 -1.4083 0.9482
3.9371 12.5922 -1.4059 0.9483
3.8530 12.5962 -1.4037 0.9484
3.5601 14.0970 -1.5494 0.9432
3.4683 14.1002 -1.5473 0.9433
3.2854 14.1066 -1.5434 0.9434
3.1034 14.1130 -1.5398 0.9435
2.6518 14.1287 -1.5319 0.9438
2.5620 14.1319 -1.5305 0.9439
2.4724 14.1350 -1.5291 0.9439
2.3829 14.1381 -1.5278 0.9440
2.2044 14.1444 -1.5254 0.9440
2.1154 14.1475 -1.5243 0.9441
2.0264 14.1506 -1.5233 0.9441
1.8489 14.1568 -1.5214 0.9442
1.6719 14.1630 -1.5197 0.9442
1.2306 14.1784 -1.5165 0.9444
1.1426 14.1814 -1.5161 0.9444
1.0546 14.1845 -1.5157 0.9444
0.7908 14.1937 -1.5148 0.9444
0.7029 14.1968 -1.5147 0.9444
0.6151 14.1999 -1.5146 0.9444
0.5272 14.2029 -1.5145 0.9444
0.3516 14.2091 -1.5146 0.9444
0.1351 10.9220 -1.1639 0.9570
0.0000 10.8548 -1.1567 0.9573
-0.0669 10.8198 -1.1530 0.9574
-0.3841 12.4171 -1.3238 0.9513
-0.5376 12.4114 -1.3238 0.9513
-0.6144 12.4078 -1.3238 0.9513
-0.7678 12.3993 -1.3238 0.9513
-0.8445 12.3943 -1.3238 0.9513
-0.9211 12.3888 -1.3238 0.9513
-1.0742 12.3765 -1.3238 0.9513
-1.3037 12.3544 -1.3238 0.9513
-1.5901 12.7907 -1.3735 0.9495
-1.4712 10.7464 -1.1558 0.9573
-1.5446 10.7858 -1.1611 0.9571
-1.6976 10.8928 -1.1748 0.9566
-1.8511 10.9830 -1.1869 0.9562
-2.5028 14.3088 -1.5479 0.9432
-2.6867 14.3152 -1.5521 0.9431
-2.9647 14.3249 -1.5588 0.9429
-3.0579 14.3281 -1.5612 0.9428
-3.3392 14.3380 -1.5688 0.9425
-3.4337 14.3412 -1.5714 0.9424
-3.2416 12.8359 -1.4107 0.9481
-3.7188 14.3512 -1.5798 0.9421
-3.5003 12.8510 -1.4193 0.9478
-3.4127 11.9451 -1.3238 0.9513
-3.3704 11.0185 -1.2278 0.9547
-3.4357 10.9887 -1.2269 0.9547
-3.5014 10.9604 -1.2261 0.9548
-3.5633 10.9207 -1.2241 0.9548
-3.6888 10.8486 -1.2210 0.9550
-3.7567 10.8280 -1.2213 0.9549
-4.2168 11.6855 -1.3238 0.9513
-4.2890 11.6592 -1.3238 0.9513
-4.5046 11.5776 -1.3238 0.9513
-4.7186 11.4920 -1.3238 0.9513
-4.7895 11.4626 -1.3238 0.9513
-4.8603 11.4328 -1.3238 0.9513
-6.7680 15.3886 -1.7914 0.9346
-4.9610 10.9119 -1.2773 0.9529
-5.2018 11.0758 -1.3039 0.9520
-7.4730 15.4133 -1.8253 0.9334
-7.8359 15.4259 -1.8437 0.9328
-7.9585 15.4302 -1.8501 0.9325
-8.4576 15.4476 -1.8767 0.9316
-8.7127 15.4565 -1.8907 0.9311
-8.8349 15.0152 -1.8565 0.9323
-8.8683 14.0586 -1.7713 0.9353
-9.1139 13.8709 -1.7686 0.9354
-9.2402 13.8753 -1.7764 0.9351
-9.3676 13.8798 -1.7844 0.9349
-10.8662 15.8875 -2.0511 0.9255
-11.0085 15.0734 -1.9890 0.9277
-11.3047 15.0837 -2.0087 0.9270
-11.4551 15.0889 -2.0187 0.9266
-8.1414 10.4531 -1.4119 0.9481
-8.1299 10.3062 -1.3988 0.9486
-12.5111 15.0777 -2.0878 0.9242
-12.6709 15.0796 -2.0989 0.9238
-12.8358 15.0853 -2.1107 0.9234
-13.0025 15.0912 -2.1227 0.9230
-13.5143 15.1090 -2.1601 0.9217
-13.7374 15.1687 -2.1807 0.9210
-13.9148 15.1749 -2.1940 0.9205
-14.2761 15.1875 -2.2211 0.9196
-14.4602 15.1939 -2.2351 0.9191
-14.8045 15.1754 -2.2592 0.9183
-14.8982 15.0836 -2.2592 0.9183
-14.9913 14.9913 -2.2592 0.9183
-15.0838 14.8984 -2.2592 0.9183
-15.2672 14.7109 -2.2592 0.9182
-15.8903 14.0371 -2.2593 0.9182
-16.0629 13.8397 -2.2594 0.9182
-16.1483 13.7402 -2.2594 0.9182
-16.2330 13.6401 -2.2594 0.9182
-8.4154 6.8954 -1.1593 0.9572
-8.4371 6.8265 -1.1565 0.9573
-16.7285 13.0291 -2.2595 0.9182
-16.8088 12.9254 -2.2595 0.9182
-16.8886 12.8213 -2.2595 0.9182
-9.7414 7.3009 -1.2972 0.9522
-9.6438 7.1350 -1.2783 0.9529
-9.6938 6.8975 -1.2678 0.9533
-9.9092 6.9588 -1.2903 0.9525
-10.0338 6.8626 -1.2954 0.9523
-10.2313 6.9052 -1.3153 0.9516
-10.2975 6.8576 -1.3184 0.9515
-10.3639 6.8097 -1.3214 0.9513
-10.2831 6.6659 -1.3059 0.9519
-10.2173 6.5339 -1.2924 0.9524
-10.3926 6.4663 -1.3043 0.9520
-10.8202 6.6399 -1.3528 0.9502
-10.8631 6.5741 -1.3531 0.9502
-11.1559 6.5641 -1.3793 0.9493
-11.3904 6.5138 -1.3982 0.9486
-11.4988 6.4818 -1.4066 0.9483
-11.5556 6.4199 -1.4087 0.9482
-11.7734 6.1649 -1.4162 0.9479
-12.6106 6.4058 -1.5072 0.9447
-12.6268 6.3161 -1.5045 0.9448
-12.7788 6.2937 -1.5179 0.9443
-13.1639 6.3824 -1.5589 0.9428
-13.3044 6.3493 -1.5709 0.9424
-13.6768 6.3205 -1.6055 0.9412
-14.3928 6.3300 -1.6755 0.9387
-14.8044 6.2937 -1.7142 0.9373
-15.0761 6.2994 -1.7411 0.9364
-15.4943 6.3619 -1.7848 0.9348
-15.4107 6.1060 -1.7664 0.9355
-16.4837 6.2964 -1.8803 0.9315
-16.2938 6.1086 -1.8543 0.9324
-16.9407 6.2319 -1.9235 0.9300
-17.8087 6.3023 -2.0130 0.9268
-17.4903 6.0681 -1.9728 0.9282
-18.9127 6.0418 -2.1157 0.9232
-19.9321 6.2319 -2.2254 0.9194
-20.2998 6.0723 -2.2579 0.9183
-20.3671 5.8190 -2.2572 0.9183
-20.4313 5.5650 -2.2565 0.9183
-20.5796 4.9273 -2.2550 0.9184
-22.0369 4.9888 -2.4077 0.9131
-22.0711 4.8533 -2.4081 0.9131
-22.1740 4.4463 -2.4099 0.9130
-22.2324 4.1727 -2.4105 0.9130
-22.2863 3.8981 -2.4109 0.9130
-22.3120 3.7606 -2.4111 0.9130
-22.3866 3.3473 -2.4121 0.9130
-22.4079 3.2089 -2.4122 0.9130
-22.5135 2.3757 -2.4124 0.9130
-22.5281 2.2364 -2.4124 0.9130
-22.5417 2.0971 -2.4124 0.9130
-22.5545 1.9577 -2.4125 0.9130
-22.5773 1.6786 -2.4125 0.9130
-22.6125 1.1196 -2.4126 0.9130
-22.6247 0.8399 -2.4126 0.9130
-22.6295 0.7000 -2.4126 0.9130
-22.6334 0.5600 -2.4126 0.9129
-22.6365 0.4200 -2.4126 0.9129
-21.1141 -0.1306 -2.4087 0.9185
-21.1039 -0.6527 -2.4086 0.9185
-21.0938 -0.9137 -2.4086 0.9185
-21.0805 -1.1745 -2.4085 0.9185
-21.0726 -1.3048 -2.4085 0.9185
-21.0638 -1.4351 -2.4084 0.9185
-21.0439 -1.6955 -2.4084 0.9185
-21.0206 -1.9555 -2.4083 0.9185
-21.0078 -2.0855 -2.4083 0.9185
-20.9941 -2.2153 -2.4082 0.9185
-20.9482 -2.6043 -2.4081 0.9185
-20.9134 -2.8630 -2.4080 0.9185
-20.8949 -2.9922 -2.4079 0.9185
-20.8755 -3.1213 -2.4079 0.9185
-20.8342 -3.3791 -2.4077 0.9185
-20.7662 -3.7647 -2.4075 0.9185
-20.6912 -4.1490 -2.4074 0.9185
-20.6652 -4.2769 -2.4074 0.9185
-20.6107 -4.5321 -2.4074 0.9185
-20.5823 -4.6595 -2.4074 0.9185
-20.5231 -4.9137 -2.4074 0.9185
-20.4923 -5.0405 -2.4074 0.9185
-20.4284 -5.2936 -2.4074 0.9185
-20.3952 -5.4198 -2.4074 0.9185
-20.3613 -5.5459 -2.4074 0.9185
-20.3267 -5.6717 -2.4074 0.9185
-20.2912 -5.7973 -2.4074 0.9185
-20.2549 -5.9226 -2.4074 0.9185
-20.2179 -6.0478 -2.4074 0.9185
-20.1416 -6.2974 -2.4074 0.9185
-20.1022 -6.4218 -2.4074 0.9185
-20.0622 -6.5460 -2.4074 0.9185
-20.0213 -6.6700 -2.4074 0.9185
-19.9373 -6.9171 -2.4074 0.9185
-19.8941 -7.0402 -2.4074 0.9185
-19.8055 -7.2858 -2.4074 0.9185
-19.6193 -7.7734 -2.4074 0.9185
-19.5708 -7.8946 -2.4074 0.9185
-19.5216 -8.0155 -2.4074 0.9185
-19.4210 -8.2563 -2.4074 0.9185
-19.3174 -8.4959 -2.4074 0.9185
-19.2108 -8.7341 -2.4074 0.9185
-19.1013 -8.9711 -2.4074 0.9185
-19.0455 -9.0890 -2.4074 0.9185
-18.8736 -9.4408 -2.4074 0.9185
-18.6952 -9.7893 -2.4074 0.9185
-18.5727 -10.0198 -2.4074 0.9185
-18.5104 -10.1345 -2.4074 0.9185
-18.4473 -10.2487 -2.4074 0.9185
-18.3836 -10.3626 -2.4074 0.9185
-18.2540 -10.5892 -2.4074 0.9185
-18.1882 -10.7019 -2.4074 0.9185
-18.1217 -10.8141 -2.4074 0.9185
-18.0545 -10.9260 -2.4074 0.9185
-17.9179 -11.1485 -2.4074 0.9185
-17.7787 -11.3692 -2.4074 0.9185
-17.6367 -11.5883 -2.4074 0.9185
-17.5647 -11.6971 -2.4074 0.9185
-17.4187 -11.9134 -2.4074 0.9185
-17.3447 -12.0209 -2.4074 0.9185
-17.0421 -12.4463 -2.4074 0.9185
-16.9647 -12.5514 -2.4074 0.9185
-16.8868 -12.6561 -2.4074 0.9185
-16.8082 -12.7603 -2.4074 0.9185
-16.4874 -13.1721 -2.4074 0.9185
-16.2402 -13.4757 -2.4074 0.9185
-16.0723 -13.6756 -2.4074 0.9185
-15.9020 -13.8733 -2.4074 0.9185
-15.8159 -13.9714 -2.4074 0.9185
-15.7292 -14.0689 -2.4074 0.9185
-15.4654 -14.3583 -2.4074 0.9185
-15.2867 -14.5485 -2.4074 0.9185
-15.1964 -14.6427 -2.4074 0.9185
-14.8296 -15.0141 -2.4074 0.9185
-14.5485 -15.2866 -2.4074 0.9185
-14.4537 -15.3763 -2.4074 0.9185
-14.2624 -15.5539 -2.4074 0.9185
-14.1659 -15.6419 -2.4074 0.9185
-13.9714 -15.8159 -2.4074 0.9185
-13.8733 -15.9020 -2.4074 0.9185
-13.6756 -16.0723 -2.4074 0.9185
-13.3751 -16.3233 -2.4074 0.9185
-13.1721 -16.4874 -2.4074 0.9185
-13.0699 -16.5686 -2.4074 0.9185
-12.9672 -16.6491 -2.4074 0.9185
-12.6561 -16.8868 -2.4074 0.9185
-12.5515 -16.9647 -2.4074 0.9185
-12.4463 -17.0420 -2.4074 0.9185
-12.3407 -17.1187 -2.4074 0.9185
-12.1280 -17.2700 -2.4074 0.9185
-11.8055 -17.4920 -2.4074 0.9185
-11.6971 -17.5647 -2.4074 0.9185
-11.5883 -17.6367 -2.4074 0.9185
-11.4790 -17.7080 -2.4074 0.9185
-11.1485 -17.9179 -2.4074 0.9185
-10.9260 -18.0545 -2.4074 0.9185
-10.8142 -18.1217 -2.4074 0.9185
-10.7019 -18.1882 -2.4074 0.9185
-10.5892 -18.2540 -2.4074 0.9185
-10.4761 -18.3192 -2.4074 0.9185
-10.2487 -18.4473 -2.4074 0.9185
-10.1345 -18.5104 -2.4074 0.9185
-10.0198 -18.5727 -2.4074 0.9185
-9.7893 -18.6952 -2.4074 0.9185
-9.6735 -18.7554 -2.4074 0.9185
-9.5573 -18.8148 -2.4074 0.9185
-9.4272 -18.8464 -2.4039 0.9187
-8.9922 -18.8425 -2.3817 0.9194
-8.7064 -18.8397 -2.3676 0.9198
-8.2839 -18.8354 -2.3473 0.9205
-8.1446 -18.8340 -2.3408 0.9207
-7.5950 -18.8281 -2.3160 0.9215
-7.4594 -18.8266 -2.3101 0.9217
-7.3244 -18.8251 -2.3043 0.9219
-7.1901 -18.8236 -2.2986 0.9221
-7.0565 -18.8221 -2.2931 0.9223
-6.7911 -18.8191 -2.2823 0.9226
-6.6593 -18.8175 -2.2771 0.9228
-6.5281 -18.8159 -2.2720 0.9229
-6.3982 -18.8168 -2.2672 0.9231
-6.2694 -18.8188 -2.2628 0.9232
-6.1412 -18.8207 -2.2584 0.9234
-5.7821 -18.9026 -2.2550 0.9235
-5.6651 -18.9380 -2.2550 0.9235
-5.3126 -19.0399 -2.2550 0.9235
-5.0767 -19.1041 -2.2550 0.9235
-4.7215 -19.1950 -2.2550 0.9235
-4.6026 -19.2238 -2.2550 0.9235
-4.1258 -19.3318 -2.2550 0.9235
-3.8863 -19.3813 -2.2550 0.9235
-3.6463 -19.4279 -2.2550 0.9235
-3.5261 -19.4501 -2.2550 0.9235
-3.1647 -19.5121 -2.2550 0.9235
-3.0440 -19.5314 -2.2550 0.9235
-2.9231 -19.5498 -2.2550 0.9235
-2.8021 -19.5675 -2.2550 0.9235
-2.6811 -19.5845 -2.2550 0.9235
-2.5599 -19.6007 -2.2550 0.9235
-2.1959 -19.6448 -2.2550 0.9235
-1.9528 -19.6705 -2.2550 0.9235
-1.8310 -19.6821 -2.2550 0.9235
-1.7093 -19.6931 -2.2550 0.9235
-1.5875 -19.7033 -2.2550 0.9235
-1.4656 -19.7127 -2.2550 0.9235
-1.3437 -19.7214 -2.2550 0.9235
-1.2217 -19.7293 -2.2550 0.9235
-1.0996 -19.7365 -2.2550 0.9235
-0.7333 -19.7535 -2.2550 0.9235
-0.6111 -19.7577 -2.2550 0.9235
-0.4889 -19.7611 -2.2550 0.9235
-0.3667 -19.7637 -2.2550 0.9235
-0.1222 -19.7668 -2.2550 0.9235
0.1222 -19.7668 -2.2550 0.9235
0.2446 -19.7656 -2.2550 0.9235
0.3667 -19.7638 -2.2550 0.9235
0.4889 -19.7611 -2.2550 0.9235
0.6112 -19.7577 -2.2550 0.9235
0.7333 -19.7535 -2.2550 0.9235
1.0996 -19.7365 -2.2550 0.9235
1.7093 -19.6931 -2.2550 0.9235
1.8311 -19.6821 -2.2550 0.9235
2.0744 -19.6580 -2.2550 0.9235
2.3173 -19.6309 -2.2550 0.9235
3.0440 -19.5314 -2.2550 0.9235
3.1647 -19.5121 -2.2550 0.9235
3.4058 -19.4715 -2.2550 0.9235
3.5262 -19.4501 -2.2550 0.9235
3.6463 -19.4279 -2.2550 0.9235
3.7665 -19.4050 -2.2550 0.9235
3.8863 -19.3813 -2.2550 0.9235
4.0062 -19.3569 -2.2550 0.9235
4.1258 -19.3318 -2.2550 0.9235
4.4837 -19.2519 -2.2550 0.9235
4.7215 -19.1950 -2.2550 0.9235
4.9585 -19.1351 -2.2550 0.9235
5.3126 -19.0399 -2.2550 0.9235
5.5478 -18.9727 -2.2550 0.9235
5.6650 -18.9380 -2.2550 0.9235
5.8988 -18.8665 -2.2550 0.9235
6.0153 -18.8296 -2.2550 0.9235
6.1316 -18.7921 -2.2550 0.9235
6.2478 -18.7538 -2.2550 0.9235
6.5946 -18.6347 -2.2550 0.9235
6.8246 -18.5517 -2.2550 0.9235
7.1887 -18.4763 -2.2616 0.9233
7.3153 -18.4630 -2.2655 0.9232
7.4420 -18.4487 -2.2693 0.9230
7.5700 -18.4366 -2.2736 0.9229
7.6988 -18.4252 -2.2780 0.9228
7.8281 -18.4137 -2.2825 0.9226
7.9579 -18.4021 -2.2871 0.9225
8.2190 -18.3785 -2.2966 0.9221
8.4796 -18.3489 -2.3059 0.9218
8.6108 -18.3340 -2.3107 0.9217
8.8746 -18.3040 -2.3205 0.9214
9.1408 -18.2737 -2.3308 0.9210
9.4066 -18.2378 -2.3409 0.9207
9.6744 -18.2008 -2.3514 0.9204
10.3518 -18.1018 -2.3788 0.9195
10.4880 -18.0795 -2.3843 0.9193
11.8056 -17.4920 -2.4074 0.9185
12.0210 -17.3446 -2.4074 0.9185
12.2346 -17.1946 -2.4074 0.9185
12.5515 -16.9647 -2.4074 0.9185
12.6562 -16.8868 -2.4074 0.9185
13.0699 -16.5686 -2.4074 0.9185
13.1722 -16.4874 -2.4074 0.9185
13.2739 -16.4056 -2.4074 0.9185
13.3751 -16.3232 -2.4074 0.9185
13.4758 -16.2402 -2.4074 0.9185
13.6756 -16.0722 -2.4074 0.9185
13.9714 -15.8158 -2.4074 0.9185
14.1660 -15.6419 -2.4074 0.9185
14.2624 -15.5539 -2.4074 0.9185
14.4537 -15.3763 -2.4074 0.9185
14.5485 -15.2866 -2.4074 0.9185
14.6428 -15.1964 -2.4074 0.9185
15.0142 -14.8296 -2.4074 0.9185
15.1056 -14.7364 -2.4074 0.9185
15.1964 -14.6427 -2.4074 0.9185
15.2867 -14.5485 -2.4074 0.9185
15.5540 -14.2624 -2.4074 0.9185
15.8159 -13.9714 -2.4074 0.9185
16.4057 -13.2738 -2.4074 0.9185
16.4875 -13.1721 -2.4074 0.9185
16.6492 -12.9672 -2.4074 0.9185
16.8868 -12.6561 -2.4074 0.9185
17.0421 -12.4463 -2.4074 0.9185
17.1947 -12.2346 -2.4074 0.9185
17.2700 -12.1280 -2.4074 0.9185
17.6367 -11.5882 -2.4074 0.9185
17.7788 -11.3694 -2.4074 0.9185
17.8486 -11.2591 -2.4074 0.9185
17.9179 -11.1485 -2.4074 0.9185
18.1882 -10.7019 -2.4074 0.9185
18.2541 -10.5892 -2.4074 0.9185
18.3192 -10.4761 -2.4074 0.9185
18.3836 -10.3626 -2.4074 0.9185
18.5104 -10.1344 -2.4074 0.9185
18.5727 -10.0198 -2.4074 0.9185
18.6343 -9.9047 -2.4074 0.9185
18.6952 -9.7893 -2.4074 0.9185
18.7554 -9.6735 -2.4074 0.9185
18.8736 -9.4408 -2.4074 0.9185
18.9889 -9.2066 -2.4074 0.9185
19.0455 -9.0890 -2.4074 0.9185
19.1013 -8.9711 -2.4074 0.9185
19.1565 -8.8528 -2.4074 0.9185
19.3174 -8.4959 -2.4074 0.9185
19.3696 -8.3762 -2.4074 0.9185
19.4210 -8.2563 -2.4074 0.9185
19.4717 -8.1360 -2.4074 0.9185
19.5708 -7.8946 -2.4074 0.9185
19.6193 -7.7734 -2.4074 0.9185
19.7601 -7.4081 -2.4074 0.9185
19.8941 -7.0402 -2.4074 0.9185
19.9373 -6.9171 -2.4074 0.9185
19.9797 -6.7937 -2.4074 0.9185
20.0622 -6.5460 -2.4074 0.9185
20.1023 -6.4219 -2.4074 0.9185
20.1802 -6.1727 -2.4074 0.9185
20.2179 -6.0478 -2.4074 0.9185
20.2549 -5.9226 -2.4074 0.9185
20.2912 -5.7973 -2.4074 0.9185
20.3267 -5.6717 -2.4074 0.9185
20.3614 -5.5459 -2.4074 0.9185
20.3953 -5.4198 -2.4074 0.9185
20.4284 -5.2936 -2.4074 0.9185
20.4607 -5.1671 -2.4074 0.9185
20.4923 -5.0405 -2.4074 0.9185
20.5231 -4.9137 -2.4074 0.9185
20.5531 -4.7867 -2.4074 0.9185
20.5823 -4.6595 -2.4074 0.9185
20.6107 -4.5321 -2.4074 0.9185
20.6383 -4.4046 -2.4074 0.9185
20.6912 -4.1490 -2.4074 0.9185
20.7410 -3.8928 -2.4074 0.9185
20.7646 -3.7644 -2.4074 0.9185
20.7875 -3.6360 -2.4074 0.9185
20.8096 -3.5073 -2.4074 0.9185
20.8309 -3.3786 -2.4074 0.9185
20.8711 -3.1206 -2.4074 0.9185
20.9725 -2.3443 -2.4074 0.9185
21.0450 -1.5646 -2.4074 0.9185
21.0543 -1.4345 -2.4074 0.9185
21.0773 -1.0436 -2.4074 0.9185
21.1027 -0.1305 -2.4074 0.9185
21.1031 0.0000 -2.4074 0.9185
21.0930 0.6525 -2.4074 0.9185
21.0886 0.7829 -2.4074 0.9185
21.0833 0.9133 -2.4074 0.9185
21.0628 1.3043 -2.4074 0.9185
21.0124 1.9548 -2.4074 0.9185
20.9867 2.2145 -2.4074 0.9185
20.9419 2.6035 -2.4074 0.9185
20.9254 2.7329 -2.4074 0.9185
20.8900 2.9916 -2.4074 0.9185
20.8711 3.1207 -2.4074 0.9185
20.8309 3.3786 -2.4074 0.9185
20.8096 3.5074 -2.4074 0.9185
20.7875 3.6360 -2.4074 0.9185
20.7646 3.7645 -2.4074 0.9185
20.7410 3.8928 -2.4074 0.9185
20.7165 4.0210 -2.4074 0.9185
20.6913 4.1490 -2.4074 0.9185
20.5531 4.7867 -2.4074 0.9185
20.5231 4.9138 -2.4074 0.9185
20.4923 5.0406 -2.4074 0.9185
20.4607 5.1672 -2.4074 0.9185
20.4284 5.2936 -2.4074 0.9185
20.3267 5.6717 -2.4074 0.9185
20.2549 5.9227 -2.4074 0.9185
20.2179 6.0479 -2.4074 0.9185
20.1801 6.1728 -2.4074 0.9185
20.1023 6.4219 -2.4074 0.9185
20.0213 6.6700 -2.4074 0.9185
19.9797 6.7937 -2.4074 0.9185
19.9372 6.9171 -2.4074 0.9185
19.8941 7.0403 -2.4074 0.9185
19.6193 7.7734 -2.4074 0.9185
19.4717 8.1361 -2.4074 0.9185
19.4210 8.2563 -2.4074 0.9185
19.3696 8.3763 -2.4074 0.9185
19.2645 8.6152 -2.4074 0.9185
19.1013 8.9711 -2.4074 0.9185
18.9889 9.2067 -2.4074 0.9185
18.8736 9.4408 -2.4074 0.9185
18.8149 9.5574 -2.4074 0.9185
18.7554 9.6735 -2.4074 0.9185
18.6952 9.7894 -2.4074 0.9185
18.6343 9.9048 -2.4074 0.9185
18.3836 10.3626 -2.4074 0.9185
18.3192 10.4761 -2.4074 0.9185
18.1882 10.7019 -2.4074 0.9185
16.6532 10.6496 -2.2550 0.9235
16.5870 10.7523 -2.2550 0.9235
16.5202 10.8547 -2.2550 0.9235
16.3847 11.0582 -2.2550 0.9235
16.2467 11.2600 -2.2550 0.9235
15.8908 11.7569 -2.2550 0.9235
15.7442 11.9525 -2.2550 0.9235
15.6699 12.0496 -2.2550 0.9235
14.8896 11.8956 -2.1740 0.9261
14.8090 11.9820 -2.1731 0.9262
14.6493 12.1556 -2.1715 0.9262
15.1338 12.7165 -2.2550 0.9235
14.9754 12.9027 -2.2550 0.9235
14.6516 13.2691 -2.2550 0.9235
14.4029 13.5387 -2.2550 0.9235
14.2189 13.5323 -2.2392 0.9240
14.0212 13.5103 -2.2212 0.9246
13.8547 13.5162 -2.2080 0.9250
13.5276 13.5276 -2.1824 0.9259
13.3668 13.5332 -2.1699 0.9263
13.2079 13.5387 -2.1577 0.9267
12.8476 13.4995 -2.1259 0.9277
12.6945 13.5048 -2.1143 0.9281
12.2854 13.5655 -2.0878 0.9290
12.2013 13.6412 -2.0878 0.9290
11.7980 13.6932 -2.0619 0.9298
7.5571 9.5800 -1.3919 0.9521
10.2249 13.6429 -1.9449 0.9337
9.9703 13.6518 -1.9284 0.9342
9.8446 13.6562 -1.9204 0.9345
9.5962 13.6648 -1.9048 0.9350
9.4736 13.6691 -1.8972 0.9352
9.1798 13.7846 -1.8893 0.9355
9.0600 13.7888 -1.8821 0.9357
8.9411 13.7929 -1.8751 0.9360
8.6964 13.7862 -1.8594 0.9365
8.5896 13.8052 -1.8548 0.9366
8.3224 13.7521 -1.8337 0.9373
8.2082 13.7547 -1.8272 0.9375
8.0947 13.7572 -1.8209 0.9378
7.8702 13.7623 -1.8085 0.9382
7.6016 13.6827 -1.7856 0.9389
7.5212 13.7373 -1.7866 0.9389
7.1763 13.3021 -1.7242 0.9410
7.0724 13.3057 -1.7190 0.9411
5.4436 10.7165 -1.3712 0.9528
4.9945 10.8076 -1.3582 0.9532
4.8932 10.7626 -1.3487 0.9535
4.8068 10.7485 -1.3432 0.9537
4.7211 10.7346 -1.3378 0.9539
4.5586 10.7229 -1.3292 0.9542
4.4165 10.7563 -1.3264 0.9543
4.3457 10.7730 -1.3252 0.9543
4.1529 10.8722 -1.3277 0.9542
3.9599 10.5625 -1.2868 0.9556
3.8388 10.6379 -1.2901 0.9555
3.8260 11.2520 -1.3558 0.9533
3.5943 10.7892 -1.2973 0.9552
3.4740 10.8746 -1.3023 0.9551
3.9345 12.5840 -1.5041 0.9483
3.6492 12.4797 -1.4832 0.9490
3.7445 14.0906 -1.6632 0.9430
3.6521 14.0938 -1.6609 0.9431
3.5601 14.0970 -1.6586 0.9431
3.4683 14.1002 -1.6564 0.9432
3.3767 14.1034 -1.6543 0.9433
2.9221 14.1193 -1.6448 0.9436
2.7417 14.1256 -1.6415 0.9437
2.6518 14.1287 -1.6399 0.9438
2.5620 14.1319 -1.6384 0.9438
2.4724 14.1350 -1.6369 0.9439
2.3829 14.1381 -1.6356 0.9439
2.2936 14.1413 -1.6343 0.9440
2.2044 14.1444 -1.6330 0.9440
2.1154 14.1475 -1.6318 0.9440
2.0264 14.1506 -1.6307 0.9441
1.9376 14.1537 -1.6297 0.9441
1.7604 14.1599 -1.6277 0.9442
1.5835 14.1661 -1.6261 0.9442
1.4952 14.1691 -1.6253 0.9443
1.1426 14.1814 -1.6230 0.9443
0.9666 14.1876 -1.6222 0.9444
0.7908 14.1937 -1.6217 0.9444
0.6151 14.1999 -1.6214 0.9444
0.4394 14.2060 -1.6213 0.9444
0.2637 14.2121 -1.6215 0.9444
0.0674 10.8991 -1.2433 0.9571
0.0000 10.8675 -1.2397 0.9572
-0.0671 10.8548 -1.2383 0.9572
-0.2652 10.7202 -1.2233 0.9577
-0.3588 11.5991 -1.3238 0.9544
-0.5739 11.5904 -1.3238 0.9544
-0.6456 11.5867 -1.3238 0.9544
-0.7172 11.5825 -1.3238 0.9544
-0.8604 11.5727 -1.3238 0.9544
-0.9319 11.5671 -1.3238 0.9544
-1.0035 11.5612 -1.3238 0.9544
-1.2178 11.5406 -1.3238 0.9544
-1.3604 11.5246 -1.3238 0.9544
-1.4317 11.5160 -1.3238 0.9544
-1.5028 11.5069 -1.3238 0.9544
-1.5469 10.8022 -1.2448 0.9570
-1.7767 10.9541 -1.2659 0.9563
-1.8541 11.0009 -1.2726 0.9561
-2.5946 14.3120 -1.6593 0.9431
-2.6867 14.3152 -1.6615 0.9430
-2.8718 14.3216 -1.6663 0.9429
-2.9647 14.3249 -1.6688 0.9428
-3.0579 14.3281 -1.6713 0.9427
-3.1514 14.3314 -1.6739 0.9426
-3.2452 14.3347 -1.6766 0.9425
-3.3392 14.3380 -1.6794 0.9425
-3.6234 14.3479 -1.6881 0.9422
-3.7188 14.3512 -1.6912 0.9421
-3.8146 14.3546 -1.6943 0.9420
-3.5026 12.8596 -1.5204 0.9478
-3.5873 12.8564 -1.5226 0.9477
-3.5056 10.9736 -1.3142 0.9547
-3.5670 10.9323 -1.3118 0.9548
-3.6295 10.8948 -1.3100 0.9548
-3.7593 10.8354 -1.3083 0.9549
-4.0663 11.0537 -1.3436 0.9537
-4.1396 11.0417 -1.3452 0.9536
-4.2130 11.0297 -1.3469 0.9536
-4.2924 11.0323 -1.3504 0.9535
-4.3792 11.0528 -1.3562 0.9533
-4.5552 11.0942 -1.3681 0.9529
-4.6615 11.1562 -1.3793 0.9525
-4.7786 11.2405 -1.3933 0.9520
-6.7680 15.3886 -1.9177 0.9346
-6.8837 15.3927 -1.9235 0.9344
-5.2083 11.0896 -1.3976 0.9519
-7.3536 15.4091 -1.9477 0.9336
-7.4730 15.4133 -1.9540 0.9334
-7.8359 15.4259 -1.9737 0.9327
-8.2063 15.4388 -1.9945 0.9320
-8.3315 15.4432 -2.0017 0.9318
-8.4576 15.4476 -2.0090 0.9316
-8.5847 15.4521 -2.0165 0.9313
-8.8278 15.2177 -2.0069 0.9316
-8.8349 15.0152 -1.9874 0.9323
-8.8418 14.8166 -1.9683 0.9329
-8.8486 14.6217 -1.9496 0.9335
-8.8619 14.2429 -1.9136 0.9347
-8.8746 13.8777 -1.8791 0.9358
-8.9888 13.8666 -1.8851 0.9356
-9.2402 13.8753 -1.9017 0.9351
-9.3676 13.8798 -1.9102 0.9348
-10.8867 15.3004 -2.1421 0.9272
-10.8933 15.1110 -2.1250 0.9277
-11.0085 15.0734 -2.1293 0.9276
-11.3047 15.0837 -2.1503 0.9269
-8.2828 10.3675 -1.5138 0.9480
-8.4572 10.4527 -1.5338 0.9473
-12.8317 15.0806 -2.2588 0.9234
-12.9248 15.0011 -2.2588 0.9234
-13.2012 14.7590 -2.2589 0.9234
-13.8282 14.1746 -2.2590 0.9234
-13.9157 14.0889 -2.2590 0.9234
-14.0026 14.0026 -2.2590 0.9234
-14.0891 13.9159 -2.2590 0.9234
-14.1749 13.8286 -2.2590 0.9234
-14.5130 13.4741 -2.2591 0.9234
-14.5962 13.3842 -2.2591 0.9234
-14.7608 13.2028 -2.2591 0.9234
-14.9231 13.0193 -2.2592 0.9234
-15.0034 12.9269 -2.2592 0.9234
-8.6027 7.3198 -1.2885 0.9555
-8.3933 7.0527 -1.2506 0.9568
-8.3975 6.8808 -1.2385 0.9572
-9.0461 6.9562 -1.3018 0.9551
-9.0287 6.6799 -1.2812 0.9558
-9.0790 6.5449 -1.2768 0.9559
-9.6420 6.6825 -1.3383 0.9539
-9.7693 6.6817 -1.3502 0.9535
-9.9542 6.6290 -1.3643 0.9530
-9.9829 6.5593 -1.3626 0.9530
-10.0898 6.5406 -1.3717 0.9527
-10.2155 6.5327 -1.3833 0.9524
-10.3148 6.5067 -1.3912 0.9521
-10.3668 6.4502 -1.3928 0.9520
-10.6266 6.4309 -1.4169 0.9512
-10.8765 6.4906 -1.4449 0.9503
-10.6621 6.1851 -1.4061 0.9516
-11.5799 6.3400 -1.5060 0.9482
-11.9226 6.4321 -1.5454 0.9469
-12.0015 6.3792 -1.5505 0.9468
-12.6740 6.3397 -1.6166 0.9445
-12.8416 6.3246 -1.6329 0.9440
-13.1728 6.3868 -1.6700 0.9428
-13.4677 6.3252 -1.6973 0.9419
-13.8940 6.3169 -1.7411 0.9404
-13.7222 6.1367 -1.7148 0.9413
-14.5996 6.2067 -1.8097 0.9381
-15.6808 6.1011 -1.9194 0.9345
-16.6104 6.3447 -2.0284 0.9309
-17.2594 6.2282 -2.0932 0.9288
-17.5132 6.0761 -2.1147 0.9281
-18.8297 6.0153 -2.2550 0.9235
-18.9727 5.5477 -2.2550 0.9235
-19.0842 5.1981 -2.2564 0.9235
-19.1960 4.7217 -2.2551 0.9235
-19.2238 4.6027 -2.2550 0.9235
-20.6107 4.5321 -2.4074 0.9185
-20.6383 4.4046 -2.4074 0.9185
-20.6670 4.2773 -2.4076 0.9185
-20.7212 4.0219 -2.4079 0.9185
-20.7936 3.6370 -2.4081 0.9185
-20.8162 3.5085 -2.4081 0.9185
-20.8588 3.2508 -2.4082 0.9185
-20.9166 2.8635 -2.4083 0.9185
-20.9670 2.4750 -2.4084 0.9185
-20.9965 2.2156 -2.4085 0.9185
-21.0347 1.8258 -2.4086 0.9185
-21.0457 1.6956 -2.4086 0.9185
-21.0560 1.5655 -2.4086 0.9185
-21.0654 1.4353 -2.4086 0.9185
-21.0740 1.3050 -2.4086 0.9185
-21.1001 0.7833 -2.4087 0.9185
-21.1082 0.5223 -2.4087 0.9185
-21.1130 0.2612 -2.4087 0.9185
-21.1142 0.1306 -2.4087 0.9185
-19.7968 -0.0012 -2.4074 0.9233
-19.7907 -0.4904 -2.4074 0.9233
-19.7873 -0.6120 -2.4074 0.9233
-19.7782 -0.8567 -2.4074 0.9233
-19.7661 -1.1013 -2.4074 0.9233
-19.7589 -1.2235 -2.4074 0.9233
-19.7510 -1.3456 -2.4074 0.9233
-19.7423 -1.4678 -2.4074 0.9233
-19.7328 -1.5898 -2.4074 0.9233
-19.7226 -1.7119 -2.4074 0.9233
-19.6999 -1.9556 -2.4074 0.9233
-19.6874 -2.0774 -2.4074 0.9233
-19.6301 -2.5638 -2.4074 0.9233
-19.6138 -2.6851 -2.4074 0.9233
-19.5414 -3.1694 -2.4074 0.9233
-19.5007 -3.4109 -2.4074 0.9233
-19.4792 -3.5314 -2.4074 0.9233
-19.4341 -3.7721 -2.4074 0.9233
-19.3859 -4.0121 -2.4074 0.9233
-19.3608 -4.1320 -2.4074 0.9233
-19.3348 -4.2516 -2.4074 0.9233
-19.3082 -4.3711 -2.4074 0.9233
-19.2526 -4.6096 -2.4074 0.9233
-19.1638 -4.9659 -2.4074 0.9233
-19.1009 -5.2026 -2.4074 0.9233
-19.0684 -5.3206 -2.4074 0.9233
-19.0351 -5.4384 -2.4074 0.9233
-19.0011 -5.5560 -2.4074 0.9233
-18.9664 -5.6734 -2.4074 0.9233
-18.9309 -5.7906 -2.4074 0.9233
-18.8203 -6.1408 -2.4074 0.9233
-18.7429 -6.3731 -2.4074 0.9233
-18.7031 -6.4889 -2.4074 0.9233
-18.6626 -6.6044 -2.4074 0.9233
-18.6214 -6.7197 -2.4074 0.9233
-18.5795 -6.8347 -2.4074 0.9233
-18.5369 -6.9495 -2.4074 0.9233
-18.4495 -7.1783 -2.4074 0.9233
-18.4048 -7.2922 -2.4074 0.9233
-18.2663 -7.6324 -2.4074 0.9233
-18.2188 -7.7452 -2.4074 0.9233
-18.1705 -7.8577 -2.4074 0.9233
-17.9189 -8.4157 -2.4074 0.9233
-17.7052 -8.8564 -2.4074 0.9233
-17.5944 -9.0747 -2.4074 0.9233
-17.3645 -9.5071 -2.4074 0.9233
-17.3054 -9.6143 -2.4074 0.9233
-17.2456 -9.7211 -2.4074 0.9233
-17.1852 -9.8276 -2.4074 0.9233
-17.1241 -9.9337 -2.4074 0.9233
-17.0623 -10.0394 -2.4074 0.9233
-16.9999 -10.1447 -2.4074 0.9233
-16.6119 -10.7684 -2.4074 0.9233
-16.4774 -10.9730 -2.4074 0.9233
-16.4092 -11.0747 -2.4074 0.9233
-16.3404 -11.1760 -2.4074 0.9233
-16.0590 -11.5767 -2.4074 0.9233
-15.9871 -11.6758 -2.4074 0.9233
-15.6185 -12.1645 -2.4074 0.9233
-15.5429 -12.2608 -2.4074 0.9233
-15.4668 -12.3567 -2.4074 0.9233
-14.9176 -13.0145 -2.4074 0.9233
-14.8368 -13.1065 -2.4074 0.9233
-14.6736 -13.2890 -2.4074 0.9233
-14.5911 -13.3795 -2.4074 0.9233
-14.2557 -13.7363 -2.4074 0.9233
-14.1705 -13.8242 -2.4074 0.9233
-14.0847 -13.9116 -2.4074 0.9233
-13.9116 -14.0847 -2.4074 0.9233
-13.5590 -14.4245 -2.4074 0.9233
-13.3795 -14.5911 -2.4074 0.9233
-13.1980 -14.7555 -2.4074 0.9233
-12.9220 -14.9978 -2.4074 0.9233
-12.8290 -15.0774 -2.4074 0.9233
-12.4522 -15.3901 -2.4074 0.9233
-12.3567 -15.4668 -2.4074 0.9233
-12.0677 -15.6934 -2.4074 0.9233
-11.8727 -15.8415 -2.4074 0.9233
-11.6758 -15.9871 -2.4074 0.9233
-11.5768 -16.0590 -2.4074 0.9233
-11.4772 -16.1302 -2.4074 0.9233
-11.3772 -16.2009 -2.4074 0.9233
-11.2769 -16.2710 -2.4074 0.9233
-11.1760 -16.3404 -2.4074 0.9233
-10.8709 -16.5449 -2.4074 0.9233
-10.7684 -16.6118 -2.4074 0.9233
-10.6655 -16.6781 -2.4074 0.9233
-10.4584 -16.8088 -2.4074 0.9233
-10.2497 -16.9368 -2.4074 0.9233
-10.1448 -16.9999 -2.4074 0.9233
-9.9337 -17.1241 -2.4074 0.9233
-9.8276 -17.1851 -2.4074 0.9233
-9.7212 -17.2456 -2.4074 0.9233
-9.6143 -17.3054 -2.4074 0.9233
-9.5071 -17.3645 -2.4074 0.9233
-9.3996 -17.4230 -2.4074 0.9233
-9.0747 -17.5943 -2.4074 0.9233
-8.8564 -17.7053 -2.4074 0.9233
-8.7467 -17.7597 -2.4074 0.9233
-8.6367 -17.8134 -2.4074 0.9233
-8.5264 -17.8665 -2.4074 0.9233
-8.4158 -17.9189 -2.4074 0.9233
-8.3048 -17.9706 -2.4074 0.9233
-8.1935 -18.0216 -2.4074 0.9233
-8.0819 -18.0719 -2.4074 0.9233
-7.9700 -18.1216 -2.4074 0.9233
-7.8577 -18.1705 -2.4074 0.9233
-7.6324 -18.2663 -2.4074 0.9233
-7.5193 -18.3132 -2.4074 0.9233
-7.4059 -18.3593 -2.4074 0.9233
-7.1783 -18.4495 -2.4074 0.9233
-7.0641 -18.4935 -2.4074 0.9233
-6.7197 -18.6214 -2.4074 0.9233
-6.6045 -18.6626 -2.4074 0.9233
-6.3731 -18.7429 -2.4074 0.9233
-6.1290 -18.7841 -2.4027 0.9235
-5.7439 -18.7783 -2.3879 0.9239
-5.6166 -18.7763 -2.3832 0.9241
-5.3634 -18.7724 -2.3741 0.9243
-5.2375 -18.7704 -2.3697 0.9245
-5.1120 -18.7684 -2.3655 0.9246
-4.9870 -18.7664 -2.3613 0.9247
-4.8624 -18.7644 -2.3572 0.9249
-4.6145 -18.7604 -2.3493 0.9251
-4.2457 -18.7542 -2.3383 0.9254
-3.5175 -18.7417 -2.3189 0.9260
-3.2774 -18.7374 -2.3131 0.9262
-3.1577 -18.7353 -2.3104 0.9263
-3.0384 -18.7331 -2.3078 0.9264
-2.9192 -18.7309 -2.3052 0.9265
-2.8004 -18.7288 -2.3028 0.9265
-2.6817 -18.7266 -2.3005 0.9266
-2.4452 -18.7221 -2.2960 0.9267
-2.3272 -18.7199 -2.2939 0.9268
-2.2095 -18.7177 -2.2919 0.9269
-2.0920 -18.7154 -2.2900 0.9269
-1.8575 -18.7109 -2.2865 0.9270
-1.7404 -18.7086 -2.2849 0.9271
-1.5070 -18.7040 -2.2818 0.9272
-1.2740 -18.6993 -2.2792 0.9273
-1.0415 -18.6946 -2.2769 0.9273
-0.8096 -18.6898 -2.2749 0.9274
-0.6937 -18.6874 -2.2740 0.9274
-0.5779 -18.6850 -2.2732 0.9274
-0.4622 -18.6825 -2.2726 0.9275
-0.3466 -18.6801 -2.2720 0.9275
-0.2310 -18.6776 -2.2714 0.9275
-0.1154 -18.6751 -2.2710 0.9275
0.0000 -18.6726 -2.2707 0.9275
0.1154 -18.6701 -2.2704 0.9275
0.2309 -18.6676 -2.2702 0.9275
0.3464 -18.6650 -2.2701 0.9275
0.4618 -18.6625 -2.2701 0.9275
0.5772 -18.6599 -2.2702 0.9275
0.8081 -18.6547 -2.2706 0.9275
0.9236 -18.6521 -2.2709 0.9275
1.0391 -18.6495 -2.2714 0.9275
1.2703 -18.6441 -2.2725 0.9275
1.5017 -18.6387 -2.2739 0.9274
1.9656 -18.6277 -2.2778 0.9273
2.0819 -18.6249 -2.2790 0.9273
2.1982 -18.6221 -2.2802 0.9272
2.4314 -18.6164 -2.2831 0.9271
2.5482 -18.6136 -2.2846 0.9271
2.7823 -18.6078 -2.2879 0.9270
3.0170 -18.6019 -2.2916 0.9269
3.2527 -18.5959 -2.2957 0.9268
3.6076 -18.5868 -2.3024 0.9265
3.7264 -18.5837 -2.3048 0.9265
3.9648 -18.5774 -2.3100 0.9263
4.0844 -18.5743 -2.3127 0.9262
4.5656 -18.5614 -2.3244 0.9259
4.8081 -18.5549 -2.3309 0.9257
5.0521 -18.5482 -2.3377 0.9255
5.9153 -18.5165 -2.3638 0.9247
6.0401 -18.5115 -2.3679 0.9245
6.4158 -18.4924 -2.3802 0.9242
6.5414 -18.4843 -2.3844 0.9240
7.0480 -18.4515 -2.4019 0.9235
7.1758 -18.4432 -2.4065 0.9234
7.2922 -18.4048 -2.4074 0.9233
7.4059 -18.3593 -2.4074 0.9233
7.6324 -18.2663 -2.4074 0.9233
7.8578 -18.1705 -2.4074 0.9233
8.0819 -18.0719 -2.4074 0.9233
8.3048 -17.9706 -2.4074 0.9233
8.4158 -17.9189 -2.4074 0.9233
8.7468 -17.7597 -2.4074 0.9233
9.1833 -17.5379 -2.4074 0.9233
9.2917 -17.4808 -2.4074 0.9233
9.6144 -17.3054 -2.4074 0.9233
9.7212 -17.2456 -2.4074 0.9233
9.9337 -17.1240 -2.4074 0.9233
10.5622 -16.7437 -2.4074 0.9233
10.6655 -16.6781 -2.4074 0.9233
10.9731 -16.4774 -2.4074 0.9233
11.1760 -16.3404 -2.4074 0.9233
11.2769 -16.2710 -2.4074 0.9233
11.3772 -16.2009 -2.4074 0.9233
11.4772 -16.1303 -2.4074 0.9233
11.6758 -15.9871 -2.4074 0.9233
11.7745 -15.9146 -2.4074 0.9233
11.9704 -15.7677 -2.4074 0.9233
12.0677 -15.6934 -2.4074 0.9233
12.2609 -15.5429 -2.4074 0.9233
12.5471 -15.3129 -2.4074 0.9233
12.6416 -15.2349 -2.4074 0.9233
12.8290 -15.0774 -2.4074 0.9233
12.9220 -14.9978 -2.4074 0.9233
13.0146 -14.9176 -2.4074 0.9233
13.2890 -14.6736 -2.4074 0.9233
13.3795 -14.5911 -2.4074 0.9233
13.4695 -14.5081 -2.4074 0.9233
13.6479 -14.3404 -2.4074 0.9233
13.8242 -14.1705 -2.4074 0.9233
13.9116 -14.0847 -2.4074 0.9233
13.9984 -13.9984 -2.4074 0.9233
14.1705 -13.8242 -2.4074 0.9233
14.2557 -13.7363 -2.4074 0.9233
14.4246 -13.5590 -2.4074 0.9233
14.5911 -13.3795 -2.4074 0.9233
14.8369 -13.1065 -2.4074 0.9233
14.9978 -12.9220 -2.4074 0.9233
15.0774 -12.8290 -2.4074 0.9233
15.2350 -12.6415 -2.4074 0.9233
15.3128 -12.5471 -2.4074 0.9233
15.3902 -12.4521 -2.4074 0.9233
15.9146 -11.7745 -2.4074 0.9233
15.9871 -11.6758 -2.4074 0.9233
16.0590 -11.5767 -2.4074 0.9233
16.2009 -11.3772 -2.4074 0.9233
16.2710 -11.2768 -2.4074 0.9233
16.4092 -11.0747 -2.4074 0.9233
16.4774 -10.9730 -2.4074 0.9233
16.7438 -10.5621 -2.4074 0.9233
16.9369 -10.2496 -2.4074 0.9233
16.9999 -10.1447 -2.4074 0.9233
17.0623 -10.0394 -2.4074 0.9233
17.1852 -9.8276 -2.4074 0.9233
17.3054 -9.6143 -2.4074 0.9233
17.3645 -9.5071 -2.4074 0.9233
17.4230 -9.3995 -2.4074 0.9233
17.5379 -9.1833 -2.4074 0.9233
17.7053 -8.8564 -2.4074 0.9233
17.7597 -8.7467 -2.4074 0.9233
17.8135 -8.6367 -2.4074 0.9233
17.9189 -8.4157 -2.4074 0.9233
18.0216 -8.1935 -2.4074 0.9233
18.0720 -8.0819 -2.4074 0.9233
18.1705 -7.8577 -2.4074 0.9233
18.2188 -7.7452 -2.4074 0.9233
18.2663 -7.6324 -2.4074 0.9233
18.3132 -7.5193 -2.4074 0.9233
18.3593 -7.4059 -2.4074 0.9233
18.4496 -7.1783 -2.4074 0.9233
18.5369 -6.9495 -2.4074 0.9233
18.5795 -6.8348 -2.4074 0.9233
18.7429 -6.3731 -2.4074 0.9233
18.7819 -6.2571 -2.4074 0.9233
19.0011 -5.5560 -2.4074 0.9233
19.0351 -5.4384 -2.4074 0.9233
19.1009 -5.2026 -2.4074 0.9233
19.1638 -4.9659 -2.4074 0.9233
19.1942 -4.8473 -2.4074 0.9233
19.3082 -4.3711 -2.4074 0.9233
19.3348 -4.2516 -2.4074 0.9233
19.4341 -3.7720 -2.4074 0.9233
19.4570 -3.6518 -2.4074 0.9233
19.5007 -3.4109 -2.4074 0.9233
19.5606 -3.0485 -2.4074 0.9233
19.5791 -2.9275 -2.4074 0.9233
19.5968 -2.8063 -2.4074 0.9233
19.6301 -2.5638 -2.4074 0.9233
19.6455 -2.4423 -2.4074 0.9233
19.6874 -2.0774 -2.4074 0.9233
19.6999 -1.9556 -2.4074 0.9233
19.7226 -1.7118 -2.4074 0.9233
19.7328 -1.5898 -2.4074 0.9233
19.7589 -1.2235 -2.4074 0.9233
19.7726 -0.9790 -2.4074 0.9233
19.7782 -0.8567 -2.4074 0.9233
19.7832 -0.7344 -2.4074 0.9233
19.7934 -0.3672 -2.4074 0.9233
19.7964 -0.1224 -2.4074 0.9233
19.7968 0.0000 -2.4074 0.9233
19.7964 0.1225 -2.4074 0.9233
19.7953 0.2448 -2.4074 0.9233
19.7907 0.4897 -2.4074 0.9233
19.7873 0.6121 -2.4074 0.9233
19.7831 0.7344 -2.4074 0.9233
19.7782 0.8567 -2.4074 0.9233
19.7725 0.9791 -2.4074 0.9233
19.7661 1.1012 -2.4074 0.9233
19.7589 1.2235 -2.4074 0.9233
19.7423 1.4678 -2.4074 0.9233
19.6875 2.0775 -2.4074 0.9233
19.6742 2.1992 -2.4074 0.9233
19.6603 2.3208 -2.4074 0.9233
19.6138 2.6851 -2.4074 0.9233
19.5606 3.0485 -2.4074 0.9233
19.5414 3.1695 -2.4074 0.9233
19.5215 3.2902 -2.4074 0.9233
19.5007 3.4109 -2.4074 0.9233
19.4792 3.5314 -2.4074 0.9233
19.4341 3.7721 -2.4074 0.9233
19.3860 4.0122 -2.4074 0.9233
19.3608 4.1320 -2.4074 0.9233
19.3348 4.2516 -2.4074 0.9233
19.3082 4.3711 -2.4074 0.9233
19.1638 4.9660 -2.4074 0.9233
19.1327 5.0844 -2.4074 0.9233
19.1009 5.2026 -2.4074 0.9233
19.0351 5.4384 -2.4074 0.9233
19.0011 5.5561 -2.4074 0.9233
18.8948 5.9076 -2.4074 0.9233
18.8579 6.0243 -2.4074 0.9233
18.8202 6.1409 -2.4074 0.9233
18.7819 6.2571 -2.4074 0.9233
18.7429 6.3731 -2.4074 0.9233
18.7031 6.4889 -2.4074 0.9233
18.6626 6.6045 -2.4074 0.9233
18.4048 7.2922 -2.4074 0.9233
18.3593 7.4059 -2.4074 0.9233
18.2663 7.6324 -2.4074 0.9233
18.1706 7.8578 -2.4074 0.9233
18.0720 8.0819 -2.4074 0.9233
17.9189 8.4158 -2.4074 0.9233
17.8665 8.5264 -2.4074 0.9233
17.8135 8.6368 -2.4074 0.9233
17.7053 8.8564 -2.4074 0.9233
17.5944 9.0747 -2.4074 0.9233
17.5379 9.1834 -2.4074 0.9233
17.3054 9.6143 -2.4074 0.9233
17.1852 9.8276 -2.4074 0.9233
17.1241 9.9337 -2.4074 0.9233
15.9237 9.5025 -2.2550 0.9280
15.8646 9.6008 -2.2550 0.9280
15.8050 9.6988 -2.2550 0.9280
15.6838 9.8935 -2.2550 0.9280
15.6223 9.9903 -2.2550 0.9280
15.5602 10.0867 -2.2550 0.9280
15.4976 10.1828 -2.2550 0.9280
15.4343 10.2784 -2.2550 0.9280
15.3060 10.4685 -2.2550 0.9280
