ply
format ascii 1.0
element vertex 1582
property float32 x
property float32 y
property float32 z
property float32 I
end_header
10.1223 -3.5821 -2.3733 0.9570
10.1709 -3.4584 -2.3744 0.9569
10.2180 -3.3340 -2.3756 0.9569
10.2637 -3.2090 -2.3768 0.9569
10.2859 -3.1463 -2.3774 0.9569
10.3078 -3.0834 -2.3780 0.9569
10.3504 -2.9571 -2.3792 0.9569
10.4114 -2.7667 -2.3811 0.9568
10.4502 -2.6391 -2.3823 0.9568
10.4874 -2.5110 -2.3835 0.9568
10.5055 -2.4467 -2.3841 0.9568
10.5231 -2.3823 -2.3847 0.9568
10.5403 -2.3177 -2.3853 0.9568
10.5736 -2.1883 -2.3866 0.9567
10.6054 -2.0584 -2.3878 0.9567
10.6356 -1.9281 -2.3891 0.9567
10.6642 -1.7974 -2.3903 0.9567
10.7040 -1.6005 -2.3922 0.9566
10.7403 -1.4027 -2.3940 0.9566
10.7515 -1.3366 -2.3947 0.9566
10.7625 -1.2704 -2.3953 0.9566
10.7729 -1.2042 -2.3959 0.9566
10.8191 -0.8717 -2.3991 0.9565
10.8272 -0.8050 -2.3997 0.9565
10.8551 -0.5374 -2.4022 0.9565
10.8667 -0.4034 -2.4035 0.9564
10.8765 -0.2691 -2.4047 0.9564
10.8808 -0.2019 -2.4054 0.9564
10.8882 -0.0673 -2.4066 0.9564
10.8913 -0.0000 -2.4073 0.9564
10.8962 0.1348 -2.4085 0.9563
10.8980 0.2022 -2.4092 0.9563
10.9010 0.4047 -2.4111 0.9563
10.8975 0.7425 -2.4142 0.9562
10.8932 0.8777 -2.4155 0.9562
10.8904 0.9452 -2.4161 0.9562
10.8872 1.0129 -2.4167 0.9562
10.8836 1.0804 -2.4174 0.9562
10.8750 1.2156 -2.4186 0.9562
10.8701 1.2832 -2.4193 0.9562
10.8648 1.3507 -2.4199 0.9561
10.8393 1.6207 -2.4224 0.9561
10.8319 1.6881 -2.4230 0.9561
10.8157 1.8229 -2.4243 0.9561
10.8070 1.8903 -2.4249 0.9561
10.7979 1.9576 -2.4255 0.9560
10.7884 2.0248 -2.4261 0.9560
10.7784 2.0920 -2.4268 0.9560
10.7098 2.4942 -2.4305 0.9560
10.6698 2.6946 -2.4323 0.9559
10.6556 2.7612 -2.4330 0.9559
10.6260 2.8943 -2.4342 0.9559
10.5784 3.0932 -2.4360 0.9559
10.5618 3.1594 -2.4366 0.9558
10.5271 3.2914 -2.4378 0.9558
10.5092 3.3572 -2.4384 0.9558
10.4332 3.6197 -2.4409 0.9558
10.4132 3.6851 -2.4415 0.9558
10.3719 3.8155 -2.4427 0.9557
10.3068 4.0102 -2.4444 0.9557
10.2843 4.0748 -2.4450 0.9557
10.2143 4.2680 -2.4468 0.9557
10.1902 4.3321 -2.4474 0.9557
10.0367 4.7138 -2.4509 0.9556
9.9262 4.9653 -2.4531 0.9556
9.8976 5.0277 -2.4537 0.9555
9.8686 5.0900 -2.4543 0.9555
9.6862 5.4600 -2.4576 0.9555
9.6544 5.5211 -2.4582 0.9555
9.5897 5.6426 -2.4593 0.9554
9.5234 5.7633 -2.4604 0.9554
9.4555 5.8832 -2.4614 0.9554
9.4210 5.9429 -2.4620 0.9554
9.3152 6.1206 -2.4636 0.9554
9.2059 6.2964 -2.4651 0.9553
9.1688 6.3545 -2.4657 0.9553
9.0933 6.4702 -2.4667 0.9553
9.0550 6.5276 -2.4672 0.9553
9.0163 6.5849 -2.4677 0.9553
8.9773 6.6419 -2.4682 0.9553
8.8981 6.7552 -2.4692 0.9553
8.8174 6.8675 -2.4702 0.9552
8.7765 6.9233 -2.4707 0.9552
8.6937 7.0341 -2.4717 0.9552
8.6518 7.0891 -2.4722 0.9552
8.6094 7.1439 -2.4727 0.9552
8.5237 7.2527 -2.4737 0.9552
8.2001 7.1540 -2.4052 0.9564
7.9311 7.0062 -2.3390 0.9576
7.8181 6.9929 -2.3184 0.9579
7.7340 7.0917 -2.3193 0.9579
7.6913 7.1408 -2.3197 0.9579
7.6485 7.1895 -2.3201 0.9579
7.5617 7.2862 -2.3210 0.9579
7.4738 7.3819 -2.3218 0.9579
7.3845 7.4764 -2.3226 0.9579
7.2940 7.5699 -2.3235 0.9579
7.2484 7.6162 -2.3239 0.9578
7.1561 7.7079 -2.3247 0.9578
7.0626 7.7985 -2.3255 0.9578
7.0154 7.8433 -2.3259 0.9578
6.9679 7.8878 -2.3262 0.9578
6.6770 8.1488 -2.3285 0.9578
6.6275 8.1912 -2.3289 0.9578
6.5277 8.2751 -2.3296 0.9577
6.4774 8.3166 -2.3299 0.9577
6.4269 8.3578 -2.3303 0.9577
6.3249 8.4391 -2.3310 0.9577
6.2218 8.5192 -2.3317 0.9577
6.1700 8.5588 -2.3320 0.9577
6.1178 8.5980 -2.3324 0.9577
6.0653 8.6369 -2.3327 0.9577
5.9065 8.7516 -2.3337 0.9577
5.8531 8.7892 -2.3340 0.9577
5.7455 8.8633 -2.3346 0.9577
5.6913 8.8998 -2.3349 0.9576
5.6369 8.9360 -2.3352 0.9576
5.4723 9.0425 -2.3361 0.9576
5.4169 9.0773 -2.3364 0.9576
5.3055 9.1458 -2.3370 0.9576
5.1932 9.2130 -2.3375 0.9576
5.0801 9.2787 -2.3381 0.9576
5.0232 9.3109 -2.3383 0.9576
4.9660 9.3429 -2.3386 0.9576
4.8512 9.4057 -2.3391 0.9576
4.6774 9.4971 -2.3399 0.9576
4.5605 9.5562 -2.3404 0.9576
4.5017 9.5852 -2.3406 0.9575
4.3837 9.6420 -2.3410 0.9575
4.3244 9.6698 -2.3413 0.9575
4.2649 9.6973 -2.3415 0.9575
4.1455 9.7512 -2.3419 0.9575
3.9044 9.8542 -2.3428 0.9575
3.8437 9.8791 -2.3430 0.9575
3.7828 9.9035 -2.3432 0.9575
3.6607 9.9511 -2.3436 0.9575
3.5993 9.9743 -2.3437 0.9575
3.4762 10.0196 -2.3441 0.9575
3.4145 10.0417 -2.3443 0.9575
3.2905 10.0846 -2.3446 0.9575
3.1659 10.1259 -2.3449 0.9575
2.9152 10.2037 -2.3455 0.9575
2.7892 10.2401 -2.3458 0.9575
2.7259 10.2578 -2.3459 0.9575
2.6626 10.2750 -2.3460 0.9574
2.5355 10.3082 -2.3463 0.9574
2.4718 10.3242 -2.3464 0.9574
2.4081 10.3398 -2.3465 0.9574
2.2162 10.3840 -2.3468 0.9574
1.8944 10.4496 -2.3473 0.9574
1.8298 10.4614 -2.3473 0.9574
1.7651 10.4728 -2.3474 0.9574
1.3105 10.5411 -2.3478 0.9574
1.2453 10.5492 -2.3478 0.9574
1.1147 10.5641 -2.3479 0.9574
0.8531 10.5888 -2.3480 0.9574
0.7221 10.5987 -2.3480 0.9574
0.6566 10.6029 -2.3480 0.9574
0.5909 10.6068 -2.3480 0.9574
0.5254 10.6103 -2.3480 0.9574
0.4598 10.6132 -2.3480 0.9574
0.3941 10.6158 -2.3480 0.9574
0.3284 10.6180 -2.3480 0.9574
0.2628 10.6197 -2.3480 0.9574
0.1971 10.6211 -2.3479 0.9574
0.1314 10.6219 -2.3479 0.9574
0.0657 10.6224 -2.3479 0.9574
-0.0000 10.6224 -2.3478 0.9574
-0.0657 10.6220 -2.3478 0.9574
-0.2627 10.6183 -2.3476 0.9574
-0.3284 10.6162 -2.3476 0.9574
-0.4596 10.6107 -2.3474 0.9574
-0.5252 10.6074 -2.3474 0.9574
-0.5908 10.6036 -2.3473 0.9574
-0.6563 10.5993 -2.3472 0.9574
-0.7218 10.5947 -2.3471 0.9574
-0.8527 10.5842 -2.3470 0.9574
-1.0488 10.5652 -2.3467 0.9574
-1.1141 10.5580 -2.3465 0.9574
-1.1793 10.5504 -2.3464 0.9574
-1.3096 10.5339 -2.3462 0.9574
-1.3746 10.5250 -2.3461 0.9574
-1.4396 10.5158 -2.3459 0.9575
-1.5045 10.5062 -2.3458 0.9575
-1.3637 8.7499 -1.9573 0.9644
-1.7635 10.4634 -2.3453 0.9575
-1.8281 10.4517 -2.3452 0.9575
-1.8926 10.4396 -2.3450 0.9575
-1.9570 10.4270 -2.3449 0.9575
-2.0213 10.4140 -2.3447 0.9575
-2.0855 10.4006 -2.3446 0.9575
-2.1497 10.3868 -2.3444 0.9575
-2.3415 10.3429 -2.3439 0.9575
-2.4689 10.3117 -2.3436 0.9575
-2.7223 10.2442 -2.3428 0.9575
-2.9738 10.1702 -2.3420 0.9575
-3.1611 10.1104 -2.3413 0.9575
-3.2853 10.0686 -2.3409 0.9575
-3.4089 10.0252 -2.3404 0.9575
-3.6543 9.9337 -2.3395 0.9576
-3.7152 9.9099 -2.3392 0.9576
-3.7760 9.8856 -2.3390 0.9576
-3.8367 9.8610 -2.3387 0.9576
-3.9575 9.8106 -2.3382 0.9576
-3.0575 7.3173 -1.7528 0.9680
-4.1373 9.7320 -2.3373 0.9576
-4.3156 9.6501 -2.3365 0.9576
-3.4909 7.0881 -1.7464 0.9682
-3.4969 6.9908 -1.7277 0.9685
-3.5289 6.9472 -1.7223 0.9686
-3.5031 6.7920 -1.6891 0.9692
-3.5334 6.7480 -1.6836 0.9693
-3.5730 6.7220 -1.6826 0.9693
-3.6037 6.6798 -1.6776 0.9694
-3.4257 6.1662 -1.5591 0.9715
-3.7441 6.5471 -1.6670 0.9696
-3.6701 6.2376 -1.5996 0.9708
-3.9204 6.4781 -1.6736 0.9695
-3.9359 6.4140 -1.6633 0.9696
-4.1434 6.5685 -1.7165 0.9687
-4.2754 6.5955 -1.7373 0.9683
-4.3636 6.6412 -1.7564 0.9680
-4.4052 6.6150 -1.7566 0.9680
-4.5534 6.6576 -1.7828 0.9675
-4.6200 6.6660 -1.7926 0.9673
-4.6732 6.6545 -1.7973 0.9672
-4.8551 6.5622 -1.8042 0.9671
-5.0863 6.6145 -1.8442 0.9664
-5.2588 6.7520 -1.8916 0.9655
-5.7287 6.9915 -1.9978 0.9636
-6.1993 7.1058 -2.0843 0.9621
-6.3648 7.1160 -2.1102 0.9616
-6.5666 7.2508 -2.1622 0.9607
-6.6804 7.1956 -2.1702 0.9606
-6.9046 7.2550 -2.2137 0.9598
-6.7889 7.0456 -2.1625 0.9607
-7.3443 7.4357 -2.3100 0.9581
-7.4867 7.3038 -2.3118 0.9581
-7.5302 7.2558 -2.3113 0.9581
-7.7009 7.0615 -2.3094 0.9581
-7.7428 7.0122 -2.3089 0.9581
-7.7844 6.9627 -2.3084 0.9581
-7.8256 6.9130 -2.3079 0.9581
-7.9071 6.8127 -2.3069 0.9581
-7.9474 6.7623 -2.3064 0.9582
-8.0270 6.6606 -2.3054 0.9582
-8.1052 6.5579 -2.3044 0.9582
-8.1438 6.5062 -2.3039 0.9582
-8.1820 6.4543 -2.3034 0.9582
-8.2200 6.4022 -2.3029 0.9582
-8.2575 6.3498 -2.3024 0.9582
-8.3317 6.2444 -2.3013 0.9582
-8.3683 6.1913 -2.3008 0.9583
-8.4045 6.1381 -2.3003 0.9583
-8.4759 6.0309 -2.2992 0.9583
-8.5111 5.9770 -2.2987 0.9583
-8.5849 5.8716 -2.2988 0.9583
-8.7290 5.8913 -2.3276 0.9578
-8.9033 5.9291 -2.3643 0.9571
-9.0831 5.9681 -2.4022 0.9565
-9.3406 5.9732 -2.4506 0.9556
-9.4093 5.8544 -2.4494 0.9556
-9.5096 5.6749 -2.4477 0.9556
-9.5422 5.6146 -2.4471 0.9557
-9.5744 5.5541 -2.4465 0.9557
-9.6378 5.4327 -2.4453 0.9557
-9.6995 5.3105 -2.4441 0.9557
-9.7298 5.2492 -2.4435 0.9557
-9.8754 4.9398 -2.4406 0.9558
-9.9033 4.8774 -2.4400 0.9558
-9.9579 4.7522 -2.4387 0.9558
-9.9846 4.6894 -2.4381 0.9558
-10.0110 4.6264 -2.4375 0.9558
-10.0369 4.5632 -2.4369 0.9558
-10.0624 4.5000 -2.4363 0.9558
-10.0875 4.4365 -2.4357 0.9559
-10.1365 4.3093 -2.4345 0.9559
-10.2953 3.8597 -2.4302 0.9560
-10.3370 3.7302 -2.4289 0.9560
-10.4154 3.4698 -2.4265 0.9560
-10.4340 3.4045 -2.4258 0.9560
-10.5368 3.0104 -2.4221 0.9561
-10.5677 2.8783 -2.4208 0.9561
-10.5826 2.8122 -2.4202 0.9561
-10.5970 2.7460 -2.4196 0.9561
-10.6110 2.6797 -2.4189 0.9562
-10.6629 2.4139 -2.4164 0.9562
-10.6749 2.3473 -2.4158 0.9562
-10.6975 2.2139 -2.4145 0.9562
-10.7082 2.1472 -2.4139 0.9562
-10.7377 1.9467 -2.4120 0.9563
-10.7635 1.7457 -2.4101 0.9563
-10.7713 1.6787 -2.4095 0.9563
-10.7786 1.6117 -2.4088 0.9563
-10.7921 1.4774 -2.4076 0.9564
-10.8091 1.2760 -2.4057 0.9564
-10.8139 1.2087 -2.4050 0.9564
-10.8259 1.0071 -2.4032 0.9564
-10.8362 0.7383 -2.4006 0.9565
-10.8377 0.6711 -2.4000 0.9565
-10.8388 0.6039 -2.3994 0.9565
-10.8395 0.5367 -2.3987 0.9565
-10.8398 0.4696 -2.3981 0.9565
-10.8391 0.3353 -2.3969 0.9565
-10.8380 0.2682 -2.3962 0.9566
-10.8367 0.2011 -2.3956 0.9566
-10.8349 0.1340 -2.3950 0.9566
-10.8327 0.0670 -2.3943 0.9566
-10.4619 -0.0000 -2.3940 0.9580
-10.4558 -0.1293 -2.3927 0.9580
-10.4522 -0.1939 -2.3921 0.9580
-10.4481 -0.2585 -2.3915 0.9580
-10.4337 -0.4519 -2.3897 0.9581
-10.4157 -0.6449 -2.3879 0.9581
-10.4089 -0.7092 -2.3873 0.9581
-10.4017 -0.7733 -2.3868 0.9581
-10.3941 -0.8374 -2.3862 0.9581
-10.3862 -0.9015 -2.3856 0.9581
-10.3778 -0.9655 -2.3850 0.9581
-10.3691 -1.0294 -2.3844 0.9581
-10.3599 -1.0932 -2.3838 0.9582
-10.3405 -1.2207 -2.3826 0.9582
-10.3302 -1.2842 -2.3820 0.9582
-10.3195 -1.3478 -2.3814 0.9582
-10.2970 -1.4746 -2.3803 0.9582
-10.2473 -1.7271 -2.3779 0.9583
-10.1915 -1.9781 -2.3756 0.9583
-10.1766 -2.0406 -2.3750 0.9583
-10.1613 -2.1030 -2.3745 0.9583
-10.1297 -2.2274 -2.3733 0.9583
-10.1133 -2.2895 -2.3727 0.9583
-10.0965 -2.3514 -2.3722 0.9584
-10.0618 -2.4750 -2.3710 0.9584
-10.0439 -2.5365 -2.3705 0.9584
-9.9880 -2.7205 -2.3688 0.9584
-9.9288 -2.9033 -2.3671 0.9584
-9.9083 -2.9639 -2.3666 0.9585
-9.8875 -3.0244 -2.3660 0.9585
-9.8663 -3.0848 -2.3654 0.9585
-9.7779 -3.3248 -2.3633 0.9585
-9.7079 -3.5032 -2.3616 0.9585
-9.6594 -3.6214 -2.3606 0.9586
-9.6346 -3.6802 -2.3600 0.9586
-9.5583 -3.8557 -2.3584 0.9586
-9.5321 -3.9138 -2.3579 0.9586
-9.4787 -4.0296 -2.3568 0.9586
-9.4515 -4.0873 -2.3563 0.9586
-9.4240 -4.1447 -2.3558 0.9586
-9.3961 -4.2020 -2.3553 0.9586
-9.3104 -4.3727 -2.3537 0.9587
-9.2812 -4.4293 -2.3532 0.9587
-9.2516 -4.4856 -2.3527 0.9587
-9.1915 -4.5977 -2.3517 0.9587
-9.1609 -4.6534 -2.3512 0.9587
-9.0672 -4.8195 -2.3497 0.9587
-9.0354 -4.8745 -2.3492 0.9587
-9.0032 -4.9292 -2.3487 0.9588
-8.9378 -5.0381 -2.3477 0.9588
-8.8711 -5.1461 -2.3468 0.9588
-8.8373 -5.1998 -2.3463 0.9588
-8.8032 -5.2533 -2.3458 0.9588
-8.5918 -5.5696 -2.3430 0.9589
-8.5190 -5.6732 -2.3421 0.9589
-8.4820 -5.7246 -2.3416 0.9589
-8.4448 -5.7758 -2.3411 0.9589
-8.4073 -5.8268 -2.3407 0.9589
-8.3695 -5.8776 -2.3402 0.9589
-8.3314 -5.9281 -2.3398 0.9589
-8.2930 -5.9783 -2.3393 0.9589
-8.2153 -6.0782 -2.3385 0.9589
-8.1365 -6.1770 -2.3376 0.9589
-8.0160 -6.3233 -2.3363 0.9590
-7.9753 -6.3716 -2.3359 0.9590
-7.9343 -6.4197 -2.3354 0.9590
-7.8097 -6.5622 -2.3342 0.9590
-7.7676 -6.6092 -2.3338 0.9590
-7.7252 -6.6560 -2.3334 0.9590
-7.5092 -6.8856 -2.3313 0.9591
-7.3765 -7.0203 -2.3302 0.9591
-7.2866 -7.1086 -2.3294 0.9591
-7.1040 -7.2820 -2.3279 0.9591
-6.9644 -7.4090 -2.3268 0.9591
-6.8225 -7.5334 -2.3257 0.9592
-6.7748 -7.5743 -2.3254 0.9592
-6.6786 -7.6552 -2.3247 0.9592
-6.5326 -7.7744 -2.3236 0.9592
-6.3845 -7.8908 -2.3226 0.9592
-6.3346 -7.9290 -2.3223 0.9592
-6.2344 -8.0046 -2.3217 0.9592
-6.1839 -8.0419 -2.3213 0.9592
-6.1332 -8.0788 -2.3210 0.9592
-5.9284 -8.2237 -2.3198 0.9593
-5.8767 -8.2592 -2.3195 0.9593
-5.8247 -8.2943 -2.3192 0.9593
-5.7203 -8.3636 -2.3186 0.9593
-5.6677 -8.3978 -2.3183 0.9593
-5.5089 -8.4984 -2.3175 0.9593
-5.4556 -8.5313 -2.3172 0.9593
-5.2946 -8.6280 -2.3164 0.9593
-5.2406 -8.6596 -2.3162 0.9593
-5.1863 -8.6909 -2.3159 0.9593
-5.0773 -8.7524 -2.3154 0.9593
-5.0225 -8.7827 -2.3151 0.9593
-4.9676 -8.8127 -2.3149 0.9593
-4.9125 -8.8423 -2.3146 0.9593
-4.8572 -8.8716 -2.3144 0.9593
-4.8017 -8.9005 -2.3142 0.9594
-4.6345 -8.9854 -2.3135 0.9594
-4.5783 -9.0130 -2.3133 0.9594
-4.4657 -9.0673 -2.3128 0.9594
-4.4091 -9.0939 -2.3126 0.9594
-4.2955 -9.1461 -2.3122 0.9594
-4.1241 -9.2217 -2.3116 0.9594
-4.0666 -9.2463 -2.3114 0.9594
-4.0090 -9.2705 -2.3112 0.9594
-3.9513 -9.2944 -2.3110 0.9594
-3.8934 -9.3179 -2.3108 0.9594
-3.7773 -9.3639 -2.3105 0.9594
-3.6021 -9.4303 -2.3100 0.9594
-3.3668 -9.5139 -2.3093 0.9594
-3.3077 -9.5339 -2.3092 0.9594
-3.2485 -9.5535 -2.3090 0.9594
-3.1891 -9.5728 -2.3089 0.9594
-2.9507 -9.6466 -2.3083 0.9595
-2.6503 -9.7306 -2.3077 0.9595
-2.3477 -9.8057 -2.3072 0.9595
-2.2870 -9.8197 -2.3071 0.9595
-2.2261 -9.8332 -2.3070 0.9595
-2.1042 -9.8593 -2.3069 0.9595
-2.0430 -9.8718 -2.3068 0.9595
-1.9819 -9.8839 -2.3067 0.9595
-1.7980 -9.9181 -2.3065 0.9595
-1.6136 -9.9490 -2.3063 0.9595
-1.5520 -9.9586 -2.3063 0.9595
-1.4904 -9.9678 -2.3062 0.9595
-1.3670 -9.9851 -2.3062 0.9595
-1.3051 -9.9932 -2.3061 0.9595
-1.2433 -10.0009 -2.3061 0.9595
-1.0575 -10.0219 -2.3060 0.9595
-0.9955 -10.0282 -2.3060 0.9595
-0.9334 -10.0341 -2.3060 0.9595
-0.8714 -10.0396 -2.3060 0.9595
-0.8093 -10.0447 -2.3059 0.9595
-0.6850 -10.0539 -2.3059 0.9595
-0.6228 -10.0580 -2.3059 0.9595
-0.5606 -10.0617 -2.3059 0.9595
-0.2493 -10.0745 -2.3060 0.9595
-0.1869 -10.0760 -2.3060 0.9595
-0.0623 -10.0778 -2.3061 0.9595
0.1870 -10.0769 -2.3063 0.9595
0.3739 -10.0724 -2.3064 0.9595
0.4362 -10.0702 -2.3065 0.9595
0.5607 -10.0646 -2.3066 0.9595
0.8718 -10.0441 -2.3070 0.9595
0.9339 -10.0389 -2.3071 0.9595
0.9960 -10.0333 -2.3072 0.9595
1.0581 -10.0274 -2.3073 0.9595
1.1201 -10.0211 -2.3074 0.9595
1.2441 -10.0074 -2.3076 0.9595
1.3060 -9.9999 -2.3077 0.9595
1.3679 -9.9922 -2.3078 0.9595
1.4297 -9.9840 -2.3079 0.9595
1.4916 -9.9755 -2.3080 0.9595
1.5533 -9.9666 -2.3082 0.9595
1.6150 -9.9573 -2.3083 0.9595
1.6766 -9.9477 -2.3084 0.9595
1.7998 -9.9274 -2.3087 0.9594
1.8612 -9.9166 -2.3088 0.9594
2.1065 -9.8701 -2.3094 0.9594
2.1676 -9.8576 -2.3096 0.9594
2.2287 -9.8446 -2.3097 0.9594
2.2897 -9.8313 -2.3099 0.9594
2.6540 -9.7440 -2.3109 0.9594
2.7145 -9.7282 -2.3111 0.9594
2.9552 -9.6614 -2.3119 0.9594
3.0750 -9.6258 -2.3123 0.9594
3.2540 -9.5697 -2.3129 0.9594
3.6088 -9.4479 -2.3143 0.9593
3.9013 -9.3368 -2.3155 0.9593
3.9594 -9.3135 -2.3158 0.9593
4.0752 -9.2659 -2.3163 0.9593
4.1329 -9.2416 -2.3165 0.9593
4.1904 -9.2169 -2.3168 0.9593
4.2479 -9.1919 -2.3171 0.9593
4.3623 -9.1408 -2.3176 0.9593
4.4192 -9.1147 -2.3179 0.9593
4.5327 -9.0616 -2.3185 0.9593
4.5892 -9.0345 -2.3188 0.9593
4.7018 -8.9793 -2.3194 0.9593
4.9251 -8.8649 -2.3206 0.9592
5.0357 -8.8057 -2.3212 0.9592
5.0908 -8.7756 -2.3215 0.9592
5.2548 -8.6832 -2.3225 0.9592
5.3092 -8.6518 -2.3228 0.9592
5.3634 -8.6200 -2.3231 0.9592
5.4173 -8.5879 -2.3235 0.9592
5.5248 -8.5227 -2.3241 0.9592
5.5782 -8.4897 -2.3245 0.9592
5.6314 -8.4563 -2.3248 0.9592
5.7373 -8.3885 -2.3255 0.9592
5.7899 -8.3541 -2.3259 0.9591
5.8424 -8.3195 -2.3262 0.9591
5.8947 -8.2844 -2.3266 0.9591
5.9467 -8.2491 -2.3270 0.9591
5.9986 -8.2135 -2.3273 0.9591
6.0502 -8.1775 -2.3277 0.9591
6.1016 -8.1412 -2.3281 0.9591
6.1529 -8.1047 -2.3284 0.9591
6.2546 -8.0305 -2.3292 0.9591
6.3556 -7.9552 -2.3300 0.9591
6.4057 -7.9171 -2.3304 0.9591
6.4556 -7.8786 -2.3307 0.9591
6.6041 -7.7615 -2.3319 0.9590
6.6531 -7.7218 -2.3323 0.9590
6.7019 -7.6818 -2.3327 0.9590
6.7504 -7.6416 -2.3332 0.9590
6.9423 -7.4776 -2.3348 0.9590
6.9896 -7.4358 -2.3352 0.9590
7.0837 -7.3515 -2.3361 0.9590
7.1767 -7.2660 -2.3369 0.9590
7.2687 -7.1793 -2.3378 0.9589
7.4943 -6.9578 -2.3400 0.9589
7.5386 -6.9126 -2.3405 0.9589
7.5827 -6.8672 -2.3409 0.9589
7.7133 -6.7293 -2.3423 0.9589
7.9256 -6.4940 -2.3446 0.9588
8.0085 -6.3981 -2.3456 0.9588
8.0495 -6.3498 -2.3461 0.9588
8.1308 -6.2523 -2.3470 0.9588
8.2109 -6.1538 -2.3480 0.9588
8.2505 -6.1042 -2.3485 0.9588
8.2899 -6.0543 -2.3490 0.9588
8.3676 -5.9538 -2.3500 0.9587
8.4060 -5.9032 -2.3505 0.9587
8.4820 -5.8013 -2.3515 0.9587
8.7384 -5.4370 -2.3550 0.9586
8.8780 -5.2238 -2.3571 0.9586
8.9460 -5.1159 -2.3582 0.9586
9.0126 -5.0071 -2.3592 0.9586
9.0454 -4.9524 -2.3598 0.9586
9.0780 -4.8974 -2.3603 0.9586
9.1101 -4.8423 -2.3608 0.9585
9.1420 -4.7870 -2.3614 0.9585
9.1735 -4.7315 -2.3619 0.9585
9.2047 -4.6757 -2.3624 0.9585
9.2661 -4.5636 -2.3635 0.9585
9.3557 -4.3940 -2.3652 0.9585
9.4703 -4.1651 -2.3674 0.9584
9.4981 -4.1074 -2.3679 0.9584
9.5527 -3.9915 -2.3691 0.9584
9.5795 -3.9333 -2.3696 0.9584
9.6059 -3.8749 -2.3702 0.9584
9.6320 -3.8163 -2.3708 0.9584
9.6577 -3.7576 -2.3713 0.9584
9.6831 -3.6987 -2.3719 0.9584
9.7081 -3.6396 -2.3725 0.9583
9.7328 -3.5803 -2.3730 0.9583
9.7571 -3.5209 -2.3736 0.9583
9.8278 -3.3417 -2.3753 0.9583
9.8507 -3.2817 -2.3759 0.9583
9.8732 -3.2215 -2.3765 0.9583
9.9171 -3.1006 -2.3776 0.9583
9.9596 -2.9792 -2.3788 0.9582
10.0401 -2.7346 -2.3811 0.9582
10.0966 -2.5498 -2.3829 0.9582
10.1146 -2.4879 -2.3835 0.9582
10.1497 -2.3638 -2.3847 0.9581
10.1832 -2.2392 -2.3859 0.9581
10.2152 -2.1142 -2.3871 0.9581
10.2307 -2.0515 -2.3876 0.9581
10.2604 -1.9257 -2.3888 0.9581
10.2747 -1.8627 -2.3894 0.9581
10.2886 -1.7996 -2.3900 0.9580
10.3152 -1.6730 -2.3912 0.9580
10.3280 -1.6096 -2.3918 0.9580
10.3523 -1.4825 -2.3930 0.9580
10.3639 -1.4188 -2.3937 0.9580
10.3859 -1.2911 -2.3949 0.9580
10.4063 -1.1632 -2.3961 0.9579
10.4340 -0.9707 -2.3979 0.9579
10.4505 -0.8420 -2.3991 0.9579
10.4654 -0.7130 -2.4003 0.9579
10.4788 -0.5838 -2.4015 0.9578
10.4905 -0.4544 -2.4028 0.9578
10.4958 -0.3896 -2.4034 0.9578
10.5092 -0.1950 -2.4052 0.9578
10.5190 0.0000 -2.4070 0.9578
10.5235 0.1302 -2.4083 0.9577
10.5273 0.3256 -2.4101 0.9577
10.5277 0.3908 -2.4107 0.9577
10.5275 0.5213 -2.4119 0.9577
10.5267 0.5865 -2.4125 0.9577
10.5256 0.6517 -2.4131 0.9576
10.5240 0.7170 -2.4137 0.9576
10.5220 0.7823 -2.4144 0.9576
10.5196 0.8476 -2.4150 0.9576
10.5168 0.9128 -2.4156 0.9576
10.5136 0.9781 -2.4162 0.9576
10.5060 1.1086 -2.4174 0.9576
10.4968 1.2391 -2.4186 0.9576
10.4915 1.3043 -2.4192 0.9575
10.4859 1.3695 -2.4198 0.9575
10.4799 1.4347 -2.4204 0.9575
10.4665 1.5650 -2.4216 0.9575
10.4593 1.6300 -2.4222 0.9575
10.4516 1.6952 -2.4229 0.9575
10.4435 1.7602 -2.4235 0.9575
10.4262 1.8902 -2.4247 0.9575
10.4168 1.9551 -2.4253 0.9574
10.3277 2.4727 -2.4301 0.9574
10.3148 2.5372 -2.4306 0.9573
10.2877 2.6658 -2.4318 0.9573
10.2589 2.7942 -2.4330 0.9573
10.2439 2.8583 -2.4336 0.9573
10.2285 2.9223 -2.4342 0.9573
10.2127 2.9863 -2.4348 0.9573
10.1965 3.0501 -2.4354 0.9573
10.1799 3.1138 -2.4360 0.9573
10.1629 3.1775 -2.4365 0.9572
10.1276 3.3045 -2.4377 0.9572
10.1094 3.3679 -2.4383 0.9572
9.9275 3.9334 -2.4435 0.9571
9.8826 4.0578 -2.4446 0.9571
9.8596 4.1198 -2.4452 0.9571
9.8124 4.2434 -2.4463 0.9571
9.7388 4.4277 -2.4480 0.9571
9.6080 4.7320 -2.4508 0.9570
9.4965 4.9727 -2.4529 0.9570
9.4384 5.0920 -2.4540 0.9569
9.4088 5.1514 -2.4546 0.9569
9.3177 5.3285 -2.4562 0.9569
9.2232 5.5040 -2.4577 0.9569
9.1909 5.5621 -2.4583 0.9569
9.1583 5.6200 -2.4588 0.9569
9.0582 5.7926 -2.4603 0.9568
9.0241 5.8498 -2.4609 0.9568
8.8480 6.1323 -2.4634 0.9568
8.8117 6.1881 -2.4639 0.9568
8.7380 6.2991 -2.4649 0.9568
8.7006 6.3543 -2.4654 0.9568
8.6629 6.4093 -2.4659 0.9567
8.5864 6.5185 -2.4668 0.9567
8.5476 6.5728 -2.4673 0.9567
8.5084 6.6268 -2.4678 0.9567
8.2662 6.9459 -2.4706 0.9567
8.2247 6.9981 -2.4711 0.9567
8.1387 7.1005 -2.4715 0.9566
7.6288 6.8236 -2.3421 0.9589
7.3797 6.9369 -2.3176 0.9593
7.2536 7.0763 -2.3188 0.9593
7.2109 7.1223 -2.3192 0.9593
7.0812 7.2586 -2.3204 0.9592
7.0373 7.3035 -2.3208 0.9592
6.9488 7.3924 -2.3216 0.9592
6.9041 7.4365 -2.3220 0.9592
6.8592 7.4803 -2.3224 0.9592
6.8139 7.5238 -2.3227 0.9592
6.7683 7.5670 -2.3231 0.9592
6.7224 7.6100 -2.3235 0.9592
6.6763 7.6526 -2.3239 0.9592
6.6299 7.6949 -2.3242 0.9592
6.4890 7.8203 -2.3253 0.9592
6.4415 7.8614 -2.3257 0.9592
6.3938 7.9023 -2.3260 0.9591
6.3458 7.9429 -2.3264 0.9591
6.2974 7.9832 -2.3267 0.9591
6.2489 8.0232 -2.3271 0.9591
6.1016 8.1412 -2.3281 0.9591
6.0022 8.2184 -2.3287 0.9591
5.9520 8.2565 -2.3291 0.9591
5.8511 8.3318 -2.3297 0.9591
5.6462 8.4785 -2.3309 0.9591
5.5944 8.5144 -2.3312 0.9591
5.5424 8.5499 -2.3315 0.9591
5.4376 8.6200 -2.3321 0.9590
5.2787 8.7226 -2.3330 0.9590
5.2253 8.7561 -2.3333 0.9590
5.1716 8.7893 -2.3336 0.9590
5.1178 8.8222 -2.3338 0.9590
4.7902 9.0120 -2.3354 0.9590
4.6794 9.0725 -2.3359 0.9590
4.6236 9.1022 -2.3361 0.9590
4.5677 9.1316 -2.3364 0.9590
4.5116 9.1606 -2.3366 0.9590
4.4554 9.1892 -2.3369 0.9590
4.3989 9.2175 -2.3371 0.9590
4.1711 9.3270 -2.3380 0.9589
4.1137 9.3534 -2.3382 0.9589
3.9984 9.4053 -2.3386 0.9589
3.7659 9.5046 -2.3394 0.9589
3.6486 9.5520 -2.3398 0.9589
3.5898 9.5752 -2.3400 0.9589
3.5308 9.5979 -2.3401 0.9589
3.4716 9.6203 -2.3403 0.9589
3.4123 9.6423 -2.3405 0.9589
3.3528 9.6639 -2.3407 0.9589
3.2335 9.7060 -2.3410 0.9589
3.1736 9.7265 -2.3412 0.9589
3.1136 9.7466 -2.3413 0.9589
2.9932 9.7856 -2.3416 0.9589
2.9329 9.8046 -2.3418 0.9589
2.8723 9.8231 -2.3419 0.9589
2.6900 9.8764 -2.3423 0.9589
2.6291 9.8934 -2.3424 0.9589
2.5680 9.9099 -2.3426 0.9589
2.5068 9.9261 -2.3427 0.9589
2.4454 9.9419 -2.3428 0.9589
2.3840 9.9573 -2.3429 0.9589
2.3225 9.9724 -2.3430 0.9589
2.2609 9.9869 -2.3431 0.9589
2.1992 10.0012 -2.3432 0.9589
2.0135 10.0414 -2.3435 0.9588
1.6399 10.1111 -2.3439 0.9588
1.5774 10.1214 -2.3440 0.9588
1.5148 10.1312 -2.3440 0.9588
1.3267 10.1582 -2.3442 0.9588
1.2639 10.1664 -2.3442 0.9588
1.1381 10.1815 -2.3443 0.9588
1.0751 10.1885 -2.3443 0.9588
1.0121 10.1951 -2.3444 0.9588
0.9490 10.2013 -2.3444 0.9588
0.6964 10.2218 -2.3444 0.9588
0.6332 10.2260 -2.3444 0.9588
0.5700 10.2297 -2.3444 0.9588
0.5067 10.2330 -2.3444 0.9588
0.4434 10.2359 -2.3444 0.9588
0.3167 10.2405 -2.3444 0.9588
0.2534 10.2421 -2.3444 0.9588
0.1900 10.2434 -2.3444 0.9588
-0.0634 10.2444 -2.3442 0.9588
-0.1267 10.2436 -2.3442 0.9588
-0.1900 10.2424 -2.3441 0.9588
-0.2534 10.2408 -2.3441 0.9588
-0.3800 10.2363 -2.3440 0.9588
-0.5698 10.2266 -2.3437 0.9588
-0.8224 10.2079 -2.3434 0.9588
-0.8855 10.2023 -2.3433 0.9588
-0.9485 10.1962 -2.3432 0.9589
-1.0745 10.1828 -2.3430 0.9589
-1.1374 10.1755 -2.3429 0.9589
-1.2003 10.1678 -2.3428 0.9589
-1.2692 8.8629 -2.0488 0.9639
-1.3613 8.7348 -2.0229 0.9644
-1.4827 8.7973 -2.0415 0.9641
-1.7632 10.0805 -2.3417 0.9589
-2.0733 10.0180 -2.3410 0.9589
-2.1968 9.9903 -2.3407 0.9589
-2.2584 9.9758 -2.3405 0.9589
-2.3199 9.9609 -2.3403 0.9589
-2.4425 9.9300 -2.3400 0.9589
-2.6257 9.8807 -2.3394 0.9589
-2.7473 9.8458 -2.3390 0.9589
-2.8683 9.8094 -2.3386 0.9589
-2.9889 9.7715 -2.3382 0.9589
-3.0490 9.7519 -2.3380 0.9589
-3.1090 9.7320 -2.3378 0.9589
-3.2285 9.6910 -2.3374 0.9590
-3.3475 9.6484 -2.3369 0.9590
-3.4067 9.6266 -2.3367 0.9590
-3.4658 9.6044 -2.3364 0.9590
-3.5248 9.5818 -2.3362 0.9590
-3.7591 9.4876 -2.3352 0.9590
-3.8173 9.4631 -2.3350 0.9590
-3.8753 9.4383 -2.3347 0.9590
-3.0572 7.3166 -1.8145 0.9680
-3.9908 9.3875 -2.3342 0.9590
-4.0484 9.3616 -2.3339 0.9590
-4.1628 9.3086 -2.3333 0.9590
-4.2199 9.2816 -2.3331 0.9590
-3.4125 7.2659 -1.8369 0.9676
-3.4251 7.1771 -1.8197 0.9679
-3.4937 6.9844 -1.7870 0.9685
-3.5237 6.9369 -1.7804 0.9686
-3.5717 6.8211 -1.7619 0.9689
-3.5914 6.7568 -1.7510 0.9691
-3.6214 6.6144 -1.7255 0.9695
-3.4253 6.1656 -1.6139 0.9715
-3.6896 6.5454 -1.7193 0.9696
-3.7221 6.5087 -1.7157 0.9697
-3.8406 6.5273 -1.7330 0.9694
-3.8812 6.5038 -1.7331 0.9694
-3.9216 6.3028 -1.6986 0.9700
-4.2721 6.5904 -1.7972 0.9683
-4.3109 6.5609 -1.7964 0.9683
-4.7389 6.8376 -1.9036 0.9664
-4.8344 6.7944 -1.9081 0.9664
-5.0033 6.8507 -1.9412 0.9658
-5.1793 6.8222 -1.9600 0.9655
-5.6426 6.9739 -2.0527 0.9639
-5.5033 6.7164 -1.9869 0.9650
-5.8199 7.0138 -2.0855 0.9633
-6.0264 7.0826 -2.1280 0.9626
-6.1185 7.1014 -2.1449 0.9623
-6.5051 7.1829 -2.2175 0.9610
-6.4696 6.9684 -2.1758 0.9617
-6.5678 6.9871 -2.1943 0.9614
-7.0535 7.2302 -2.3113 0.9594
-7.0967 7.1850 -2.3109 0.9594
-7.1822 7.0939 -2.3100 0.9594
-7.2245 7.0480 -2.3095 0.9594
-7.3496 6.9086 -2.3082 0.9595
-7.3907 6.8616 -2.3077 0.9595
-7.4315 6.8144 -2.3072 0.9595
-7.5121 6.7192 -2.3063 0.9595
-7.5520 6.6713 -2.3058 0.9595
-7.5916 6.6231 -2.3053 0.9595
-7.6308 6.5746 -2.3048 0.9595
-7.6697 6.5260 -2.3044 0.9595
-7.7083 6.4771 -2.3039 0.9595
-7.8595 6.2791 -2.3019 0.9596
-7.8965 6.2291 -2.3014 0.9596
-7.9695 6.1283 -2.3005 0.9596
-8.0766 5.9755 -2.2990 0.9596
-8.1116 5.9241 -2.2985 0.9596
-8.1463 5.8726 -2.2980 0.9596
-8.5261 5.8314 -2.3637 0.9585
-8.9820 5.8225 -2.4494 0.9570
-9.0158 5.7655 -2.4488 0.9570
-9.0823 5.6510 -2.4477 0.9571
-9.1150 5.5934 -2.4471 0.9571
-9.1473 5.5357 -2.4466 0.9571
-9.1792 5.4777 -2.4460 0.9571
-9.2420 5.3613 -2.4449 0.9571
-9.3033 5.2442 -2.4438 0.9571
-9.3334 5.1854 -2.4432 0.9571
-9.3631 5.1263 -2.4426 0.9571
-9.4213 5.0078 -2.4415 0.9572
-9.4499 4.9482 -2.4409 0.9572
-9.4781 4.8886 -2.4403 0.9572
-9.5333 4.7687 -2.4392 0.9572
-9.5603 4.7085 -2.4386 0.9572
-9.6646 4.4663 -2.4363 0.9573
-9.7388 4.2832 -2.4345 0.9573
-9.7863 4.1604 -2.4333 0.9573
-9.8094 4.0988 -2.4327 0.9573
-9.8322 4.0371 -2.4321 0.9573
-9.8981 3.8511 -2.4304 0.9574
-9.9401 3.7266 -2.4292 0.9574
-10.0194 3.4762 -2.4268 0.9574
-10.0566 3.3503 -2.4256 0.9574
-10.0747 3.2872 -2.4250 0.9574
-10.0923 3.2241 -2.4244 0.9575
-10.1588 2.9705 -2.4219 0.9575
-10.1897 2.8432 -2.4207 0.9575
-10.2045 2.7794 -2.4201 0.9575
-10.2330 2.6517 -2.4189 0.9576
-10.2466 2.5877 -2.4183 0.9576
-10.2598 2.5236 -2.4177 0.9576
-10.2971 2.3311 -2.4159 0.9576
-10.3087 2.2668 -2.4153 0.9576
-10.3512 2.0091 -2.4128 0.9577
-10.3608 1.9446 -2.4122 0.9577
-10.3700 1.8800 -2.4116 0.9577
-10.3951 1.6860 -2.4098 0.9577
-10.4100 1.5565 -2.4086 0.9577
-10.4167 1.4917 -2.4079 0.9577
-10.4232 1.4269 -2.4073 0.9577
-10.4291 1.3621 -2.4067 0.9578
-10.4347 1.2972 -2.4061 0.9578
-10.4490 1.1026 -2.4043 0.9578
-10.4530 1.0377 -2.4037 0.9578
-10.4566 0.9728 -2.4031 0.9578
-10.4648 0.7780 -2.4012 0.9579
-10.4668 0.7131 -2.4006 0.9579
-10.4683 0.6482 -2.4000 0.9579
-10.4695 0.5833 -2.3994 0.9579
-10.4706 0.4536 -2.3982 0.9579
-10.4706 0.3887 -2.3976 0.9579
-10.4701 0.3238 -2.3970 0.9579
-10.4680 0.1942 -2.3958 0.9579
-10.4643 0.0647 -2.3946 0.9580
-10.1168 0.0000 -2.3942 0.9593
-10.1111 -0.1251 -2.3930 0.9593
-10.1038 -0.2500 -2.3918 0.9593
-10.0996 -0.3124 -2.3913 0.9593
-10.0848 -0.4993 -2.3895 0.9593
-10.0729 -0.6237 -2.3884 0.9594
-10.0665 -0.6858 -2.3878 0.9594
-10.0596 -0.7479 -2.3872 0.9594
-10.0524 -0.8099 -2.3866 0.9594
-10.0447 -0.8718 -2.3861 0.9594
-10.0196 -1.0573 -2.3843 0.9594
-9.9808 -1.3035 -2.3821 0.9595
-9.9478 -1.4874 -2.3803 0.9595
-9.9239 -1.6096 -2.3792 0.9595
-9.8578 -1.9133 -2.3764 0.9596
-9.7825 -2.2146 -2.3736 0.9596
-9.7158 -2.4536 -2.3715 0.9596
-9.6982 -2.5131 -2.3709 0.9597
-9.6619 -2.6316 -2.3698 0.9597
-9.6049 -2.8085 -2.3682 0.9597
-9.5650 -2.9258 -2.3671 0.9597
-9.5027 -3.1006 -2.3655 0.9597
-9.4812 -3.1586 -2.3650 0.9598
-9.4594 -3.2165 -2.3645 0.9598
-9.4147 -3.3317 -2.3634 0.9598
-9.3918 -3.3891 -2.3629 0.9598
-9.3687 -3.4464 -2.3624 0.9598
-9.2724 -3.6738 -2.3603 0.9598
-9.2223 -3.7866 -2.3593 0.9598
-9.1707 -3.8987 -2.3583 0.9599
-9.1445 -3.9545 -2.3578 0.9599
-9.1179 -4.0101 -2.3573 0.9599
-9.0910 -4.0656 -2.3568 0.9599
-9.0638 -4.1208 -2.3563 0.9599
-9.0362 -4.1759 -2.3558 0.9599
-9.0083 -4.2308 -2.3553 0.9599
-8.9801 -4.2855 -2.3548 0.9599
-8.9227 -4.3944 -2.3538 0.9599
-8.8039 -4.6100 -2.3518 0.9600
-8.7735 -4.6634 -2.3514 0.9600
-8.7427 -4.7166 -2.3509 0.9600
-8.7116 -4.7696 -2.3504 0.9600
-8.6802 -4.8224 -2.3499 0.9600
-8.6484 -4.8750 -2.3495 0.9600
-8.5841 -4.9796 -2.3485 0.9600
-8.5514 -5.0316 -2.3480 0.9600
-8.5184 -5.0834 -2.3476 0.9600
-8.4516 -5.1863 -2.3467 0.9601
-8.3491 -5.3391 -2.3453 0.9601
-8.3143 -5.3896 -2.3448 0.9601
-8.2082 -5.5398 -2.3435 0.9601
-8.1360 -5.6388 -2.3426 0.9601
-8.0995 -5.6879 -2.3422 0.9601
-8.0626 -5.7368 -2.3417 0.9601
-8.0255 -5.7855 -2.3413 0.9601
-7.9881 -5.8339 -2.3409 0.9602
-7.8742 -5.9779 -2.3396 0.9602
-7.7968 -6.0726 -2.3388 0.9602
-7.7578 -6.1196 -2.3384 0.9602
-7.7184 -6.1664 -2.3379 0.9602
-7.6788 -6.2129 -2.3375 0.9602
-7.5987 -6.3052 -2.3367 0.9602
-7.5583 -6.3510 -2.3363 0.9602
-7.5176 -6.3965 -2.3359 0.9602
-7.4766 -6.4418 -2.3355 0.9602
-7.4353 -6.4868 -2.3351 0.9603
-7.3938 -6.5316 -2.3347 0.9603
-7.3521 -6.5760 -2.3343 0.9603
-7.2678 -6.6643 -2.3336 0.9603
-7.1825 -6.7514 -2.3328 0.9603
-7.0526 -6.8803 -2.3317 0.9603
-6.9647 -6.9647 -2.3309 0.9603
-6.8759 -7.0481 -2.3302 0.9603
-6.6497 -7.2519 -2.3284 0.9604
-6.6037 -7.2918 -2.3281 0.9604
-6.5111 -7.3707 -2.3274 0.9604
-6.4645 -7.4098 -2.3271 0.9604
-6.4176 -7.4486 -2.3268 0.9604
-6.3705 -7.4870 -2.3264 0.9604
-6.1799 -7.6380 -2.3251 0.9604
-6.1317 -7.6751 -2.3248 0.9604
-6.0833 -7.7118 -2.3245 0.9604
-5.8876 -7.8558 -2.3233 0.9604
-5.8382 -7.8910 -2.3230 0.9605
-5.7886 -7.9260 -2.3227 0.9605
-5.6887 -7.9949 -2.3221 0.9605
-5.6384 -8.0290 -2.3218 0.9605
-5.5879 -8.0627 -2.3215 0.9605
-5.4354 -8.1621 -2.3207 0.9605
-5.3843 -8.1945 -2.3204 0.9605
-5.3329 -8.2267 -2.3201 0.9605
-5.2813 -8.2586 -2.3199 0.9605
-5.2295 -8.2902 -2.3196 0.9605
-5.1775 -8.3214 -2.3194 0.9605
-4.8090 -8.5313 -2.3176 0.9605
-4.6485 -8.6164 -2.3169 0.9606
-4.5407 -8.6716 -2.3165 0.9606
-4.4323 -8.7254 -2.3160 0.9606
-4.3778 -8.7519 -2.3158 0.9606
-4.2684 -8.8038 -2.3154 0.9606
-4.1585 -8.8543 -2.3150 0.9606
-4.1033 -8.8791 -2.3148 0.9606
-3.8812 -8.9750 -2.3140 0.9606
-3.8253 -8.9981 -2.3139 0.9606
-3.6569 -9.0654 -2.3133 0.9606
-3.5440 -9.1086 -2.3130 0.9606
-3.3167 -9.1911 -2.3124 0.9606
-3.2024 -9.2301 -2.3121 0.9606
-3.1450 -9.2492 -2.3119 0.9606
-3.0876 -9.2679 -2.3118 0.9606
-2.9723 -9.3044 -2.3115 0.9606
-2.7988 -9.3563 -2.3112 0.9607
-2.7407 -9.3730 -2.3110 0.9607
-2.6825 -9.3893 -2.3109 0.9607
-2.6243 -9.4052 -2.3108 0.9607
-2.5660 -9.4208 -2.3107 0.9607
-2.5076 -9.4361 -2.3106 0.9607
-2.3904 -9.4656 -2.3104 0.9607
-2.3317 -9.4798 -2.3103 0.9607
-2.2142 -9.5071 -2.3101 0.9607
-2.0963 -9.5331 -2.3099 0.9607
-1.9188 -9.5694 -2.3097 0.9607
-1.8596 -9.5808 -2.3096 0.9607
-1.8003 -9.5918 -2.3096 0.9607
-1.7408 -9.6025 -2.3095 0.9607
-1.6814 -9.6128 -2.3094 0.9607
-1.5623 -9.6324 -2.3093 0.9607
-1.4430 -9.6506 -2.3092 0.9607
-1.2636 -9.6752 -2.3091 0.9607
-1.1438 -9.6899 -2.3091 0.9607
-0.9638 -9.7091 -2.3090 0.9607
-0.7835 -9.7252 -2.3090 0.9607
-0.7234 -9.7298 -2.3089 0.9607
-0.4222 -9.7476 -2.3090 0.9607
-0.3619 -9.7501 -2.3090 0.9607
-0.3016 -9.7522 -2.3090 0.9607
-0.1810 -9.7554 -2.3090 0.9607
-0.1207 -9.7565 -2.3091 0.9607
0.0604 -9.7575 -2.3092 0.9607
0.3620 -9.7520 -2.3094 0.9607
0.5429 -9.7443 -2.3096 0.9607
0.6032 -9.7411 -2.3097 0.9607
0.7237 -9.7335 -2.3098 0.9607
0.9042 -9.7194 -2.3101 0.9607
1.0244 -9.7082 -2.3102 0.9607
1.0845 -9.7021 -2.3103 0.9607
1.2045 -9.6888 -2.3105 0.9607
1.2645 -9.6816 -2.3106 0.9607
1.3244 -9.6740 -2.3107 0.9607
1.3842 -9.6661 -2.3109 0.9607
1.4441 -9.6579 -2.3110 0.9607
1.5038 -9.6492 -2.3111 0.9607
1.7424 -9.6112 -2.3116 0.9606
1.8019 -9.6008 -2.3117 0.9606
2.0986 -9.5435 -2.3125 0.9606
2.1577 -9.5310 -2.3126 0.9606
2.2167 -9.5181 -2.3128 0.9606
2.3346 -9.4913 -2.3131 0.9606
2.3934 -9.4773 -2.3133 0.9606
2.4522 -9.4630 -2.3134 0.9606
2.5108 -9.4484 -2.3136 0.9606
2.5694 -9.4334 -2.3138 0.9606
2.6279 -9.4181 -2.3140 0.9606
2.6863 -9.4024 -2.3141 0.9606
2.8029 -9.3700 -2.3145 0.9606
2.8610 -9.3532 -2.3147 0.9606
2.9190 -9.3362 -2.3149 0.9606
2.9770 -9.3187 -2.3151 0.9606
3.0348 -9.3010 -2.3153 0.9606
3.2651 -9.2264 -2.3161 0.9606
3.4367 -9.1669 -2.3168 0.9606
3.4937 -9.1463 -2.3170 0.9606
3.5505 -9.1255 -2.3173 0.9606
3.6072 -9.1042 -2.3175 0.9605
3.7203 -9.0608 -2.3180 0.9605
3.7767 -9.0386 -2.3182 0.9605
3.8329 -9.0160 -2.3185 0.9605
3.8890 -8.9931 -2.3187 0.9605
3.9450 -8.9698 -2.3190 0.9605
4.0008 -8.9462 -2.3192 0.9605
4.0565 -8.9223 -2.3195 0.9605
4.1121 -8.8981 -2.3197 0.9605
4.1675 -8.8735 -2.3200 0.9605
4.3877 -8.7718 -2.3211 0.9605
4.4425 -8.7456 -2.3214 0.9605
4.4970 -8.7190 -2.3217 0.9605
4.5514 -8.6921 -2.3219 0.9605
4.6597 -8.6373 -2.3225 0.9605
4.7674 -8.5812 -2.3231 0.9605
4.8210 -8.5526 -2.3234 0.9604
4.9277 -8.4946 -2.3240 0.9604
4.9808 -8.4651 -2.3243 0.9604
5.1391 -8.3746 -2.3253 0.9604
5.1915 -8.3438 -2.3256 0.9604
5.2958 -8.2813 -2.3263 0.9604
5.3993 -8.2175 -2.3269 0.9604
5.4509 -8.1851 -2.3273 0.9604
5.5022 -8.1525 -2.3276 0.9604
5.6042 -8.0861 -2.3283 0.9604
5.6550 -8.0525 -2.3286 0.9604
5.7559 -7.9844 -2.3293 0.9603
5.8060 -7.9499 -2.3297 0.9603
6.0046 -7.8087 -2.3311 0.9603
6.0537 -7.7726 -2.3315 0.9603
6.1513 -7.6996 -2.3322 0.9603
6.1999 -7.6626 -2.3326 0.9603
6.2481 -7.6254 -2.3330 0.9603
6.3917 -7.5119 -2.3341 0.9603
6.4391 -7.4734 -2.3345 0.9603
6.4863 -7.4347 -2.3349 0.9603
6.5332 -7.3957 -2.3353 0.9602
6.6265 -7.3168 -2.3361 0.9602
6.7187 -7.2368 -2.3369 0.9602
6.8101 -7.1557 -2.3377 0.9602
7.0344 -6.9479 -2.3398 0.9602
7.0785 -6.9055 -2.3402 0.9602
7.1224 -6.8628 -2.3407 0.9602
7.1660 -6.8199 -2.3411 0.9602
7.2524 -6.7333 -2.3420 0.9601
7.2953 -6.6895 -2.3424 0.9601
7.3803 -6.6013 -2.3433 0.9601
7.4223 -6.5567 -2.3437 0.9601
7.4642 -6.5120 -2.3442 0.9601
7.5057 -6.4669 -2.3446 0.9601
7.6288 -6.3302 -2.3460 0.9601
7.6693 -6.2841 -2.3464 0.9601
7.7095 -6.2378 -2.3469 0.9601
7.7495 -6.1912 -2.3474 0.9600
7.7891 -6.1444 -2.3478 0.9600
7.8677 -6.0500 -2.3487 0.9600
7.9065 -6.0024 -2.3492 0.9600
7.9834 -5.9065 -2.3502 0.9600
8.1336 -5.7119 -2.3521 0.9600
8.2071 -5.6132 -2.3530 0.9600
8.2433 -5.5635 -2.3535 0.9599
8.2793 -5.5135 -2.3540 0.9599
8.3503 -5.4130 -2.3550 0.9599
8.3854 -5.3624 -2.3555 0.9599
8.5563 -5.1060 -2.3580 0.9599
8.5896 -5.0541 -2.3585 0.9599
8.7512 -4.7913 -2.3611 0.9598
8.7826 -4.7381 -2.3616 0.9598
8.8444 -4.6311 -2.3626 0.9598
8.9050 -4.5234 -2.3637 0.9598
8.9347 -4.4692 -2.3642 0.9598
8.9642 -4.4149 -2.3647 0.9598
9.0222 -4.3056 -2.3658 0.9597
9.0506 -4.2507 -2.3663 0.9597
9.0788 -4.1956 -2.3669 0.9597
9.1341 -4.0848 -2.3679 0.9597
9.1613 -4.0292 -2.3685 0.9597
9.1881 -3.9734 -2.3690 0.9597
9.2146 -3.9173 -2.3695 0.9597
9.2408 -3.8612 -2.3701 0.9597
9.3421 -3.6348 -2.3723 0.9596
9.3665 -3.5778 -2.3728 0.9596
9.3907 -3.5206 -2.3734 0.9596
9.4379 -3.4057 -2.3745 0.9596
9.4609 -3.3481 -2.3750 0.9596
9.4837 -3.2903 -2.3756 0.9596
9.5922 -2.9991 -2.3784 0.9595
9.6128 -2.9404 -2.3789 0.9595
9.6331 -2.8815 -2.3795 0.9595
9.6726 -2.7635 -2.3806 0.9595
9.7107 -2.6449 -2.3818 0.9595
9.8161 -2.2861 -2.3852 0.9594
9.8484 -2.1656 -2.3863 0.9594
9.8941 -1.9840 -2.3881 0.9594
9.9497 -1.7403 -2.3904 0.9593
9.9627 -1.6792 -2.3910 0.9593
9.9994 -1.4951 -2.3927 0.9593
10.0220 -1.3720 -2.3939 0.9593
10.0532 -1.1867 -2.3956 0.9592
10.0628 -1.1248 -2.3962 0.9592
10.0720 -1.0628 -2.3968 0.9592
10.0808 -1.0007 -2.3974 0.9592
10.1051 -0.8142 -2.3992 0.9592
10.1124 -0.7518 -2.3997 0.9592
10.1259 -0.6270 -2.4009 0.9592
10.1321 -0.5645 -2.4015 0.9591
10.1378 -0.5020 -2.4021 0.9591
10.1432 -0.4393 -2.4027 0.9591
10.1571 -0.2513 -2.4045 0.9591
10.1644 -0.1257 -2.4056 0.9591
10.1675 -0.0629 -2.4062 0.9591
10.1744 0.1259 -2.4080 0.9590
10.1778 0.3148 -2.4098 0.9590
10.1757 0.6301 -2.4127 0.9590
10.1740 0.6932 -2.4133 0.9589
10.1721 0.7563 -2.4139 0.9589
10.1669 0.8825 -2.4151 0.9589
10.1601 1.0086 -2.4162 0.9589
10.1561 1.0717 -2.4168 0.9589
10.1470 1.1978 -2.4180 0.9589
10.1419 1.2609 -2.4186 0.9589
10.1364 1.3238 -2.4192 0.9589
10.1028 1.6386 -2.4221 0.9588
10.0949 1.7014 -2.4227 0.9588
10.0780 1.8270 -2.4239 0.9588
10.0495 2.0151 -2.4256 0.9587
10.0393 2.0778 -2.4262 0.9587
10.0176 2.2028 -2.4273 0.9587
9.9943 2.3277 -2.4285 0.9587
9.9821 2.3900 -2.4291 0.9587
9.9565 2.5145 -2.4302 0.9587
9.9431 2.5766 -2.4308 0.9587
9.9006 2.7625 -2.4325 0.9586
9.7876 3.1936 -2.4365 0.9586
9.7334 3.3770 -2.4381 0.9585
9.6758 3.5594 -2.4398 0.9585
9.6354 3.6805 -2.4409 0.9585
9.6146 3.7408 -2.4415 0.9585
9.5719 3.8612 -2.4426 0.9585
9.5500 3.9212 -2.4431 0.9585
9.5050 4.0408 -2.4442 0.9584
9.4105 4.2785 -2.4464 0.9584
9.3609 4.3964 -2.4475 0.9584
9.2839 4.5724 -2.4491 0.9584
9.2574 4.6307 -2.4496 0.9583
9.2305 4.6888 -2.4501 0.9583
9.2034 4.7469 -2.4506 0.9583
9.0908 4.9773 -2.4527 0.9583
9.0324 5.0915 -2.4538 0.9583
8.9725 5.2050 -2.4548 0.9583
8.9111 5.3177 -2.4558 0.9582
8.8483 5.4298 -2.4568 0.9582
8.6850 5.7065 -2.4593 0.9582
8.6513 5.7613 -2.4598 0.9582
8.6172 5.8158 -2.4603 0.9582
8.5480 5.9243 -2.4613 0.9582
8.5129 5.9782 -2.4617 0.9581
8.4774 6.0319 -2.4622 0.9581
8.4054 6.1387 -2.4632 0.9581
8.2573 6.3496 -2.4651 0.9581
8.1812 6.4537 -2.4660 0.9581
8.1426 6.5053 -2.4664 0.9581
8.1038 6.5568 -2.4669 0.9581
8.0250 6.6589 -2.4678 0.9580
7.9851 6.7097 -2.4683 0.9580
7.9044 6.8104 -2.4691 0.9580
7.8635 6.8604 -2.4696 0.9580
7.3624 6.6677 -2.3507 0.9600
7.1684 6.6552 -2.3148 0.9606
6.9236 6.9236 -2.3172 0.9606
6.8818 6.9675 -2.3176 0.9605
6.8398 7.0111 -2.3180 0.9605
6.7547 7.0974 -2.3187 0.9605
6.7117 7.1402 -2.3191 0.9605
6.6250 7.2250 -2.3198 0.9605
6.5813 7.2670 -2.3202 0.9605
6.4929 7.3501 -2.3209 0.9605
6.4484 7.3912 -2.3213 0.9605
6.4035 7.4321 -2.3216 0.9605
6.3584 7.4727 -2.3220 0.9605
6.1288 7.6714 -2.3237 0.9604
5.9880 7.7871 -2.3247 0.9604
5.9406 7.8251 -2.3250 0.9604
5.8450 7.9001 -2.3257 0.9604
5.7968 7.9372 -2.3260 0.9604
5.7483 7.9740 -2.3263 0.9604
5.6997 8.0104 -2.3266 0.9604
5.4528 8.1881 -2.3281 0.9604
5.4028 8.2227 -2.3284 0.9604
5.3525 8.2570 -2.3287 0.9604
5.2003 8.3579 -2.3295 0.9603
5.1491 8.3909 -2.3298 0.9603
5.0461 8.4559 -2.3304 0.9603
4.9943 8.4880 -2.3306 0.9603
4.9423 8.5197 -2.3309 0.9603
4.8376 8.5820 -2.3314 0.9603
4.7850 8.6127 -2.3317 0.9603
4.7321 8.6431 -2.3319 0.9603
4.5724 8.7322 -2.3327 0.9603
4.5188 8.7611 -2.3329 0.9603
4.3568 8.8461 -2.3336 0.9603
4.3024 8.8737 -2.3338 0.9603
4.2478 8.9010 -2.3340 0.9603
4.1931 8.9280 -2.3342 0.9603
4.0831 8.9807 -2.3347 0.9603
4.0279 9.0066 -2.3349 0.9603
3.9168 9.0573 -2.3353 0.9602
3.7490 9.1307 -2.3359 0.9602
3.6928 9.1545 -2.3361 0.9602
3.5232 9.2236 -2.3366 0.9602
3.4663 9.2459 -2.3368 0.9602
3.3522 9.2895 -2.3371 0.9602
3.2949 9.3107 -2.3373 0.9602
2.9484 9.4303 -2.3382 0.9602
2.8902 9.4489 -2.3384 0.9602
2.8319 9.4672 -2.3385 0.9602
2.7735 9.4850 -2.3387 0.9602
2.7149 9.5026 -2.3388 0.9602
2.6563 9.5197 -2.3389 0.9602
2.5975 9.5364 -2.3390 0.9602
2.5386 9.5528 -2.3392 0.9602
2.3613 9.5997 -2.3395 0.9602
2.3020 9.6145 -2.3396 0.9602
2.1831 9.6431 -2.3398 0.9602
2.0040 9.6831 -2.3401 0.9602
1.8842 9.7078 -2.3403 0.9602
1.8242 9.7196 -2.3403 0.9602
1.7040 9.7420 -2.3405 0.9602
1.2203 9.8162 -2.3409 0.9602
0.9163 9.8498 -2.3411 0.9602
0.7944 9.8605 -2.3411 0.9602
0.6724 9.8697 -2.3411 0.9602
0.6114 9.8737 -2.3411 0.9602
0.4892 9.8805 -2.3411 0.9602
0.4281 9.8833 -2.3411 0.9602
0.3058 9.8877 -2.3411 0.9602
0.1835 9.8906 -2.3410 0.9602
0.0612 9.8918 -2.3410 0.9602
-0.1224 9.8907 -2.3408 0.9602
-0.1835 9.8896 -2.3408 0.9602
-0.2446 9.8880 -2.3407 0.9602
-0.3669 9.8837 -2.3406 0.9602
-0.4280 9.8811 -2.3406 0.9602
-0.6112 9.8705 -2.3404 0.9602
-0.7332 9.8615 -2.3402 0.9602
-0.9159 9.8451 -2.3399 0.9602
-1.0982 9.8251 -2.3396 0.9602
-1.1589 9.8177 -2.3395 0.9602
-1.2801 9.8017 -2.3393 0.9602
-1.3407 9.7931 -2.3392 0.9602
-1.2598 8.7972 -2.1031 0.9641
-1.3587 8.7177 -2.0880 0.9644
-1.4142 8.7196 -2.0905 0.9643
-1.7025 9.7336 -2.3385 0.9602
-1.7626 9.7224 -2.3383 0.9602
-1.8225 9.7107 -2.3382 0.9602
-1.9423 9.6863 -2.3379 0.9602
-2.0020 9.6734 -2.3378 0.9602
-2.0617 9.6603 -2.3376 0.9602
-2.1213 9.6467 -2.3375 0.9602
-2.4176 9.5731 -2.3366 0.9602
-2.5354 9.5410 -2.3363 0.9602
-2.5942 9.5244 -2.3361 0.9602
-2.6528 9.5074 -2.3359 0.9602
-2.7114 9.4901 -2.3357 0.9602
-2.7698 9.4723 -2.3355 0.9602
-2.8862 9.4358 -2.3351 0.9603
-3.0021 9.3977 -2.3347 0.9603
-3.2325 9.3171 -2.3339 0.9603
-3.2897 9.2960 -2.3336 0.9603
-3.4038 9.2528 -2.3332 0.9603
-3.4606 9.2307 -2.3329 0.9603
-3.5172 9.2081 -2.3327 0.9603
-3.6301 9.1621 -2.3322 0.9603
-3.0569 7.3160 -1.8764 0.9679
-3.8540 9.0655 -2.3312 0.9603
-3.9095 9.0405 -2.3309 0.9603
-3.9649 9.0151 -2.3307 0.9603
-4.0201 8.9894 -2.3304 0.9603
-4.0751 8.9633 -2.3301 0.9603
-3.3835 7.2041 -1.8835 0.9678
-3.4219 7.1704 -1.8802 0.9679
-3.4506 7.1170 -1.8718 0.9680
-3.4875 7.0812 -1.8680 0.9681
-3.4673 6.9318 -1.8342 0.9686
-3.4972 6.8846 -1.8274 0.9688
-3.5790 6.7333 -1.8046 0.9691
-3.6050 6.6823 -1.7968 0.9693
-3.7051 6.5730 -1.7856 0.9695
-3.7530 6.4696 -1.7700 0.9697
-3.9104 6.4617 -1.7874 0.9694
-4.0729 6.5460 -1.8245 0.9688
-4.1870 6.6374 -1.8572 0.9683
-4.0520 6.3364 -1.7799 0.9696
-4.2688 6.5853 -1.8572 0.9683
-4.3075 6.5558 -1.8564 0.9683
-4.5162 6.6915 -1.9105 0.9674
-4.8709 6.7568 -1.9712 0.9663
-4.9847 6.8253 -2.0001 0.9659
-5.1087 6.8164 -2.0159 0.9656
-5.1837 6.8281 -2.0288 0.9654
-5.0861 6.6142 -1.9745 0.9663
-5.3696 6.8942 -2.0680 0.9647
-5.4704 6.9347 -2.0903 0.9643
-5.7942 6.9829 -2.1473 0.9634
-6.0350 7.0927 -2.2039 0.9624
-6.1361 7.1219 -2.2247 0.9621
-6.1599 6.8868 -2.1866 0.9627
-6.6008 7.1985 -2.3113 0.9606
-6.7718 7.0279 -2.3096 0.9607
-6.9384 6.8531 -2.3079 0.9607
-6.9792 6.8087 -2.3074 0.9607
-7.1003 6.6742 -2.3061 0.9607
-7.1795 6.5833 -2.3052 0.9608
-7.2575 6.4915 -2.3043 0.9608
-7.2961 6.4452 -2.3038 0.9608
-7.3343 6.3986 -2.3034 0.9608
-7.3722 6.3519 -2.3029 0.9608
-7.4099 6.3049 -2.3025 0.9608
-7.4472 6.2577 -2.3020 0.9608
-7.5574 6.1147 -2.3006 0.9608
-7.6294 6.0183 -2.2996 0.9608
-7.7694 5.8229 -2.2977 0.9609
-7.8036 5.7735 -2.2972 0.9609
-7.8375 5.7240 -2.2968 0.9609
-8.1738 5.7401 -2.3637 0.9598
-8.5788 5.7899 -2.4493 0.9583
-8.6126 5.7355 -2.4488 0.9584
-8.7118 5.5711 -2.4472 0.9584
-8.8391 5.3492 -2.4450 0.9584
-8.9608 5.1244 -2.4429 0.9585
-8.9902 5.0677 -2.4423 0.9585
-9.0194 5.0109 -2.4418 0.9585
-9.0481 4.9539 -2.4412 0.9585
-9.2131 4.6085 -2.4379 0.9585
-9.2393 4.5504 -2.4373 0.9585
-9.2651 4.4921 -2.4367 0.9586
-9.3647 4.2577 -2.4345 0.9586
-9.3887 4.1987 -2.4339 0.9586
-9.4123 4.1396 -2.4334 0.9586
-9.4355 4.0803 -2.4328 0.9586
-9.4583 4.0209 -2.4322 0.9586
-9.4808 3.9615 -2.4316 0.9586
-9.5246 3.8421 -2.4305 0.9587
-9.5459 3.7822 -2.4299 0.9587
-9.5874 3.6621 -2.4288 0.9587
-9.6658 3.4206 -2.4265 0.9587
-9.6845 3.3600 -2.4259 0.9587
-9.7207 3.2384 -2.4247 0.9588
-9.7884 2.9941 -2.4224 0.9588
-9.8199 2.8714 -2.4212 0.9588
-9.8351 2.8099 -2.4206 0.9588
-9.8644 2.6868 -2.4195 0.9588
-9.9428 2.3156 -2.4160 0.9589
-9.9658 2.1914 -2.4148 0.9589
-9.9767 2.1292 -2.4142 0.9589
-9.9872 2.0670 -2.4136 0.9589
-9.9974 2.0047 -2.4130 0.9590
-10.0255 1.8175 -2.4112 0.9590
-10.0423 1.6926 -2.4101 0.9590
-10.0501 1.6300 -2.4095 0.9590
-10.0645 1.5049 -2.4083 0.9590
-10.0775 1.3796 -2.4071 0.9591
-10.0833 1.3169 -2.4065 0.9591
-10.0939 1.1915 -2.4053 0.9591
-10.1068 1.0033 -2.4036 0.9591
-10.1104 0.9405 -2.4030 0.9591
-10.1135 0.8778 -2.4024 0.9591
-10.1221 0.6267 -2.4000 0.9592
-10.1246 0.3758 -2.3977 0.9592
-10.1243 0.3132 -2.3971 0.9592
-10.1225 0.1878 -2.3959 0.9592
-10.1191 0.0626 -2.3948 0.9593
-9.7901 -0.0605 -2.3938 0.9605
-9.7873 -0.1211 -2.3932 0.9605
-9.7764 -0.3024 -2.3915 0.9605
-9.7674 -0.4231 -2.3904 0.9605
-9.7622 -0.4834 -2.3899 0.9606
-9.7509 -0.6038 -2.3887 0.9606
-9.7382 -0.7240 -2.3876 0.9606
-9.7239 -0.8440 -2.3865 0.9606
-9.7163 -0.9039 -2.3860 0.9606
-9.7082 -0.9638 -2.3854 0.9606
-9.6998 -1.0235 -2.3848 0.9606
-9.6626 -1.2620 -2.3826 0.9607
-9.6524 -1.3214 -2.3821 0.9607
-9.6418 -1.3807 -2.3815 0.9607
-9.6308 -1.4400 -2.3810 0.9607
-9.6196 -1.4992 -2.3804 0.9607
-9.6079 -1.5583 -2.3799 0.9607
-9.5708 -1.7351 -2.3783 0.9607
-9.5577 -1.7938 -2.3777 0.9607
-9.5442 -1.8525 -2.3772 0.9608
-9.5018 -2.0278 -2.3756 0.9608
-9.4869 -2.0861 -2.3750 0.9608
-9.4717 -2.1443 -2.3745 0.9608
-9.4561 -2.2023 -2.3740 0.9608
-9.4073 -2.3757 -2.3724 0.9608
-9.3730 -2.4908 -2.3713 0.9609
-9.3374 -2.6054 -2.3703 0.9609
-9.3190 -2.6625 -2.3697 0.9609
-9.3004 -2.7195 -2.3692 0.9609
-9.2813 -2.7763 -2.3687 0.9609
-9.2619 -2.8330 -2.3682 0.9609
-9.2422 -2.8896 -2.3677 0.9609
-9.2017 -3.0024 -2.3666 0.9609
-9.1810 -3.0586 -2.3661 0.9609
-9.1599 -3.1146 -2.3656 0.9609
-9.1168 -3.2263 -2.3646 0.9610
-9.0496 -3.3927 -2.3631 0.9610
-9.0265 -3.4479 -2.3626 0.9610
-9.0031 -3.5029 -2.3621 0.9610
-8.9062 -3.7214 -2.3601 0.9610
-8.8812 -3.7756 -2.3596 0.9610
-8.8558 -3.8296 -2.3591 0.9610
-8.7778 -3.9908 -2.3576 0.9611
-8.7512 -4.0442 -2.3572 0.9611
-8.7242 -4.0974 -2.3567 0.9611
-8.6693 -4.2033 -2.3557 0.9611
-8.6414 -4.2559 -2.3552 0.9611
-8.5558 -4.4129 -2.3538 0.9611
-8.5267 -4.4648 -2.3534 0.9611
-8.4972 -4.5166 -2.3529 0.9611
-8.4374 -4.6195 -2.3520 0.9612
-8.4071 -4.6707 -2.3515 0.9612
-8.3454 -4.7724 -2.3506 0.9612
-8.3141 -4.8230 -2.3501 0.9612
-8.2185 -4.9736 -2.3488 0.9612
-8.1860 -5.0233 -2.3484 0.9612
-8.0868 -5.1715 -2.3470 0.9612
-8.0193 -5.2691 -2.3462 0.9613
-7.9851 -5.3176 -2.3457 0.9613
-7.9158 -5.4140 -2.3449 0.9613
-7.8097 -5.5569 -2.3436 0.9613
-7.7739 -5.6041 -2.3432 0.9613
-7.6645 -5.7443 -2.3419 0.9613
-7.6275 -5.7905 -2.3415 0.9613
-7.5902 -5.8366 -2.3411 0.9613
-7.5148 -5.9280 -2.3403 0.9614
-7.4767 -5.9733 -2.3399 0.9614
-7.4384 -6.0184 -2.3395 0.9614
-7.3998 -6.0633 -2.3391 0.9614
-7.3609 -6.1079 -2.3387 0.9614
-7.3218 -6.1523 -2.3383 0.9614
-7.2823 -6.1964 -2.3379 0.9614
-7.2028 -6.2839 -2.3372 0.9614
-7.1222 -6.3704 -2.3364 0.9614
-6.9994 -6.4984 -2.3353 0.9614
-6.9164 -6.5824 -2.3345 0.9614
-6.8323 -6.6654 -2.3338 0.9615
-6.6180 -6.8682 -2.3321 0.9615
-6.4865 -6.9867 -2.3310 0.9615
-6.3082 -7.1409 -2.3297 0.9615
-6.1720 -7.2537 -2.3287 0.9615
-6.1262 -7.2907 -2.3284 0.9615
-5.9408 -7.4360 -2.3272 0.9616
-5.8469 -7.5070 -2.3266 0.9616
-5.7521 -7.5768 -2.3260 0.9616
-5.7044 -7.6113 -2.3257 0.9616
-5.6565 -7.6455 -2.3254 0.9616
-5.5602 -7.7129 -2.3248 0.9616
-5.5117 -7.7462 -2.3245 0.9616
-5.4142 -7.8119 -2.3240 0.9616
-5.3651 -7.8443 -2.3237 0.9616
-5.3159 -7.8765 -2.3234 0.9616
-5.2665 -7.9083 -2.3232 0.9616
-5.2169 -7.9398 -2.3229 0.9616
-5.1671 -7.9710 -2.3226 0.9616
-5.0167 -8.0628 -2.3219 0.9617
-4.9662 -8.0928 -2.3216 0.9617
-4.9155 -8.1225 -2.3214 0.9617
-4.8137 -8.1810 -2.3209 0.9617
-4.7112 -8.2382 -2.3204 0.9617
-4.6597 -8.2664 -2.3202 0.9617
-4.6080 -8.2942 -2.3200 0.9617
-4.5562 -8.3218 -2.3197 0.9617
-4.3998 -8.4025 -2.3191 0.9617
-4.3473 -8.4288 -2.3189 0.9617
-4.2947 -8.4547 -2.3187 0.9617
-4.2420 -8.4803 -2.3185 0.9617
-4.1891 -8.5057 -2.3182 0.9617
-4.1361 -8.5307 -2.3180 0.9617
-3.8148 -8.6740 -2.3169 0.9617
-3.6525 -8.7413 -2.3164 0.9617
-3.5436 -8.7845 -2.3160 0.9617
-3.4889 -8.8056 -2.3159 0.9617
-3.2692 -8.8868 -2.3153 0.9618
-3.0476 -8.9628 -2.3147 0.9618
-2.9919 -8.9809 -2.3145 0.9618
-2.8803 -9.0162 -2.3143 0.9618
-2.8243 -9.0333 -2.3142 0.9618
-2.7683 -9.0502 -2.3140 0.9618
-2.6558 -9.0828 -2.3138 0.9618
-2.5995 -9.0986 -2.3137 0.9618
-2.5431 -9.1141 -2.3136 0.9618
-2.3732 -9.1584 -2.3133 0.9618
-2.3164 -9.1726 -2.3132 0.9618
-2.2596 -9.1863 -2.3131 0.9618
-2.0886 -9.2256 -2.3128 0.9618
-2.0314 -9.2381 -2.3127 0.9618
-1.9168 -9.2619 -2.3126 0.9618
-1.8020 -9.2843 -2.3124 0.9618
-1.7445 -9.2950 -2.3124 0.9618
-1.6293 -9.3154 -2.3123 0.9618
-1.5139 -9.3344 -2.3122 0.9618
-1.4562 -9.3434 -2.3121 0.9618
-1.3983 -9.3520 -2.3121 0.9618
-1.3405 -9.3604 -2.3120 0.9618
-1.1665 -9.3832 -2.3119 0.9618
-1.1084 -9.3901 -2.3119 0.9618
-1.0504 -9.3967 -2.3119 0.9618
-0.9922 -9.4029 -2.3118 0.9618
-0.7593 -9.4243 -2.3118 0.9618
-0.7010 -9.4289 -2.3118 0.9618
-0.6427 -9.4330 -2.3118 0.9618
-0.5259 -9.4402 -2.3118 0.9618
-0.4676 -9.4433 -2.3118 0.9618
-0.3508 -9.4485 -2.3118 0.9618
-0.2923 -9.4505 -2.3118 0.9618
-0.1754 -9.4536 -2.3119 0.9618
-0.0585 -9.4553 -2.3119 0.9618
0.0585 -9.4556 -2.3120 0.9618
0.1754 -9.4545 -2.3121 0.9618
0.2924 -9.4520 -2.3122 0.9618
0.5845 -9.4396 -2.3125 0.9618
0.6429 -9.4361 -2.3125 0.9618
0.7013 -9.4322 -2.3126 0.9618
0.7596 -9.4280 -2.3127 0.9618
0.8762 -9.4186 -2.3129 0.9618
0.9927 -9.4077 -2.3130 0.9618
1.1091 -9.3955 -2.3132 0.9618
1.1672 -9.3889 -2.3133 0.9618
1.3993 -9.3588 -2.3137 0.9618
1.5730 -9.3327 -2.3141 0.9618
1.6308 -9.3233 -2.3142 0.9618
1.7461 -9.3034 -2.3145 0.9618
1.8613 -9.2822 -2.3147 0.9618
