ply
format ascii 1.0
element vertex 1592
property float32 x
property float32 y
property float32 z
property float32 I
end_header
-0.2430 6.5470 -1.5504 0.9734
-0.3264 6.5919 -1.5619 0.9732
-0.3681 6.6062 -1.5658 0.9732
-0.3946 6.3718 -1.5108 0.9741
-0.4502 6.6084 -1.5675 0.9731
-0.5308 6.5884 -1.5642 0.9732
-0.7750 6.5654 -1.5645 0.9732
-0.8135 6.5432 -1.5604 0.9733
-0.9856 6.5915 -1.5772 0.9730
-1.0327 6.3675 -1.5266 0.9738
-1.2014 6.6271 -1.5939 0.9727
-1.2842 6.6165 -1.5950 0.9727
-1.4737 6.5097 -1.5795 0.9729
-1.5699 6.5568 -1.5955 0.9727
-1.6159 6.5694 -1.6010 0.9726
-1.6889 6.3555 -1.5562 0.9733
-1.7309 6.3548 -1.5587 0.9733
-1.8630 6.5209 -1.6049 0.9725
-1.9621 6.5594 -1.6203 0.9722
-1.9984 6.5333 -1.6168 0.9723
-2.0346 6.5074 -1.6135 0.9724
-2.1174 6.3557 -1.5854 0.9728
-2.1557 6.3398 -1.5847 0.9729
-2.2835 6.5817 -1.6487 0.9718
-2.4092 6.5491 -1.6514 0.9717
-2.3753 6.3358 -1.6013 0.9726
-2.4946 6.5308 -1.6544 0.9717
-2.5365 6.5192 -1.6554 0.9717
-2.5719 6.4911 -1.6523 0.9717
-2.6510 6.5718 -1.6770 0.9713
-2.8300 6.5442 -1.6873 0.9711
-2.9144 6.5169 -1.6894 0.9711
-3.0130 6.5197 -1.6997 0.9709
-3.0214 6.3313 -1.6602 0.9716
-3.0692 6.3304 -1.6649 0.9715
-3.2081 6.5138 -1.7183 0.9706
-3.2143 6.3278 -1.6796 0.9712
-3.5638 6.6058 -1.7763 0.9696
-3.5637 6.5091 -1.7562 0.9700
-3.7384 6.5372 -1.7822 0.9695
-3.7783 6.5132 -1.7819 0.9695
-3.8555 6.4608 -1.7805 0.9695
-3.8909 6.4295 -1.7785 0.9696
-4.0770 6.4631 -1.8084 0.9691
-4.1114 6.4292 -1.8060 0.9691
-4.0967 6.3198 -1.7823 0.9695
-4.3450 6.5245 -1.8551 0.9683
-4.4372 6.4877 -1.8601 0.9682
-4.5374 6.5469 -1.8851 0.9678
-4.5863 6.5309 -1.8886 0.9677
-4.5986 6.4630 -1.8771 0.9679
-4.5468 6.3072 -1.8400 0.9685
-4.7896 6.5582 -1.9218 0.9672
-4.8729 6.5019 -1.9229 0.9672
-4.9419 6.5096 -1.9342 0.9670
-4.9981 6.4997 -1.9404 0.9669
-5.0469 6.4799 -1.9437 0.9668
-5.1624 6.4617 -1.9573 0.9666
-5.5513 6.5242 -2.0272 0.9654
-5.4845 6.2865 -1.9743 0.9663
-5.7923 6.5571 -2.0705 0.9647
-5.6143 6.2769 -1.9930 0.9660
-5.9043 6.5194 -2.0815 0.9645
-5.9844 6.5263 -2.0955 0.9643
-5.8391 6.2894 -2.0310 0.9653
-5.9021 6.2789 -2.0393 0.9652
-5.9764 6.2797 -2.0516 0.9650
-6.0472 6.2758 -2.0625 0.9648
-6.4194 6.4993 -2.1618 0.9631
-6.5055 6.5056 -2.1773 0.9629
-6.6022 6.4409 -2.1828 0.9628
-6.7485 6.3435 -2.1918 0.9626
-6.8650 6.2172 -2.1918 0.9626
-6.9033 6.1747 -2.1918 0.9626
-6.9413 6.1319 -2.1918 0.9626
-6.9791 6.0888 -2.1918 0.9626
-7.0539 6.0020 -2.1918 0.9626
-7.2361 5.7811 -2.1918 0.9626
-7.3071 5.6911 -2.1918 0.9626
-7.3769 5.6004 -2.1918 0.9626
-7.4114 5.5546 -2.1918 0.9626
-7.4795 5.4625 -2.1918 0.9626
-7.5131 5.4162 -2.1918 0.9626
-7.5465 5.3696 -2.1918 0.9626
-7.5796 5.3228 -2.1918 0.9626
-7.6448 5.2287 -2.1918 0.9626
-7.6770 5.1813 -2.1918 0.9626
-7.7089 5.1337 -2.1918 0.9626
-7.7405 5.0860 -2.1918 0.9626
-7.8639 4.8929 -2.1918 0.9626
-7.8940 4.8442 -2.1918 0.9626
-7.9533 4.7462 -2.1918 0.9626
-7.9825 4.6969 -2.1918 0.9626
-8.4750 4.5722 -2.2789 0.9612
-8.7067 4.5591 -2.3259 0.9604
-8.8038 4.5408 -2.3442 0.9601
-8.9134 4.3216 -2.3442 0.9601
-8.9400 4.2664 -2.3442 0.9601
-8.9662 4.2111 -2.3442 0.9601
-9.0428 4.0440 -2.3442 0.9601
-9.0676 3.9880 -2.3442 0.9601
-9.1162 3.8755 -2.3442 0.9601
-9.1400 3.8191 -2.3442 0.9601
-9.1866 3.7058 -2.3442 0.9601
-9.2754 3.4774 -2.3442 0.9601
-9.2967 3.4200 -2.3442 0.9601
-9.3177 3.3624 -2.3442 0.9601
-9.3383 3.3047 -2.3442 0.9601
-9.3980 3.1309 -2.3442 0.9601
-9.4172 3.0727 -2.3442 0.9601
-9.4903 2.8389 -2.3442 0.9601
-9.5247 2.7213 -2.3442 0.9601
-9.5577 2.6033 -2.3442 0.9601
-9.5891 2.4849 -2.3442 0.9601
-9.6043 2.4255 -2.3442 0.9601
-9.6191 2.3661 -2.3442 0.9601
-9.6477 2.2469 -2.3442 0.9601
-9.6613 2.1872 -2.3442 0.9601
-9.7125 1.9476 -2.3442 0.9601
-9.7243 1.8875 -2.3442 0.9601
-9.7358 1.8273 -2.3442 0.9601
-9.7781 1.5859 -2.3442 0.9601
-9.8059 1.4042 -2.3442 0.9601
-9.8302 1.2221 -2.3442 0.9601
-9.8511 1.0395 -2.3442 0.9601
-9.8687 0.8566 -2.3442 0.9601
-9.8738 0.7955 -2.3442 0.9601
-9.8786 0.7344 -2.3442 0.9601
-9.8966 0.4287 -2.3442 0.9601
-9.8990 0.3675 -2.3442 0.9601
-9.9041 0.1838 -2.3442 0.9601
-9.9056 0.0613 -2.3442 0.9601
-9.5876 0.0000 -2.3442 0.9613
-9.5875 -0.0593 -2.3442 0.9613
-9.5869 -0.1186 -2.3442 0.9613
-9.5860 -0.1778 -2.3442 0.9613
-9.5830 -0.2964 -2.3442 0.9613
-9.5787 -0.4149 -2.3442 0.9613
-9.5759 -0.4741 -2.3442 0.9613
-9.5693 -0.5925 -2.3442 0.9613
-9.5613 -0.7108 -2.3442 0.9613
-9.5517 -0.8291 -2.3442 0.9613
-9.5464 -0.8881 -2.3442 0.9613
-9.5407 -0.9471 -2.3442 0.9613
-9.5347 -1.0061 -2.3442 0.9613
-9.5283 -1.0650 -2.3442 0.9613
-9.5215 -1.1239 -2.3442 0.9613
-9.5144 -1.1828 -2.3442 0.9613
-9.5069 -1.2416 -2.3442 0.9613
-9.4908 -1.3591 -2.3442 0.9613
-9.4822 -1.4178 -2.3442 0.9613
-9.4733 -1.4764 -2.3442 0.9613
-9.4640 -1.5349 -2.3442 0.9613
-9.4443 -1.6519 -2.3442 0.9613
-9.4231 -1.7686 -2.3442 0.9613
-9.4005 -1.8850 -2.3442 0.9613
-9.3887 -1.9431 -2.3442 0.9613
-9.3639 -2.0590 -2.3442 0.9613
-9.3510 -2.1169 -2.3442 0.9613
-9.3377 -2.1747 -2.3442 0.9613
-9.3241 -2.2324 -2.3442 0.9613
-9.2811 -2.4050 -2.3442 0.9613
-9.2660 -2.4624 -2.3442 0.9613
-9.2506 -2.5196 -2.3442 0.9613
-9.2348 -2.5768 -2.3442 0.9613
-9.2187 -2.6338 -2.3442 0.9613
-9.2023 -2.6908 -2.3442 0.9613
-9.1683 -2.8044 -2.3442 0.9613
-9.1508 -2.8610 -2.3442 0.9613
-9.1329 -2.9176 -2.3442 0.9613
-9.1147 -2.9740 -2.3442 0.9613
-9.0961 -3.0303 -2.3442 0.9613
-9.0580 -3.1426 -2.3442 0.9613
-9.0384 -3.1985 -2.3442 0.9613
-8.9775 -3.3657 -2.3442 0.9613
-8.9565 -3.4211 -2.3442 0.9613
-8.9135 -3.5316 -2.3442 0.9613
-8.8915 -3.5867 -2.3442 0.9613
-8.8464 -3.6964 -2.3442 0.9613
-8.8234 -3.7510 -2.3442 0.9613
-8.7763 -3.8599 -2.3442 0.9613
-8.7523 -3.9141 -2.3442 0.9613
-8.7279 -3.9681 -2.3442 0.9613
-8.7032 -4.0220 -2.3442 0.9613
-8.6782 -4.0757 -2.3442 0.9613
-8.6271 -4.1828 -2.3442 0.9613
-8.6011 -4.2361 -2.3442 0.9613
-8.5747 -4.2892 -2.3442 0.9613
-8.4097 -4.6043 -2.3442 0.9613
-8.3811 -4.6562 -2.3442 0.9613
-8.3521 -4.7080 -2.3442 0.9613
-8.2331 -4.9131 -2.3442 0.9613
-8.1405 -5.0650 -2.3442 0.9613
-8.1090 -5.1153 -2.3442 0.9613
-8.0773 -5.1653 -2.3442 0.9613
-7.9800 -5.3143 -2.3442 0.9613
-7.8801 -5.4614 -2.3442 0.9613
-7.8462 -5.5100 -2.3442 0.9613
-7.7426 -5.6546 -2.3442 0.9613
-7.6363 -5.7973 -2.3442 0.9613
-7.5641 -5.8913 -2.3442 0.9613
-7.5275 -5.9380 -2.3442 0.9613
-7.4160 -6.0766 -2.3442 0.9613
-7.3783 -6.1224 -2.3442 0.9613
-7.3020 -6.2131 -2.3442 0.9613
-7.1065 -6.4359 -2.3442 0.9613
-7.0665 -6.4797 -2.3442 0.9613
-7.0263 -6.5233 -2.3442 0.9613
-6.9858 -6.5667 -2.3442 0.9613
-6.9041 -6.6525 -2.3442 0.9613
-6.8213 -6.7374 -2.3442 0.9613
-6.7795 -6.7795 -2.3442 0.9613
-6.6525 -6.9041 -2.3442 0.9613
-6.5666 -6.9858 -2.3442 0.9613
-6.5233 -7.0263 -2.3442 0.9613
-6.4797 -7.0665 -2.3442 0.9613
-6.4359 -7.1065 -2.3442 0.9613
-6.3475 -7.1855 -2.3442 0.9613
-6.3030 -7.2246 -2.3442 0.9613
-6.2581 -7.2635 -2.3442 0.9613
-6.2131 -7.3020 -2.3442 0.9613
-6.1678 -7.3403 -2.3442 0.9613
-5.9380 -7.5275 -2.3442 0.9613
-5.8913 -7.5641 -2.3442 0.9613
-5.7973 -7.6363 -2.3442 0.9613
-5.7024 -7.7075 -2.3442 0.9613
-5.6546 -7.7426 -2.3442 0.9613
-5.6066 -7.7774 -2.3442 0.9613
-5.5584 -7.8119 -2.3442 0.9613
-5.4614 -7.8801 -2.3442 0.9613
-5.4126 -7.9137 -2.3442 0.9613
-5.3635 -7.9470 -2.3442 0.9613
-5.2152 -8.0452 -2.3442 0.9613
-5.1153 -8.1091 -2.3442 0.9613
-5.0650 -8.1405 -2.3442 0.9613
-4.8621 -8.2633 -2.3442 0.9613
-4.7595 -8.3228 -2.3442 0.9613
-4.6043 -8.4097 -2.3442 0.9613
-4.5522 -8.4380 -2.3442 0.9613
-4.4475 -8.4937 -2.3442 0.9613
-4.3949 -8.5210 -2.3442 0.9613
-4.0220 -8.7032 -2.3442 0.9613
-3.9141 -8.7523 -2.3442 0.9613
-3.8599 -8.7763 -2.3442 0.9613
-3.8056 -8.8000 -2.3442 0.9613
-3.7510 -8.8234 -2.3442 0.9613
-3.6417 -8.8691 -2.3442 0.9613
-3.5867 -8.8915 -2.3442 0.9613
-3.4211 -8.9565 -2.3442 0.9613
-3.3657 -8.9775 -2.3442 0.9613
-3.3101 -8.9981 -2.3442 0.9613
-3.1986 -9.0383 -2.3442 0.9613
-3.1426 -9.0580 -2.3442 0.9613
-3.0865 -9.0772 -2.3442 0.9613
-2.9740 -9.1147 -2.3442 0.9613
-2.8610 -9.1508 -2.3442 0.9613
-2.8044 -9.1683 -2.3442 0.9613
-2.7477 -9.1855 -2.3442 0.9613
-2.4624 -9.2660 -2.3442 0.9613
-2.2901 -9.3101 -2.3442 0.9613
-2.1747 -9.3377 -2.3442 0.9613
-2.1169 -9.3510 -2.3442 0.9613
-1.7686 -9.4231 -2.3442 0.9613
-1.7103 -9.4338 -2.3442 0.9613
-1.5349 -9.4640 -2.3442 0.9613
-1.4764 -9.4733 -2.3442 0.9613
-1.3591 -9.4908 -2.3442 0.9613
-1.2417 -9.5069 -2.3442 0.9613
-1.1240 -9.5215 -2.3442 0.9613
-0.9471 -9.5407 -2.3442 0.9613
-0.7700 -9.5567 -2.3442 0.9613
-0.6517 -9.5654 -2.3442 0.9613
-0.5926 -9.5693 -2.3442 0.9613
-0.5333 -9.5728 -2.3442 0.9613
-0.4742 -9.5759 -2.3442 0.9613
-0.4149 -9.5787 -2.3442 0.9613
-0.3557 -9.5810 -2.3442 0.9613
-0.2964 -9.5830 -2.3442 0.9613
-0.2371 -9.5847 -2.3442 0.9613
-0.1778 -9.5860 -2.3442 0.9613
0.0000 -9.5876 -2.3442 0.9613
0.1779 -9.5860 -2.3442 0.9613
0.3557 -9.5810 -2.3442 0.9613
0.4149 -9.5786 -2.3442 0.9613
0.4741 -9.5759 -2.3442 0.9613
0.5334 -9.5728 -2.3442 0.9613
0.7700 -9.5567 -2.3442 0.9613
1.0061 -9.5347 -2.3442 0.9613
1.0651 -9.5283 -2.3442 0.9613
1.1240 -9.5215 -2.3442 0.9613
1.1828 -9.5144 -2.3442 0.9613
1.2417 -9.5069 -2.3442 0.9613
1.3004 -9.4990 -2.3442 0.9613
1.3592 -9.4908 -2.3442 0.9613
1.4764 -9.4733 -2.3442 0.9613
1.7103 -9.4338 -2.3442 0.9613
1.7686 -9.4231 -2.3442 0.9613
1.8268 -9.4120 -2.3442 0.9613
1.8850 -9.4005 -2.3442 0.9613
1.9431 -9.3887 -2.3442 0.9613
2.0012 -9.3765 -2.3442 0.9613
2.0591 -9.3639 -2.3442 0.9613
2.1169 -9.3510 -2.3442 0.9613
2.2901 -9.3101 -2.3442 0.9613
2.5196 -9.2506 -2.3442 0.9613
2.5768 -9.2349 -2.3442 0.9613
2.6339 -9.2188 -2.3442 0.9613
2.6908 -9.2023 -2.3442 0.9613
2.7477 -9.1855 -2.3442 0.9613
2.9176 -9.1329 -2.3442 0.9613
3.0865 -9.0772 -2.3442 0.9613
3.1426 -9.0579 -2.3442 0.9613
3.1986 -9.0383 -2.3442 0.9613
3.4765 -8.9352 -2.3442 0.9613
3.5317 -8.9135 -2.3442 0.9613
3.5867 -8.8914 -2.3442 0.9613
3.6964 -8.8464 -2.3442 0.9613
3.8055 -8.8000 -2.3442 0.9613
3.8599 -8.7763 -2.3442 0.9613
3.9141 -8.7523 -2.3442 0.9613
3.9681 -8.7279 -2.3442 0.9613
4.1294 -8.6528 -2.3442 0.9613
4.1828 -8.6271 -2.3442 0.9613
4.2361 -8.6011 -2.3442 0.9613
4.3421 -8.5480 -2.3442 0.9613
4.5000 -8.4660 -2.3442 0.9613
4.5522 -8.4380 -2.3442 0.9613
4.6563 -8.3810 -2.3442 0.9613
4.7080 -8.3521 -2.3442 0.9613
4.7596 -8.3228 -2.3442 0.9613
5.0146 -8.1717 -2.3442 0.9613
5.0651 -8.1405 -2.3442 0.9613
5.2152 -8.0452 -2.3442 0.9613
5.3143 -7.9800 -2.3442 0.9613
5.4126 -7.9137 -2.3442 0.9613
5.4614 -7.8801 -2.3442 0.9613
5.5585 -7.8119 -2.3442 0.9613
5.6067 -7.7774 -2.3442 0.9613
5.7024 -7.7075 -2.3442 0.9613
5.7973 -7.6363 -2.3442 0.9613
5.8444 -7.6003 -2.3442 0.9613
5.9844 -7.4906 -2.3442 0.9613
6.0306 -7.4535 -2.3442 0.9613
6.0766 -7.4160 -2.3442 0.9613
6.2131 -7.3020 -2.3442 0.9613
6.2582 -7.2635 -2.3442 0.9613
6.3030 -7.2246 -2.3442 0.9613
6.3476 -7.1855 -2.3442 0.9613
6.4359 -7.1065 -2.3442 0.9613
6.4798 -7.0665 -2.3442 0.9613
6.5667 -6.9858 -2.3442 0.9613
6.6951 -6.8628 -2.3442 0.9613
6.8628 -6.6951 -2.3442 0.9613
6.9859 -6.5666 -2.3442 0.9613
7.0263 -6.5233 -2.3442 0.9613
7.0665 -6.4797 -2.3442 0.9613
7.1065 -6.4359 -2.3442 0.9613
7.1461 -6.3918 -2.3442 0.9613
7.1855 -6.3475 -2.3442 0.9613
7.2246 -6.3030 -2.3442 0.9613
7.2635 -6.2581 -2.3442 0.9613
7.3403 -6.1678 -2.3442 0.9613
7.4535 -6.0306 -2.3442 0.9613
7.5275 -5.9379 -2.3442 0.9613
7.5641 -5.8913 -2.3442 0.9613
7.6721 -5.7499 -2.3442 0.9613
7.7075 -5.7024 -2.3442 0.9613
7.7426 -5.6546 -2.3442 0.9613
7.7774 -5.6066 -2.3442 0.9613
7.8462 -5.5100 -2.3442 0.9613
7.9801 -5.3142 -2.3442 0.9613
8.0452 -5.2152 -2.3442 0.9613
8.1405 -5.0650 -2.3442 0.9613
8.1717 -5.0146 -2.3442 0.9613
8.2026 -4.9639 -2.3442 0.9613
8.2331 -4.9131 -2.3442 0.9613
8.2633 -4.8621 -2.3442 0.9613
8.2933 -4.8109 -2.3442 0.9613
8.3228 -4.7595 -2.3442 0.9613
8.4097 -4.6043 -2.3442 0.9613
8.4380 -4.5522 -2.3442 0.9613
8.5747 -4.2892 -2.3442 0.9613
8.6271 -4.1828 -2.3442 0.9613
8.6528 -4.1294 -2.3442 0.9613
8.6782 -4.0758 -2.3442 0.9613
8.7280 -3.9681 -2.3442 0.9613
8.7523 -3.9141 -2.3442 0.9613
8.8001 -3.8055 -2.3442 0.9613
8.8234 -3.7510 -2.3442 0.9613
8.8465 -3.6964 -2.3442 0.9613
8.9775 -3.3657 -2.3442 0.9613
8.9981 -3.3101 -2.3442 0.9613
9.0184 -3.2544 -2.3442 0.9613
9.0384 -3.1985 -2.3442 0.9613
9.0772 -3.0865 -2.3442 0.9613
9.1147 -2.9740 -2.3442 0.9613
9.1330 -2.9176 -2.3442 0.9613
9.1684 -2.8044 -2.3442 0.9613
9.1855 -2.7477 -2.3442 0.9613
9.2958 -2.3475 -2.3442 0.9613
9.3102 -2.2900 -2.3442 0.9613
9.3378 -2.1747 -2.3442 0.9613
9.3510 -2.1169 -2.3442 0.9613
9.3887 -1.9431 -2.3442 0.9613
9.4005 -1.8850 -2.3442 0.9613
9.4120 -1.8268 -2.3442 0.9613
9.4339 -1.7103 -2.3442 0.9613
9.4443 -1.6519 -2.3442 0.9613
9.4543 -1.5934 -2.3442 0.9613
9.4640 -1.5350 -2.3442 0.9613
9.4822 -1.4178 -2.3442 0.9613
9.4909 -1.3591 -2.3442 0.9613
9.5069 -1.2416 -2.3442 0.9613
9.5144 -1.1828 -2.3442 0.9613
9.5283 -1.0650 -2.3442 0.9613
9.5408 -0.9471 -2.3442 0.9613
9.5517 -0.8290 -2.3442 0.9613
9.5567 -0.7700 -2.3442 0.9613
9.5613 -0.7109 -2.3442 0.9613
9.5693 -0.5925 -2.3442 0.9613
9.5787 -0.4149 -2.3442 0.9613
9.5811 -0.3556 -2.3442 0.9613
9.5860 -0.1779 -2.3442 0.9613
9.5869 -0.1186 -2.3442 0.9613
9.5875 0.0593 -2.3442 0.9613
9.5869 0.1186 -2.3442 0.9613
9.5860 0.1779 -2.3442 0.9613
9.5847 0.2372 -2.3442 0.9613
9.5831 0.2964 -2.3442 0.9613
9.5811 0.3557 -2.3442 0.9613
9.5787 0.4150 -2.3442 0.9613
9.5655 0.6517 -2.3442 0.9613
9.5567 0.7700 -2.3442 0.9613
9.5518 0.8290 -2.3442 0.9613
9.5464 0.8881 -2.3442 0.9613
9.5407 0.9471 -2.3442 0.9613
9.5069 1.2417 -2.3442 0.9613
9.4990 1.3004 -2.3442 0.9613
9.4908 1.3591 -2.3442 0.9613
9.4822 1.4178 -2.3442 0.9613
9.4733 1.4764 -2.3442 0.9613
9.4640 1.5350 -2.3442 0.9613
9.4543 1.5935 -2.3442 0.9613
9.4442 1.6519 -2.3442 0.9613
9.4338 1.7103 -2.3442 0.9613
9.4231 1.7686 -2.3442 0.9613
9.4005 1.8850 -2.3442 0.9613
9.3887 1.9431 -2.3442 0.9613
9.3765 2.0011 -2.3442 0.9613
9.3639 2.0591 -2.3442 0.9613
9.3510 2.1170 -2.3442 0.9613
9.3378 2.1747 -2.3442 0.9613
9.2958 2.3476 -2.3442 0.9613
9.2661 2.4624 -2.3442 0.9613
9.2506 2.5197 -2.3442 0.9613
9.2023 2.6908 -2.3442 0.9613
9.1855 2.7477 -2.3442 0.9613
9.1684 2.8044 -2.3442 0.9613
9.1330 2.9176 -2.3442 0.9613
9.1147 2.9740 -2.3442 0.9613
9.0962 3.0304 -2.3442 0.9613
9.0579 3.1426 -2.3442 0.9613
8.9981 3.3101 -2.3442 0.9613
8.9775 3.3657 -2.3442 0.9613
8.9565 3.4212 -2.3442 0.9613
8.8915 3.5867 -2.3442 0.9613
8.8691 3.6416 -2.3442 0.9613
8.8235 3.7511 -2.3442 0.9613
8.8001 3.8055 -2.3442 0.9613
8.7279 3.9682 -2.3442 0.9613
8.6528 4.1294 -2.3442 0.9613
8.6271 4.1828 -2.3442 0.9613
8.6011 4.2361 -2.3442 0.9613
8.5747 4.2892 -2.3442 0.9613
8.5480 4.3421 -2.3442 0.9613
8.5211 4.3949 -2.3442 0.9613
8.4660 4.5000 -2.3442 0.9613
8.4097 4.6044 -2.3442 0.9613
8.2331 4.9131 -2.3442 0.9613
8.1717 5.0146 -2.3442 0.9613
8.0772 5.1653 -2.3442 0.9613
7.9472 5.2218 -2.3251 0.9616
7.6751 5.1800 -2.2640 0.9626
7.2718 5.2422 -2.1918 0.9638
7.2393 5.2871 -2.1918 0.9638
7.2064 5.3317 -2.1918 0.9638
7.1063 5.4645 -2.1918 0.9638
7.0381 5.5520 -2.1918 0.9638
7.0037 5.5954 -2.1918 0.9638
6.9339 5.6816 -2.1918 0.9638
6.8631 5.7669 -2.1918 0.9638
6.8273 5.8092 -2.1918 0.9638
6.7913 5.8513 -2.1918 0.9638
6.7550 5.8932 -2.1918 0.9638
6.6815 5.9763 -2.1918 0.9638
6.6445 6.0175 -2.1918 0.9638
6.5696 6.0993 -2.1918 0.9638
6.4936 6.1801 -2.1918 0.9638
6.4167 6.2599 -2.1918 0.9638
6.2599 6.4167 -2.1918 0.9638
6.2201 6.4553 -2.1918 0.9638
6.1800 6.4936 -2.1918 0.9638
6.0175 6.6445 -2.1918 0.9638
5.9349 6.7184 -2.1918 0.9638
5.3800 6.4837 -2.0600 0.9659
5.3179 6.4901 -2.0516 0.9660
5.1919 6.6661 -2.0660 0.9658
5.1421 6.6871 -2.0626 0.9659
4.9224 6.4838 -1.9904 0.9670
4.8469 6.4672 -1.9761 0.9673
4.9360 6.7587 -2.0463 0.9661
4.5984 6.4627 -1.9393 0.9679
4.6374 6.6912 -1.9906 0.9670
4.5064 6.6771 -1.9696 0.9674
4.4283 6.6497 -1.9534 0.9676
4.2469 6.4635 -1.8910 0.9687
4.1278 6.6342 -1.9105 0.9683
4.0646 6.6237 -1.9002 0.9685
3.9904 6.6868 -1.9040 0.9684
3.9420 6.6996 -1.9006 0.9685
3.5948 6.6634 -1.8512 0.9693
3.5498 6.6784 -1.8493 0.9693
3.5048 6.6934 -1.8474 0.9694
3.3900 6.6736 -1.8302 0.9696
3.3268 6.6507 -1.8182 0.9698
3.2174 6.5327 -1.7805 0.9705
3.2363 6.6749 -1.8138 0.9699
3.1370 6.6792 -1.8043 0.9701
3.0686 6.6401 -1.7885 0.9703
2.9782 6.5506 -1.7594 0.9708
2.8169 6.6261 -1.7605 0.9708
2.7638 6.6146 -1.7528 0.9709
2.7140 6.6100 -1.7471 0.9710
2.6926 6.6750 -1.7599 0.9708
2.6133 6.5958 -1.7347 0.9712
2.5726 6.6120 -1.7347 0.9712
2.5306 6.6251 -1.7340 0.9712
2.4690 6.7117 -1.7486 0.9710
2.4263 6.7237 -1.7477 0.9710
2.3657 6.6848 -1.7338 0.9712
2.1850 6.4260 -1.6595 0.9724
2.1833 6.5536 -1.6890 0.9720
2.1725 6.6583 -1.7125 0.9716
2.0546 6.4314 -1.6508 0.9726
2.0741 6.6338 -1.6994 0.9718
1.9545 6.6844 -1.7028 0.9717
1.8972 6.6404 -1.6886 0.9720
1.7075 6.5893 -1.6643 0.9724
1.6262 6.6115 -1.6647 0.9724
1.4497 6.5927 -1.6505 0.9726
1.3667 6.4039 -1.6011 0.9734
1.3344 6.6548 -1.6595 0.9724
1.2839 6.6147 -1.6475 0.9726
1.2436 6.6262 -1.6484 0.9726
1.2016 6.6280 -1.6470 0.9726
1.1193 6.3994 -1.5884 0.9736
1.0733 6.6174 -1.6391 0.9728
0.9816 6.5651 -1.6231 0.9730
0.9117 6.6598 -1.6436 0.9727
0.8699 6.6606 -1.6424 0.9727
0.8231 6.6214 -1.6314 0.9729
0.7769 6.5812 -1.6203 0.9731
0.6980 6.6154 -1.6265 0.9730
0.6351 6.3978 -1.5720 0.9739
0.5295 6.5724 -1.6122 0.9732
0.4891 6.5785 -1.6129 0.9732
0.4497 6.6006 -1.6176 0.9731
0.2848 6.5746 -1.6090 0.9733
0.2440 6.5734 -1.6084 0.9733
0.2046 6.6163 -1.6185 0.9731
0.1645 6.6496 -1.6264 0.9730
-0.0000 6.6327 -1.6217 0.9731
-0.0410 6.6347 -1.6223 0.9730
-0.1225 6.6028 -1.6147 0.9732
-0.1624 6.5657 -1.6058 0.9733
-0.4921 6.6183 -1.6227 0.9730
-0.5303 6.5825 -1.6147 0.9732
-0.6072 6.5268 -1.6027 0.9734
-0.6914 6.5523 -1.6110 0.9732
-0.7354 6.5786 -1.6185 0.9731
-0.7766 6.5792 -1.6198 0.9731
-0.8581 6.5702 -1.6201 0.9731
-0.8956 6.5422 -1.6145 0.9732
-0.9750 6.5211 -1.6122 0.9732
-1.0320 6.6216 -1.6386 0.9728
-1.0725 6.6125 -1.6379 0.9728
-1.1096 6.5832 -1.6323 0.9729
-1.1135 6.3660 -1.5802 0.9737
-1.1540 6.3653 -1.5817 0.9737
-1.2772 6.5803 -1.6390 0.9728
-1.3162 6.5638 -1.6368 0.9728
-1.3552 6.5478 -1.6349 0.9728
-1.3915 6.5200 -1.6301 0.9729
-1.4964 6.6100 -1.6571 0.9725
-1.5333 6.5837 -1.6529 0.9725
-1.6054 6.3571 -1.6031 0.9734
-1.7015 6.5663 -1.6585 0.9725
-1.7783 6.5289 -1.6545 0.9725
-1.9136 6.5444 -1.6672 0.9723
-2.0370 6.5152 -1.6690 0.9723
-2.1227 6.5057 -1.6732 0.9722
-2.1174 6.3557 -1.6380 0.9728
-2.1557 6.3398 -1.6373 0.9728
-2.3527 6.6482 -1.7243 0.9714
-2.3984 6.6465 -1.7277 0.9713
-2.4184 6.5742 -1.7127 0.9716
-2.3753 6.3358 -1.6544 0.9725
-2.4955 6.5332 -1.7100 0.9716
-2.6010 6.5647 -1.7265 0.9713
-2.8498 6.5901 -1.7555 0.9709
-2.8778 6.5434 -1.7478 0.9710
-2.9424 6.4719 -1.7383 0.9711
-3.1244 6.5471 -1.7738 0.9706
-3.2143 6.3278 -1.7354 0.9712
-3.4275 6.5457 -1.8066 0.9700
-3.5125 6.5108 -1.8088 0.9700
-3.5805 6.5398 -1.8230 0.9698
-3.6464 6.5634 -1.8358 0.9696
-3.6980 6.5604 -1.8414 0.9695
-3.8651 6.4768 -1.8442 0.9694
-3.8713 6.3086 -1.8098 0.9700
-4.1476 6.5750 -1.9008 0.9685
-4.0967 6.3198 -1.8415 0.9695
-4.3514 6.5342 -1.9195 0.9682
-4.4082 6.5315 -1.9267 0.9681
-4.4402 6.3228 -1.8891 0.9687
-4.6999 6.5196 -1.9651 0.9674
-5.0036 6.5070 -2.0070 0.9668
-5.0510 6.4851 -2.0099 0.9667
-5.3526 6.4507 -2.0495 0.9661
-5.4161 6.4456 -2.0585 0.9659
-5.5783 6.4744 -2.0896 0.9654
-5.5550 6.2884 -2.0516 0.9660
-5.6143 6.2769 -2.0591 0.9659
-5.9770 6.5183 -2.1624 0.9642
-5.8391 6.2894 -2.0984 0.9653
-6.1750 6.4883 -2.1901 0.9638
-6.2201 6.4553 -2.1918 0.9638
-6.2994 6.3778 -2.1918 0.9638
-6.3778 6.2995 -2.1918 0.9638
-6.4936 6.1800 -2.1918 0.9638
-6.5317 6.1398 -2.1918 0.9638
-6.5695 6.0992 -2.1918 0.9638
-6.6071 6.0585 -2.1918 0.9638
-6.6445 6.0175 -2.1918 0.9638
-6.6816 5.9763 -2.1918 0.9638
-6.7913 5.8513 -2.1918 0.9638
-6.8631 5.7669 -2.1918 0.9638
-6.8987 5.7244 -2.1918 0.9638
-6.9339 5.6816 -2.1918 0.9638
-6.9689 5.6386 -2.1918 0.9638
-7.0037 5.5954 -2.1918 0.9638
-7.0723 5.5083 -2.1918 0.9638
-7.1063 5.4645 -2.1918 0.9638
-7.2718 5.2422 -2.1918 0.9638
-7.3361 5.1519 -2.1918 0.9638
-7.3678 5.1064 -2.1918 0.9638
-7.3992 5.0607 -2.1918 0.9638
-7.4304 5.0149 -2.1918 0.9638
-7.5522 4.8295 -2.1918 0.9638
-7.5819 4.7827 -2.1918 0.9638
-7.6693 4.6413 -2.1918 0.9638
-7.7221 4.6082 -2.1987 0.9636
-7.8118 4.5964 -2.2162 0.9634
-7.9135 4.5907 -2.2369 0.9630
-8.3402 4.5663 -2.3249 0.9616
-8.4660 4.5000 -2.3442 0.9613
-8.5480 4.3421 -2.3442 0.9613
-8.6011 4.2361 -2.3442 0.9613
-8.6782 4.0758 -2.3442 0.9613
-8.7523 3.9141 -2.3442 0.9613
-8.8001 3.8055 -2.3442 0.9613
-8.8464 3.6964 -2.3442 0.9613
-8.8691 3.6416 -2.3442 0.9613
-8.8915 3.5867 -2.3442 0.9613
-8.9135 3.5317 -2.3442 0.9613
-8.9565 3.4212 -2.3442 0.9613
-8.9981 3.3101 -2.3442 0.9613
-9.0383 3.1986 -2.3442 0.9613
-9.0772 3.0865 -2.3442 0.9613
-9.1329 2.9176 -2.3442 0.9613
-9.1683 2.8044 -2.3442 0.9613
-9.1855 2.7477 -2.3442 0.9613
-9.2023 2.6908 -2.3442 0.9613
-9.2660 2.4624 -2.3442 0.9613
-9.2958 2.3476 -2.3442 0.9613
-9.3101 2.2901 -2.3442 0.9613
-9.3765 2.0011 -2.3442 0.9613
-9.4005 1.8850 -2.3442 0.9613
-9.4120 1.8268 -2.3442 0.9613
-9.4231 1.7686 -2.3442 0.9613
-9.4443 1.6519 -2.3442 0.9613
-9.4640 1.5350 -2.3442 0.9613
-9.4733 1.4764 -2.3442 0.9613
-9.4990 1.3004 -2.3442 0.9613
-9.5144 1.1828 -2.3442 0.9613
-9.5283 1.0651 -2.3442 0.9613
-9.5347 1.0061 -2.3442 0.9613
-9.5407 0.9471 -2.3442 0.9613
-9.5464 0.8881 -2.3442 0.9613
-9.5517 0.8291 -2.3442 0.9613
-9.5567 0.7700 -2.3442 0.9613
-9.5693 0.5925 -2.3442 0.9613
-9.5759 0.4741 -2.3442 0.9613
-9.5787 0.4149 -2.3442 0.9613
-9.5831 0.2964 -2.3442 0.9613
-9.5847 0.2372 -2.3442 0.9613
-9.5860 0.1779 -2.3442 0.9613
-9.5869 0.1186 -2.3442 0.9613
-9.5875 0.0593 -2.3442 0.9613
-9.2866 -0.1723 -2.3442 0.9624
-9.2853 -0.2297 -2.3442 0.9624
-9.2768 -0.4593 -2.3442 0.9624
-9.2738 -0.5167 -2.3442 0.9624
-9.2667 -0.6313 -2.3442 0.9624
-9.2626 -0.6886 -2.3442 0.9624
-9.2582 -0.7459 -2.3442 0.9624
-9.2483 -0.8604 -2.3442 0.9624
-9.2427 -0.9175 -2.3442 0.9624
-9.2307 -1.0318 -2.3442 0.9624
-9.2241 -1.0888 -2.3442 0.9624
-9.2172 -1.1459 -2.3442 0.9624
-9.2100 -1.2028 -2.3442 0.9624
-9.1861 -1.3735 -2.3442 0.9624
-9.1774 -1.4303 -2.3442 0.9624
-9.1590 -1.5437 -2.3442 0.9624
-9.1493 -1.6003 -2.3442 0.9624
-9.1392 -1.6568 -2.3442 0.9624
-9.1288 -1.7133 -2.3442 0.9624
-9.1180 -1.7697 -2.3442 0.9624
-9.1069 -1.8261 -2.3442 0.9624
-9.0589 -2.0508 -2.3442 0.9624
-9.0329 -2.1627 -2.3442 0.9624
-9.0054 -2.2742 -2.3442 0.9624
-8.9464 -2.4963 -2.3442 0.9624
-8.9308 -2.5516 -2.3442 0.9624
-8.8820 -2.7168 -2.3442 0.9624
-8.8650 -2.7717 -2.3442 0.9624
-8.8477 -2.8264 -2.3442 0.9624
-8.8120 -2.9357 -2.3442 0.9624
-8.7937 -2.9901 -2.3442 0.9624
-8.7561 -3.0987 -2.3442 0.9624
-8.7171 -3.2067 -2.3442 0.9624
-8.6561 -3.3679 -2.3442 0.9624
-8.6138 -3.4747 -2.3442 0.9624
-8.5921 -3.5279 -2.3442 0.9624
-8.5701 -3.5809 -2.3442 0.9624
-8.5478 -3.6339 -2.3442 0.9624
-8.5022 -3.7393 -2.3442 0.9624
-8.4789 -3.7918 -2.3442 0.9624
-8.4553 -3.8442 -2.3442 0.9624
-8.3577 -4.0521 -2.3442 0.9624
-8.3325 -4.1037 -2.3442 0.9624
-8.2810 -4.2065 -2.3442 0.9624
-8.2016 -4.3594 -2.3442 0.9624
-8.1745 -4.4100 -2.3442 0.9624
-8.0629 -4.6109 -2.3442 0.9624
-7.9464 -4.8089 -2.3442 0.9624
-7.8250 -5.0040 -2.3442 0.9624
-7.7939 -5.0523 -2.3442 0.9624
-7.6988 -5.1960 -2.3442 0.9624
-7.6011 -5.3379 -2.3442 0.9624
-7.5679 -5.3848 -2.3442 0.9624
-7.5345 -5.4315 -2.3442 0.9624
-7.4667 -5.5243 -2.3442 0.9624
-7.4324 -5.5704 -2.3442 0.9624
-7.2924 -5.7525 -2.3442 0.9624
-7.2207 -5.8422 -2.3442 0.9624
-7.1479 -5.9311 -2.3442 0.9624
-7.0740 -6.0191 -2.3442 0.9624
-7.0366 -6.0627 -2.3442 0.9624
-6.9611 -6.1492 -2.3442 0.9624
-6.9229 -6.1922 -2.3442 0.9624
-6.7282 -6.4033 -2.3442 0.9624
-6.6485 -6.4860 -2.3442 0.9624
-6.5677 -6.5677 -2.3442 0.9624
-6.4447 -6.6884 -2.3442 0.9624
-6.4033 -6.7282 -2.3442 0.9624
-6.3615 -6.7676 -2.3442 0.9624
-6.3196 -6.8068 -2.3442 0.9624
-6.2773 -6.8458 -2.3442 0.9624
-6.1922 -6.9229 -2.3442 0.9624
-6.0627 -7.0366 -2.3442 0.9624
-5.7975 -7.2567 -2.3442 0.9624
-5.6619 -7.3630 -2.3442 0.9624
-5.6163 -7.3978 -2.3442 0.9624
-5.5704 -7.4324 -2.3442 0.9624
-5.4780 -7.5008 -2.3442 0.9624
-5.4315 -7.5345 -2.3442 0.9624
-5.3848 -7.5679 -2.3442 0.9624
-5.2908 -7.6340 -2.3442 0.9624
-5.2435 -7.6665 -2.3442 0.9624
-5.1004 -7.7625 -2.3442 0.9624
-5.0522 -7.7939 -2.3442 0.9624
-5.0040 -7.8250 -2.3442 0.9624
-4.9555 -7.8558 -2.3442 0.9624
-4.8579 -7.9165 -2.3442 0.9624
-4.7597 -7.9759 -2.3442 0.9624
-4.7103 -8.0052 -2.3442 0.9624
-4.6109 -8.0629 -2.3442 0.9624
-4.5609 -8.0912 -2.3442 0.9624
-4.4100 -8.1744 -2.3442 0.9624
-4.3594 -8.2016 -2.3442 0.9624
-4.2065 -8.2810 -2.3442 0.9624
-4.1552 -8.3069 -2.3442 0.9624
-4.1038 -8.3324 -2.3442 0.9624
-4.0004 -8.3826 -2.3442 0.9624
-3.8964 -8.4314 -2.3442 0.9624
-3.8442 -8.4553 -2.3442 0.9624
-3.7918 -8.4789 -2.3442 0.9624
-3.7393 -8.5022 -2.3442 0.9624
-3.6339 -8.5478 -2.3442 0.9624
-3.5809 -8.5701 -2.3442 0.9624
-3.5279 -8.5921 -2.3442 0.9624
-3.3679 -8.6561 -2.3442 0.9624
-3.3143 -8.6767 -2.3442 0.9624
-3.2606 -8.6971 -2.3442 0.9624
-3.0987 -8.7561 -2.3442 0.9624
-3.0444 -8.7750 -2.3442 0.9624
-2.8811 -8.8300 -2.3442 0.9624
-2.7717 -8.8650 -2.3442 0.9624
-2.6618 -8.8986 -2.3442 0.9624
-2.5516 -8.9308 -2.3442 0.9624
-2.4963 -8.9464 -2.3442 0.9624
-2.3854 -8.9766 -2.3442 0.9624
-2.3299 -8.9912 -2.3442 0.9624
-2.0508 -9.0589 -2.3442 0.9624
-1.8824 -9.0954 -2.3442 0.9624
-1.8261 -9.1069 -2.3442 0.9624
-1.7698 -9.1180 -2.3442 0.9624
-1.6568 -9.1392 -2.3442 0.9624
-1.6003 -9.1493 -2.3442 0.9624
-1.5437 -9.1590 -2.3442 0.9624
-1.4870 -9.1684 -2.3442 0.9624
-1.3735 -9.1860 -2.3442 0.9624
-1.3167 -9.1944 -2.3442 0.9624
-1.2598 -9.2023 -2.3442 0.9624
-1.1459 -9.2172 -2.3442 0.9624
-1.0889 -9.2241 -2.3442 0.9624
-0.9747 -9.2369 -2.3442 0.9624
-0.8604 -9.2483 -2.3442 0.9624
-0.6314 -9.2667 -2.3442 0.9624
-0.5740 -9.2704 -2.3442 0.9624
-0.4593 -9.2768 -2.3442 0.9624
-0.4019 -9.2794 -2.3442 0.9624
-0.3446 -9.2818 -2.3442 0.9624
-0.2297 -9.2853 -2.3442 0.9624
-0.1148 -9.2875 -2.3442 0.9624
-0.0574 -9.2880 -2.3442 0.9624
0.0000 -9.2882 -2.3442 0.9624
0.0574 -9.2880 -2.3442 0.9624
0.1149 -9.2875 -2.3442 0.9624
0.1723 -9.2866 -2.3442 0.9624
0.2297 -9.2853 -2.3442 0.9624
0.3446 -9.2818 -2.3442 0.9624
0.4594 -9.2768 -2.3442 0.9624
0.6314 -9.2667 -2.3442 0.9624
0.7459 -9.2582 -2.3442 0.9624
0.8032 -9.2534 -2.3442 0.9624
0.9175 -9.2428 -2.3442 0.9624
0.9747 -9.2369 -2.3442 0.9624
1.0889 -9.2241 -2.3442 0.9624
1.1459 -9.2172 -2.3442 0.9624
1.2029 -9.2100 -2.3442 0.9624
1.2598 -9.2023 -2.3442 0.9624
1.3735 -9.1861 -2.3442 0.9624
1.4871 -9.1684 -2.3442 0.9624
1.8261 -9.1069 -2.3442 0.9624
1.8824 -9.0954 -2.3442 0.9624
1.9386 -9.0836 -2.3442 0.9624
1.9948 -9.0714 -2.3442 0.9624
2.1068 -9.0461 -2.3442 0.9624
2.1627 -9.0329 -2.3442 0.9624
2.2185 -9.0194 -2.3442 0.9624
2.4963 -8.9464 -2.3442 0.9624
2.5516 -8.9308 -2.3442 0.9624
2.6619 -8.8986 -2.3442 0.9624
2.7717 -8.8650 -2.3442 0.9624
2.9357 -8.8120 -2.3442 0.9624
3.2067 -8.7171 -2.3442 0.9624
3.3143 -8.6767 -2.3442 0.9624
3.3679 -8.6561 -2.3442 0.9624
3.4213 -8.6351 -2.3442 0.9624
3.4747 -8.6137 -2.3442 0.9624
3.5279 -8.5921 -2.3442 0.9624
3.7394 -8.5022 -2.3442 0.9624
4.0522 -8.3576 -2.3442 0.9624
4.1038 -8.3324 -2.3442 0.9624
4.1553 -8.3069 -2.3442 0.9624
4.2065 -8.2810 -2.3442 0.9624
4.3594 -8.2016 -2.3442 0.9624
4.5108 -8.1193 -2.3442 0.9624
4.6109 -8.0629 -2.3442 0.9624
4.6607 -8.0342 -2.3442 0.9624
4.7103 -8.0052 -2.3442 0.9624
4.8089 -7.9464 -2.3442 0.9624
4.8580 -7.9165 -2.3442 0.9624
4.9555 -7.8557 -2.3442 0.9624
5.0040 -7.8250 -2.3442 0.9624
5.1960 -7.6988 -2.3442 0.9624
5.2435 -7.6665 -2.3442 0.9624
5.3849 -7.5679 -2.3442 0.9624
5.4315 -7.5345 -2.3442 0.9624
5.5243 -7.4667 -2.3442 0.9624
5.6619 -7.3630 -2.3442 0.9624
5.7975 -7.2567 -2.3442 0.9624
5.8423 -7.2207 -2.3442 0.9624
5.8868 -7.1844 -2.3442 0.9624
5.9753 -7.1110 -2.3442 0.9624
6.1061 -6.9990 -2.3442 0.9624
6.1922 -6.9229 -2.3442 0.9624
6.2349 -6.8845 -2.3442 0.9624
6.2774 -6.8458 -2.3442 0.9624
6.3196 -6.8069 -2.3442 0.9624
6.3616 -6.7676 -2.3442 0.9624
6.4448 -6.6884 -2.3442 0.9624
6.4860 -6.6484 -2.3442 0.9624
6.5270 -6.6082 -2.3442 0.9624
6.5677 -6.5677 -2.3442 0.9624
6.6082 -6.5270 -2.3442 0.9624
6.6485 -6.4860 -2.3442 0.9624
6.7677 -6.3615 -2.3442 0.9624
6.8069 -6.3196 -2.3442 0.9624
6.8845 -6.2349 -2.3442 0.9624
7.0740 -6.0191 -2.3442 0.9624
7.1844 -5.8868 -2.3442 0.9624
7.2924 -5.7525 -2.3442 0.9624
7.3278 -5.7073 -2.3442 0.9624
7.4324 -5.5704 -2.3442 0.9624
7.4668 -5.5243 -2.3442 0.9624
7.7939 -5.0523 -2.3442 0.9624
7.8250 -5.0040 -2.3442 0.9624
7.9464 -4.8089 -2.3442 0.9624
8.0053 -4.7102 -2.3442 0.9624
8.0342 -4.6606 -2.3442 0.9624
8.0629 -4.6109 -2.3442 0.9624
8.1193 -4.5108 -2.3442 0.9624
8.1471 -4.4605 -2.3442 0.9624
8.1745 -4.4100 -2.3442 0.9624
8.2284 -4.3086 -2.3442 0.9624
8.2549 -4.2576 -2.3442 0.9624
8.3069 -4.1552 -2.3442 0.9624
8.3324 -4.1037 -2.3442 0.9624
8.3577 -4.0521 -2.3442 0.9624
8.3826 -4.0004 -2.3442 0.9624
8.4789 -3.7918 -2.3442 0.9624
8.5022 -3.7393 -2.3442 0.9624
8.5478 -3.6339 -2.3442 0.9624
8.5701 -3.5809 -2.3442 0.9624
8.6138 -3.4747 -2.3442 0.9624
8.6768 -3.3142 -2.3442 0.9624
8.6971 -3.2605 -2.3442 0.9624
8.7367 -3.1527 -2.3442 0.9624
8.7561 -3.0987 -2.3442 0.9624
8.7751 -3.0444 -2.3442 0.9624
8.8121 -2.9356 -2.3442 0.9624
8.8301 -2.8811 -2.3442 0.9624
8.8650 -2.7717 -2.3442 0.9624
8.8986 -2.6618 -2.3442 0.9624
8.9149 -2.6068 -2.3442 0.9624
8.9465 -2.4963 -2.3442 0.9624
8.9617 -2.4409 -2.3442 0.9624
9.0329 -2.1627 -2.3442 0.9624
9.0589 -2.0508 -2.3442 0.9624
9.0955 -1.8824 -2.3442 0.9624
9.1069 -1.8261 -2.3442 0.9624
9.1180 -1.7697 -2.3442 0.9624
9.1288 -1.7133 -2.3442 0.9624
9.1392 -1.6568 -2.3442 0.9624
9.1493 -1.6003 -2.3442 0.9624
9.1590 -1.5437 -2.3442 0.9624
9.1944 -1.3166 -2.3442 0.9624
9.2024 -1.2598 -2.3442 0.9624
9.2100 -1.2028 -2.3442 0.9624
9.2242 -1.0888 -2.3442 0.9624
9.2582 -0.7459 -2.3442 0.9624
9.2704 -0.5740 -2.3442 0.9624
9.2768 -0.4593 -2.3442 0.9624
9.2795 -0.4019 -2.3442 0.9624
9.2818 -0.3446 -2.3442 0.9624
9.2866 -0.1723 -2.3442 0.9624
9.2875 -0.1149 -2.3442 0.9624
9.2880 0.0575 -2.3442 0.9624
9.2866 0.1723 -2.3442 0.9624
9.2854 0.2297 -2.3442 0.9624
9.2818 0.3446 -2.3442 0.9624
9.2738 0.5167 -2.3442 0.9624
9.2704 0.5741 -2.3442 0.9624
9.2667 0.6314 -2.3442 0.9624
9.2626 0.6887 -2.3442 0.9624
9.2582 0.7460 -2.3442 0.9624
9.2307 1.0318 -2.3442 0.9624
9.2241 1.0889 -2.3442 0.9624
9.2172 1.1459 -2.3442 0.9624
9.2100 1.2029 -2.3442 0.9624
9.1944 1.3167 -2.3442 0.9624
9.1861 1.3735 -2.3442 0.9624
9.1684 1.4870 -2.3442 0.9624
9.1590 1.5437 -2.3442 0.9624
9.1392 1.6569 -2.3442 0.9624
9.1180 1.7698 -2.3442 0.9624
9.1069 1.8262 -2.3442 0.9624
9.0589 2.0508 -2.3442 0.9624
8.9465 2.4963 -2.3442 0.9624
8.9308 2.5516 -2.3442 0.9624
8.8820 2.7168 -2.3442 0.9624
8.8300 2.8812 -2.3442 0.9624
8.8121 2.9357 -2.3442 0.9624
8.7937 2.9902 -2.3442 0.9624
8.7561 3.0987 -2.3442 0.9624
8.7171 3.2067 -2.3442 0.9624
8.6971 3.2606 -2.3442 0.9624
8.6767 3.3143 -2.3442 0.9624
8.6561 3.3679 -2.3442 0.9624
8.6351 3.4214 -2.3442 0.9624
8.5701 3.5810 -2.3442 0.9624
8.5478 3.6339 -2.3442 0.9624
8.5252 3.6867 -2.3442 0.9624
8.5022 3.7393 -2.3442 0.9624
8.4790 3.7919 -2.3442 0.9624
8.4553 3.8442 -2.3442 0.9624
8.3577 4.0522 -2.3442 0.9624
8.3324 4.1038 -2.3442 0.9624
8.3069 4.1552 -2.3442 0.9624
8.2549 4.2577 -2.3442 0.9624
8.2284 4.3086 -2.3442 0.9624
8.2016 4.3594 -2.3442 0.9624
8.1745 4.4101 -2.3442 0.9624
8.1471 4.4605 -2.3442 0.9624
8.1193 4.5108 -2.3442 0.9624
8.0913 4.5610 -2.3442 0.9624
8.0629 4.6109 -2.3442 0.9624
8.0342 4.6607 -2.3442 0.9624
7.9760 4.7597 -2.3442 0.9624
7.8863 4.9069 -2.3442 0.9624
7.8558 4.9555 -2.3442 0.9624
7.8250 5.0040 -2.3442 0.9624
7.7939 5.0523 -2.3442 0.9624
7.7308 5.1483 -2.3442 0.9624
7.1602 5.0947 -2.2180 0.9644
7.0132 5.1219 -2.1918 0.9648
6.9493 5.2083 -2.1918 0.9648
6.8843 5.2938 -2.1918 0.9648
6.7849 5.4206 -2.1918 0.9648
6.7513 5.4625 -2.1918 0.9648
6.6832 5.5456 -2.1918 0.9648
6.6141 5.6278 -2.1918 0.9648
6.5792 5.6686 -2.1918 0.9648
6.4729 5.7897 -2.1918 0.9648
6.4369 5.8296 -2.1918 0.9648
6.4008 5.8693 -2.1918 0.9648
6.2908 5.9870 -2.1918 0.9648
6.1786 6.1027 -2.1918 0.9648
6.1027 6.1787 -2.1918 0.9648
5.9870 6.2908 -2.1918 0.9648
5.9479 6.3277 -2.1918 0.9648
5.9087 6.3644 -2.1918 0.9648
5.8296 6.4370 -2.1918 0.9648
5.7896 6.4729 -2.1918 0.9648
5.7495 6.5086 -2.1918 0.9648
5.6686 6.5792 -2.1918 0.9648
5.5868 6.6488 -2.1918 0.9648
5.5456 6.6832 -2.1918 0.9648
5.4970 6.7087 -2.1890 0.9649
4.9801 6.4764 -2.0620 0.9669
4.8469 6.4672 -2.0398 0.9672
4.9134 6.7277 -2.1026 0.9662
4.4229 6.4667 -1.9774 0.9682
4.5029 6.6718 -2.0315 0.9673
4.2210 6.6914 -1.9968 0.9679
4.0232 6.6481 -1.9612 0.9685
3.9757 6.6623 -1.9581 0.9685
3.9146 6.6531 -1.9483 0.9687
3.7990 6.7397 -1.9527 0.9686
3.7384 6.7290 -1.9428 0.9687
3.5316 6.4505 -1.8561 0.9701
3.5607 6.6989 -1.9147 0.9692
3.3844 6.6627 -1.8861 0.9696
3.3214 6.6400 -1.8738 0.9698
3.2362 6.5709 -1.8487 0.9702
3.2248 6.6513 -1.8656 0.9700
3.0261 6.5482 -1.8206 0.9707
3.0181 6.6382 -1.8404 0.9704
2.9596 6.6179 -1.8297 0.9705
2.8281 6.4304 -1.7730 0.9714
2.7853 6.6659 -1.8234 0.9706
2.6880 6.6637 -1.8135 0.9708
2.3890 6.6202 -1.7763 0.9714
2.3478 6.6345 -1.7762 0.9714
2.3050 6.6438 -1.7749 0.9714
2.2544 6.6299 -1.7674 0.9715
2.2042 6.6163 -1.7601 0.9716
2.1492 6.5868 -1.7487 0.9718
2.0882 6.5368 -1.7320 0.9721
2.0081 6.4228 -1.6984 0.9726
2.0386 6.6648 -1.7590 0.9717
1.9542 6.6833 -1.7574 0.9717
1.8928 6.6251 -1.7390 0.9720
1.7506 6.5879 -1.7204 0.9723
1.6632 6.5858 -1.7144 0.9724
1.3252 6.4031 -1.6503 0.9734
1.3303 6.6343 -1.7077 0.9725
1.0785 6.3987 -1.6377 0.9736
0.9483 6.6223 -1.6884 0.9728
0.8190 6.5881 -1.6756 0.9730
0.7865 6.6631 -1.6934 0.9727
0.7389 6.6100 -1.6787 0.9729
0.6502 6.5501 -1.6613 0.9732
0.5552 6.3963 -1.6204 0.9739
0.5153 6.3956 -1.6194 0.9739
0.4489 6.5885 -1.6667 0.9731
0.4081 6.5904 -1.6665 0.9731
0.3563 6.3957 -1.6167 0.9739
0.2836 6.5464 -1.6538 0.9733
0.2050 6.6290 -1.6739 0.9730
0.1581 6.3891 -1.6130 0.9740
0.0815 6.5904 -1.6635 0.9732
0.0408 6.5874 -1.6626 0.9732
-0.0813 6.5731 -1.6591 0.9732
-0.2867 6.6188 -1.6721 0.9730
-0.3274 6.6116 -1.6707 0.9731
-0.4492 6.5921 -1.6676 0.9731
-0.5254 6.5217 -1.6513 0.9734
-0.5666 6.5280 -1.6538 0.9733
-0.6106 6.5630 -1.6636 0.9732
-0.8155 6.5601 -1.6685 0.9731
-0.8965 6.5485 -1.6682 0.9731
-0.9355 6.5330 -1.6657 0.9731
-0.9740 6.5145 -1.6625 0.9732
-1.0293 6.6043 -1.6870 0.9728
-1.1042 6.5514 -1.6768 0.9730
-1.1447 6.5448 -1.6769 0.9730
-1.2258 6.5313 -1.6772 0.9730
-1.4871 6.5688 -1.6999 0.9726
-1.5224 6.3586 -1.6502 0.9734
-1.6579 6.5651 -1.7090 0.9725
-1.8220 6.5299 -1.7110 0.9724
-1.8590 6.5066 -1.7079 0.9725
-1.9563 6.5401 -1.7229 0.9722
-2.0395 6.5230 -1.7249 0.9722
-2.1656 6.6370 -1.7620 0.9716
-2.1174 6.3557 -1.6908 0.9727
-2.2946 6.6137 -1.7668 0.9715
-2.4054 6.5387 -1.7584 0.9717
-2.3753 6.3358 -1.7078 0.9725
-2.6609 6.4806 -1.7681 0.9715
-2.7942 6.5727 -1.8026 0.9710
-2.8340 6.5534 -1.8020 0.9710
-2.8683 6.5217 -1.7982 0.9710
-2.9364 6.4587 -1.7907 0.9712
-2.9739 6.3321 -1.7657 0.9716
-3.1764 6.5514 -1.8376 0.9704
-3.2493 6.4959 -1.8332 0.9705
-3.3221 6.5400 -1.8514 0.9702
-3.3791 6.5516 -1.8605 0.9700
-3.6422 6.5558 -1.8928 0.9695
-3.6853 6.5378 -1.8942 0.9695
-3.7330 6.5278 -1.8979 0.9695
-3.7786 6.5137 -1.9006 0.9694
-3.8688 6.4831 -1.9055 0.9693
-3.8713 6.3086 -1.8681 0.9699
-4.0570 6.5204 -1.9382 0.9688
-4.1479 6.5755 -1.9622 0.9684
-4.2043 6.5745 -1.9696 0.9683
-4.0967 6.3198 -1.9009 0.9694
-4.1419 6.3037 -1.9037 0.9694
-4.3709 6.3067 -1.9367 0.9688
-4.6740 6.5689 -2.0348 0.9673
-4.7271 6.5573 -2.0402 0.9672
-4.8562 6.5637 -2.0607 0.9669
-4.8987 6.5363 -2.0616 0.9669
-4.9502 6.5206 -2.0662 0.9668
-5.0438 6.4759 -2.0717 0.9667
-5.1346 6.5091 -2.0924 0.9664
-5.2850 6.2897 -2.0735 0.9667
-5.5314 6.4200 -2.1388 0.9656
-5.6144 6.2769 -2.1255 0.9659
-5.8693 6.4008 -2.1918 0.9648
-5.8391 6.2894 -2.1660 0.9652
-6.0258 6.2536 -2.1918 0.9648
-6.0643 6.2163 -2.1918 0.9648
-6.1407 6.1408 -2.1918 0.9648
-6.2162 6.0643 -2.1918 0.9648
-6.3643 5.9088 -2.1918 0.9648
-6.4008 5.8693 -2.1918 0.9648
-6.4369 5.8296 -2.1918 0.9648
-6.4729 5.7897 -2.1918 0.9648
-6.5085 5.7496 -2.1918 0.9648
-6.5440 5.7092 -2.1918 0.9648
-6.5792 5.6686 -2.1918 0.9648
-6.6141 5.6278 -2.1918 0.9648
-6.6488 5.5868 -2.1918 0.9648
-6.7174 5.5041 -2.1918 0.9648
-6.7513 5.4625 -2.1918 0.9648
-6.7849 5.4206 -2.1918 0.9648
-6.8514 5.3363 -2.1918 0.9648
-6.8843 5.2938 -2.1918 0.9648
-6.9492 5.2083 -2.1918 0.9648
-6.9813 5.1652 -2.1918 0.9648
-7.0131 5.1219 -2.1918 0.9648
-7.0447 5.0784 -2.1918 0.9648
-7.0759 5.0348 -2.1918 0.9648
-7.1069 4.9909 -2.1918 0.9648
-7.1377 4.9469 -2.1918 0.9648
-7.1983 4.8582 -2.1918 0.9648
-7.2282 4.8136 -2.1918 0.9648
-7.2579 4.7688 -2.1918 0.9648
-7.2872 4.7238 -2.1918 0.9648
-7.3451 4.6334 -2.1918 0.9648
-7.8931 4.5788 -2.3031 0.9631
-8.0912 4.5610 -2.3442 0.9624
-8.1193 4.5108 -2.3442 0.9624
-8.1745 4.4101 -2.3442 0.9624
-8.2016 4.3594 -2.3442 0.9624
-8.2549 4.2576 -2.3442 0.9624
-8.3324 4.1038 -2.3442 0.9624
-8.3577 4.0522 -2.3442 0.9624
-8.4071 3.9485 -2.3442 0.9624
-8.4553 3.8442 -2.3442 0.9624
-8.4789 3.7918 -2.3442 0.9624
-8.5252 3.6867 -2.3442 0.9624
-8.5701 3.5810 -2.3442 0.9624
-8.5921 3.5279 -2.3442 0.9624
-8.6767 3.3143 -2.3442 0.9624
-8.7561 3.0987 -2.3442 0.9624
-8.8121 2.9357 -2.3442 0.9624
-8.8300 2.8811 -2.3442 0.9624
-8.8477 2.8265 -2.3442 0.9624
-8.8650 2.7717 -2.3442 0.9624
-8.8986 2.6619 -2.3442 0.9624
-8.9149 2.6068 -2.3442 0.9624
-8.9308 2.5516 -2.3442 0.9624
-8.9464 2.4963 -2.3442 0.9624
-8.9912 2.3299 -2.3442 0.9624
-9.0194 2.2185 -2.3442 0.9624
-9.0589 2.0508 -2.3442 0.9624
-9.0715 1.9948 -2.3442 0.9624
-9.0836 1.9386 -2.3442 0.9624
-9.0954 1.8824 -2.3442 0.9624
-9.1069 1.8261 -2.3442 0.9624
-9.1180 1.7698 -2.3442 0.9624
-9.1288 1.7133 -2.3442 0.9624
-9.1392 1.6569 -2.3442 0.9624
-9.1493 1.6003 -2.3442 0.9624
-9.2172 1.1459 -2.3442 0.9624
-9.2307 1.0318 -2.3442 0.9624
-9.2427 0.9176 -2.3442 0.9624
-9.2534 0.8032 -2.3442 0.9624
-9.2582 0.7459 -2.3442 0.9624
-9.2667 0.6314 -2.3442 0.9624
-9.2738 0.5167 -2.3442 0.9624
-9.2768 0.4594 -2.3442 0.9624
-9.2795 0.4020 -2.3442 0.9624
-9.2818 0.3446 -2.3442 0.9624
-9.2875 0.1149 -2.3442 0.9624
-9.2880 0.0575 -2.3442 0.9624
-9.0058 0.0000 -2.3442 0.9635
-9.0052 -0.1114 -2.3442 0.9635
-9.0043 -0.1671 -2.3442 0.9635
-9.0016 -0.2784 -2.3442 0.9635
-8.9948 -0.4454 -2.3442 0.9635
-8.9919 -0.5010 -2.3442 0.9635
-8.9886 -0.5566 -2.3442 0.9635
-8.9850 -0.6121 -2.3442 0.9635
-8.9768 -0.7232 -2.3442 0.9635
-8.9721 -0.7787 -2.3442 0.9635
-8.9618 -0.8896 -2.3442 0.9635
-8.9561 -0.9450 -2.3442 0.9635
-8.9501 -1.0004 -2.3442 0.9635
-8.9226 -1.2215 -2.3442 0.9635
-8.8984 -1.3868 -2.3442 0.9635
-8.8897 -1.4418 -2.3442 0.9635
-8.8806 -1.4968 -2.3442 0.9635
-8.8712 -1.5516 -2.3442 0.9635
-8.8614 -1.6065 -2.3442 0.9635
-8.8408 -1.7160 -2.3442 0.9635
-8.8301 -1.7706 -2.3442 0.9635
-8.8075 -1.8797 -2.3442 0.9635
-8.7711 -2.0427 -2.3442 0.9635
-8.7583 -2.0970 -2.3442 0.9635
-8.7179 -2.2591 -2.3442 0.9635
-8.7037 -2.3129 -2.3442 0.9635
-8.6745 -2.4204 -2.3442 0.9635
-8.6281 -2.5809 -2.3442 0.9635
-8.5955 -2.6874 -2.3442 0.9635
-8.5442 -2.8464 -2.3442 0.9635
-8.5264 -2.8992 -2.3442 0.9635
-8.5083 -2.9519 -2.3442 0.9635
-8.4521 -3.1092 -2.3442 0.9635
-8.4130 -3.2135 -2.3442 0.9635
-8.3930 -3.2655 -2.3442 0.9635
-8.3726 -3.3173 -2.3442 0.9635
-8.3519 -3.3690 -2.3442 0.9635
-8.2880 -3.5234 -2.3442 0.9635
-8.2438 -3.6256 -2.3442 0.9635
-8.2212 -3.6766 -2.3442 0.9635
-8.1983 -3.7273 -2.3442 0.9635
-8.1751 -3.7779 -2.3442 0.9635
-8.1516 -3.8284 -2.3442 0.9635
-8.1277 -3.8788 -2.3442 0.9635
-8.1036 -3.9290 -2.3442 0.9635
-8.0792 -3.9790 -2.3442 0.9635
-8.0293 -4.0786 -2.3442 0.9635
-8.0039 -4.1282 -2.3442 0.9635
-7.8725 -4.3737 -2.3442 0.9635
-7.8453 -4.4223 -2.3442 0.9635
-7.7619 -4.5671 -2.3442 0.9635
-7.7048 -4.6627 -2.3442 0.9635
-7.6758 -4.7103 -2.3442 0.9635
-7.6170 -4.8049 -2.3442 0.9635
-7.5871 -4.8519 -2.3442 0.9635
-7.5570 -4.8987 -2.3442 0.9635
-7.5265 -4.9453 -2.3442 0.9635
-7.4648 -5.0380 -2.3442 0.9635
-7.2065 -5.4010 -2.3442 0.9635
-7.1392 -5.4898 -2.3442 0.9635
-7.0707 -5.5776 -2.3442 0.9635
-7.0361 -5.6213 -2.3442 0.9635
-7.0012 -5.6647 -2.3442 0.9635
-6.9660 -5.7079 -2.3442 0.9635
-6.8949 -5.7936 -2.3442 0.9635
-6.8227 -5.8784 -2.3442 0.9635
-6.7862 -5.9205 -2.3442 0.9635
-6.7125 -6.0040 -2.3442 0.9635
-6.6377 -6.0865 -2.3442 0.9635
-6.5237 -6.2086 -2.3442 0.9635
-6.4851 -6.2488 -2.3442 0.9635
-6.4074 -6.3286 -2.3442 0.9635
-6.3286 -6.4074 -2.3442 0.9635
-6.1682 -6.5619 -2.3442 0.9635
-6.1275 -6.5999 -2.3442 0.9635
-6.0865 -6.6377 -2.3442 0.9635
-6.0454 -6.6752 -2.3442 0.9635
-6.0040 -6.7125 -2.3442 0.9635
-5.9623 -6.7495 -2.3442 0.9635
-5.9205 -6.7862 -2.3442 0.9635
-5.7508 -6.9306 -2.3442 0.9635
-5.7078 -6.9660 -2.3442 0.9635
-5.6647 -7.0012 -2.3442 0.9635
-5.5777 -7.0707 -2.3442 0.9635
-5.5338 -7.1051 -2.3442 0.9635
-5.4898 -7.1391 -2.3442 0.9635
-5.4455 -7.1729 -2.3442 0.9635
-5.3564 -7.2398 -2.3442 0.9635
-5.3115 -7.2728 -2.3442 0.9635
-5.2664 -7.3055 -2.3442 0.9635
-5.0841 -7.4335 -2.3442 0.9635
-4.8987 -7.5570 -2.3442 0.9635
-4.8519 -7.5871 -2.3442 0.9635
-4.7577 -7.6465 -2.3442 0.9635
-4.7103 -7.6758 -2.3442 0.9635
-4.6627 -7.7048 -2.3442 0.9635
-4.5190 -7.7900 -2.3442 0.9635
-4.4707 -7.8178 -2.3442 0.9635
-4.3737 -7.8725 -2.3442 0.9635
-4.2269 -7.9523 -2.3442 0.9635
-4.1776 -7.9783 -2.3442 0.9635
-4.1282 -8.0039 -2.3442 0.9635
-3.9290 -8.1036 -2.3442 0.9635
-3.8284 -8.1516 -2.3442 0.9635
-3.7779 -8.1751 -2.3442 0.9635
-3.7273 -8.1983 -2.3442 0.9635
-3.6256 -8.2438 -2.3442 0.9635
-3.5234 -8.2880 -2.3442 0.9635
-3.4721 -8.3096 -2.3442 0.9635
-3.4206 -8.3309 -2.3442 0.9635
-3.3691 -8.3519 -2.3442 0.9635
-3.3173 -8.3726 -2.3442 0.9635
-3.1614 -8.4327 -2.3442 0.9635
-2.8992 -8.5264 -2.3442 0.9635
-2.7936 -8.5616 -2.3442 0.9635
-2.7406 -8.5787 -2.3442 0.9635
-2.6874 -8.5955 -2.3442 0.9635
-2.5275 -8.6439 -2.3442 0.9635
-2.3667 -8.6893 -2.3442 0.9635
-2.2590 -8.7179 -2.3442 0.9635
-2.2051 -8.7317 -2.3442 0.9635
-2.0970 -8.7583 -2.3442 0.9635
-2.0428 -8.7711 -2.3442 0.9635
-1.9885 -8.7836 -2.3442 0.9635
-1.8253 -8.8190 -2.3442 0.9635
-1.6613 -8.8513 -2.3442 0.9635
-1.6065 -8.8614 -2.3442 0.9635
-1.3318 -8.9068 -2.3442 0.9635
-1.2767 -8.9149 -2.3442 0.9635
-1.1663 -8.9300 -2.3442 0.9635
-1.1111 -8.9370 -2.3442 0.9635
-1.0558 -8.9437 -2.3442 0.9635
-1.0004 -8.9501 -2.3442 0.9635
-0.8342 -8.9671 -2.3442 0.9635
-0.7787 -8.9721 -2.3442 0.9635
-0.5566 -8.9886 -2.3442 0.9635
-0.5010 -8.9919 -2.3442 0.9635
-0.4454 -8.9948 -2.3442 0.9635
-0.3341 -8.9996 -2.3442 0.9635
-0.2784 -9.0015 -2.3442 0.9635
-0.2228 -9.0031 -2.3442 0.9635
-0.1671 -9.0043 -2.3442 0.9635
0.0000 -9.0058 -2.3442 0.9635
0.1114 -9.0052 -2.3442 0.9635
0.3341 -8.9996 -2.3442 0.9635
0.3897 -8.9974 -2.3442 0.9635
0.5566 -8.9886 -2.3442 0.9635
0.6677 -8.9811 -2.3442 0.9635
0.8897 -8.9618 -2.3442 0.9635
1.0004 -8.9501 -2.3442 0.9635
1.0558 -8.9437 -2.3442 0.9635
1.1111 -8.9370 -2.3442 0.9635
1.1663 -8.9300 -2.3442 0.9635
1.2767 -8.9149 -2.3442 0.9635
1.4418 -8.8897 -2.3442 0.9635
1.5517 -8.8712 -2.3442 0.9635
1.6065 -8.8614 -2.3442 0.9635
2.0970 -8.7583 -2.3442 0.9635
2.1511 -8.7452 -2.3442 0.9635
2.2051 -8.7317 -2.3442 0.9635
2.2591 -8.7179 -2.3442 0.9635
2.3130 -8.7037 -2.3442 0.9635
2.5809 -8.6281 -2.3442 0.9635
2.6343 -8.6120 -2.3442 0.9635
2.6874 -8.5955 -2.3442 0.9635
2.7406 -8.5787 -2.3442 0.9635
2.7936 -8.5616 -2.3442 0.9635
2.8464 -8.5442 -2.3442 0.9635
2.9519 -8.5083 -2.3442 0.9635
3.0045 -8.4899 -2.3442 0.9635
3.0569 -8.4712 -2.3442 0.9635
3.1092 -8.4521 -2.3442 0.9635
3.1615 -8.4327 -2.3442 0.9635
3.2136 -8.4130 -2.3442 0.9635
3.3174 -8.3726 -2.3442 0.9635
3.4206 -8.3309 -2.3442 0.9635
3.4721 -8.3096 -2.3442 0.9635
3.5234 -8.2880 -2.3442 0.9635
3.5746 -8.2660 -2.3442 0.9635
3.6257 -8.2438 -2.3442 0.9635
3.6766 -8.2212 -2.3442 0.9635
3.7274 -8.1983 -2.3442 0.9635
3.7780 -8.1751 -2.3442 0.9635
3.8285 -8.1515 -2.3442 0.9635
3.8788 -8.1277 -2.3442 0.9635
3.9290 -8.1036 -2.3442 0.9635
3.9790 -8.0791 -2.3442 0.9635
4.0289 -8.0544 -2.3442 0.9635
4.1283 -8.0039 -2.3442 0.9635
4.3737 -7.8725 -2.3442 0.9635
4.4707 -7.8178 -2.3442 0.9635
4.5671 -7.7619 -2.3442 0.9635
4.6150 -7.7335 -2.3442 0.9635
4.7577 -7.6465 -2.3442 0.9635
4.8049 -7.6170 -2.3442 0.9635
4.8987 -7.5570 -2.3442 0.9635
4.9454 -7.5265 -2.3442 0.9635
5.0381 -7.4648 -2.3442 0.9635
5.0841 -7.4335 -2.3442 0.9635
5.1300 -7.4019 -2.3442 0.9635
5.2664 -7.3055 -2.3442 0.9635
5.4455 -7.1730 -2.3442 0.9635
5.5338 -7.1051 -2.3442 0.9635
5.6213 -7.0361 -2.3442 0.9635
5.7936 -6.8949 -2.3442 0.9635
5.8784 -6.8227 -2.3442 0.9635
5.9205 -6.7862 -2.3442 0.9635
6.0040 -6.7125 -2.3442 0.9635
6.0454 -6.6752 -2.3442 0.9635
6.0865 -6.6377 -2.3442 0.9635
6.1275 -6.5999 -2.3442 0.9635
6.1682 -6.5619 -2.3442 0.9635
6.2087 -6.5237 -2.3442 0.9635
6.2489 -6.4851 -2.3442 0.9635
6.2889 -6.4464 -2.3442 0.9635
6.3286 -6.4073 -2.3442 0.9635
6.4074 -6.3286 -2.3442 0.9635
6.4464 -6.2888 -2.3442 0.9635
6.5237 -6.2086 -2.3442 0.9635
6.6378 -6.0865 -2.3442 0.9635
6.6752 -6.0454 -2.3442 0.9635
6.7495 -5.9623 -2.3442 0.9635
6.7863 -5.9205 -2.3442 0.9635
6.8227 -5.8784 -2.3442 0.9635
6.8949 -5.7936 -2.3442 0.9635
6.9660 -5.7079 -2.3442 0.9635
7.0708 -5.5776 -2.3442 0.9635
7.1392 -5.4898 -2.3442 0.9635
7.2065 -5.4011 -2.3442 0.9635
7.3055 -5.2664 -2.3442 0.9635
7.3379 -5.2212 -2.3442 0.9635
7.4019 -5.1300 -2.3442 0.9635
7.4335 -5.0841 -2.3442 0.9635
7.4648 -5.0380 -2.3442 0.9635
7.4958 -4.9918 -2.3442 0.9635
7.5265 -4.9453 -2.3442 0.9635
7.6170 -4.8048 -2.3442 0.9635
7.8178 -4.4707 -2.3442 0.9635
7.8725 -4.3737 -2.3442 0.9635
7.9260 -4.2760 -2.3442 0.9635
7.9783 -4.1776 -2.3442 0.9635
8.0040 -4.1282 -2.3442 0.9635
8.0294 -4.0786 -2.3442 0.9635
8.0792 -3.9790 -2.3442 0.9635
8.1036 -3.9289 -2.3442 0.9635
8.1278 -3.8788 -2.3442 0.9635
8.1983 -3.7273 -2.3442 0.9635
8.2212 -3.6766 -2.3442 0.9635
8.2880 -3.5234 -2.3442 0.9635
8.3096 -3.4721 -2.3442 0.9635
8.3310 -3.4206 -2.3442 0.9635
8.4130 -3.2135 -2.3442 0.9635
8.4521 -3.1092 -2.3442 0.9635
8.4712 -3.0569 -2.3442 0.9635
8.4899 -3.0045 -2.3442 0.9635
8.5616 -2.7935 -2.3442 0.9635
8.5788 -2.7405 -2.3442 0.9635
8.6439 -2.5275 -2.3442 0.9635
8.7179 -2.2590 -2.3442 0.9635
8.7317 -2.2051 -2.3442 0.9635
8.7452 -2.1511 -2.3442 0.9635
8.7583 -2.0970 -2.3442 0.9635
8.7711 -2.0427 -2.3442 0.9635
8.7957 -1.9341 -2.3442 0.9635
8.8075 -1.8797 -2.3442 0.9635
8.8409 -1.7160 -2.3442 0.9635
8.8615 -1.6065 -2.3442 0.9635
8.8806 -1.4968 -2.3442 0.9635
8.8897 -1.4419 -2.3442 0.9635
8.9069 -1.3318 -2.3442 0.9635
8.9226 -1.2215 -2.3442 0.9635
8.9300 -1.1663 -2.3442 0.9635
8.9371 -1.1111 -2.3442 0.9635
8.9438 -1.0558 -2.3442 0.9635
8.9561 -0.9450 -2.3442 0.9635
8.9722 -0.7787 -2.3442 0.9635
8.9811 -0.6677 -2.3442 0.9635
8.9948 -0.4453 -2.3442 0.9635
8.9975 -0.3897 -2.3442 0.9635
9.0016 -0.2784 -2.3442 0.9635
9.0031 -0.2227 -2.3442 0.9635
9.0052 -0.1113 -2.3442 0.9635
9.0057 -0.0557 -2.3442 0.9635
9.0052 0.1114 -2.3442 0.9635
9.0043 0.1671 -2.3442 0.9635
9.0015 0.2785 -2.3442 0.9635
8.9974 0.3897 -2.3442 0.9635
8.9948 0.4454 -2.3442 0.9635
8.9887 0.5566 -2.3442 0.9635
8.9562 0.9451 -2.3442 0.9635
8.9438 1.0558 -2.3442 0.9635
8.9300 1.1663 -2.3442 0.9635
8.9069 1.3318 -2.3442 0.9635
8.8985 1.3869 -2.3442 0.9635
8.8712 1.5517 -2.3442 0.9635
8.8614 1.6065 -2.3442 0.9635
8.8513 1.6613 -2.3442 0.9635
8.8409 1.7160 -2.3442 0.9635
8.8301 1.7706 -2.3442 0.9635
8.8190 1.8252 -2.3442 0.9635
8.8075 1.8797 -2.3442 0.9635
8.7836 1.9885 -2.3442 0.9635
8.7583 2.0970 -2.3442 0.9635
8.7452 2.1511 -2.3442 0.9635
8.7317 2.2051 -2.3442 0.9635
8.7038 2.3130 -2.3442 0.9635
8.6745 2.4204 -2.3442 0.9635
8.6594 2.4740 -2.3442 0.9635
8.6281 2.5809 -2.3442 0.9635
8.5442 2.8465 -2.3442 0.9635
8.5264 2.8993 -2.3442 0.9635
8.5084 2.9519 -2.3442 0.9635
8.4712 3.0569 -2.3442 0.9635
8.4327 3.1615 -2.3442 0.9635
8.4130 3.2136 -2.3442 0.9635
8.3726 3.3174 -2.3442 0.9635
8.3520 3.3691 -2.3442 0.9635
8.2880 3.5234 -2.3442 0.9635
8.2212 3.6766 -2.3442 0.9635
8.1983 3.7274 -2.3442 0.9635
8.1278 3.8788 -2.3442 0.9635
8.0792 3.9790 -2.3442 0.9635
8.0544 4.0289 -2.3442 0.9635
8.0039 4.1282 -2.3442 0.9635
7.9783 4.1777 -2.3442 0.9635
7.9260 4.2760 -2.3442 0.9635
7.8994 4.3249 -2.3442 0.9635
7.7900 4.5190 -2.3442 0.9635
7.7336 4.6150 -2.3442 0.9635
7.6466 4.7577 -2.3442 0.9635
7.6170 4.8049 -2.3442 0.9635
7.5265 4.9454 -2.3442 0.9635
7.1383 5.0791 -2.2805 0.9644
6.7067 5.0915 -2.1918 0.9658
6.6751 5.1329 -2.1918 0.9658
6.5132 5.3368 -2.1918 0.9658
