ply
format ascii 1.0
element vertex 1595
property float32 x
property float32 y
property float32 z
property float32 I
end_header
-6.3817 -4.9073 -2.3529 0.9670
-6.3186 -4.9844 -2.3522 0.9670
-6.2867 -5.0226 -2.3518 0.9670
-6.2546 -5.0606 -2.3514 0.9670
-6.2222 -5.0984 -2.3511 0.9670
-6.1897 -5.1361 -2.3508 0.9670
-6.1239 -5.2107 -2.3501 0.9670
-6.0907 -5.2477 -2.3497 0.9671
-6.0572 -5.2845 -2.3494 0.9671
-6.0235 -5.3211 -2.3490 0.9671
-5.9897 -5.3575 -2.3487 0.9671
-5.8520 -5.5009 -2.3474 0.9671
-5.7820 -5.5713 -2.3467 0.9671
-5.7466 -5.6062 -2.3464 0.9671
-5.7110 -5.6409 -2.3461 0.9671
-5.6393 -5.7095 -2.3455 0.9671
-5.6031 -5.7435 -2.3452 0.9671
-5.5668 -5.7773 -2.3448 0.9671
-5.4565 -5.8773 -2.3439 0.9671
-5.4194 -5.9101 -2.3436 0.9671
-5.3820 -5.9428 -2.3433 0.9671
-5.3068 -6.0074 -2.3427 0.9671
-5.2308 -6.0710 -2.3421 0.9672
-5.1925 -6.1025 -2.3419 0.9672
-5.0375 -6.2261 -2.3407 0.9672
-4.9983 -6.2564 -2.3405 0.9672
-4.9194 -6.3162 -2.3399 0.9672
-4.6785 -6.4900 -2.3383 0.9672
-4.6378 -6.5181 -2.3381 0.9672
-4.5558 -6.5735 -2.3376 0.9672
-4.5146 -6.6009 -2.3373 0.9672
-4.4317 -6.6548 -2.3368 0.9672
-4.3900 -6.6814 -2.3366 0.9672
-4.2640 -6.7596 -2.3359 0.9672
-4.0510 -6.8849 -2.3347 0.9673
-4.0080 -6.9092 -2.3345 0.9673
-3.9648 -6.9332 -2.3343 0.9673
-3.9215 -6.9569 -2.3341 0.9673
-3.8780 -6.9804 -2.3339 0.9673
-3.8345 -7.0036 -2.3337 0.9673
-3.7908 -7.0266 -2.3335 0.9673
-3.7469 -7.0493 -2.3332 0.9673
-3.7029 -7.0717 -2.3330 0.9673
-3.6588 -7.0938 -2.3328 0.9673
-3.5257 -7.1587 -2.3323 0.9673
-3.4811 -7.1798 -2.3321 0.9673
-3.4363 -7.2006 -2.3319 0.9673
-3.3014 -7.2614 -2.3313 0.9673
-3.2561 -7.2812 -2.3312 0.9673
-3.2108 -7.3006 -2.3310 0.9673
-3.0742 -7.3573 -2.3305 0.9673
-3.0284 -7.3757 -2.3303 0.9673
-2.9365 -7.4116 -2.3300 0.9673
-2.7051 -7.4964 -2.3293 0.9673
-2.6119 -7.5284 -2.3290 0.9673
-2.5183 -7.5592 -2.3287 0.9673
-2.4714 -7.5742 -2.3286 0.9673
-2.4243 -7.5889 -2.3284 0.9673
-2.3300 -7.6175 -2.3282 0.9673
-2.1880 -7.6583 -2.3278 0.9674
-2.0452 -7.6964 -2.3275 0.9674
-1.9975 -7.7086 -2.3274 0.9674
-1.9497 -7.7205 -2.3273 0.9674
-1.8060 -7.7543 -2.3270 0.9674
-1.7579 -7.7651 -2.3269 0.9674
-1.6616 -7.7856 -2.3268 0.9674
-1.5650 -7.8050 -2.3266 0.9674
-1.3228 -7.8485 -2.3262 0.9674
-1.1769 -7.8711 -2.3260 0.9674
-1.0794 -7.8847 -2.3259 0.9674
-0.9817 -7.8971 -2.3258 0.9674
-0.9329 -7.9029 -2.3258 0.9674
-0.8350 -7.9135 -2.3257 0.9674
-0.7861 -7.9184 -2.3257 0.9674
-0.6390 -7.9313 -2.3256 0.9674
-0.5899 -7.9350 -2.3256 0.9674
-0.5408 -7.9384 -2.3255 0.9674
-0.4426 -7.9444 -2.3255 0.9674
-0.3935 -7.9470 -2.3255 0.9674
-0.2952 -7.9512 -2.3255 0.9674
-0.2460 -7.9528 -2.3255 0.9674
-0.1968 -7.9542 -2.3255 0.9674
-0.0984 -7.9560 -2.3255 0.9674
-0.0000 -7.9567 -2.3255 0.9674
0.1476 -7.9554 -2.3255 0.9674
0.1968 -7.9545 -2.3256 0.9674
0.3444 -7.9497 -2.3256 0.9674
0.3936 -7.9475 -2.3257 0.9674
0.4427 -7.9450 -2.3257 0.9674
0.4918 -7.9423 -2.3257 0.9674
0.5900 -7.9359 -2.3258 0.9674
0.6391 -7.9322 -2.3259 0.9674
0.7862 -7.9195 -2.3260 0.9674
0.8352 -7.9147 -2.3261 0.9674
1.1771 -7.8727 -2.3265 0.9674
1.2259 -7.8656 -2.3266 0.9674
1.3231 -7.8504 -2.3268 0.9674
1.3717 -7.8423 -2.3269 0.9674
1.4202 -7.8340 -2.3270 0.9674
1.4687 -7.8253 -2.3270 0.9674
1.5655 -7.8072 -2.3272 0.9674
1.6139 -7.7977 -2.3273 0.9674
1.6621 -7.7879 -2.3274 0.9674
1.7103 -7.7778 -2.3275 0.9674
1.8546 -7.7459 -2.3279 0.9674
1.9026 -7.7347 -2.3280 0.9674
2.0937 -7.6869 -2.3285 0.9673
2.1413 -7.6742 -2.3286 0.9673
2.1888 -7.6612 -2.3287 0.9673
2.2363 -7.6480 -2.3289 0.9673
2.2837 -7.6345 -2.3290 0.9673
2.3310 -7.6207 -2.3292 0.9673
2.3783 -7.6066 -2.3293 0.9673
2.4254 -7.5922 -2.3294 0.9673
2.4725 -7.5775 -2.3296 0.9673
2.6131 -7.5318 -2.3301 0.9673
2.6599 -7.5161 -2.3302 0.9673
2.7064 -7.5000 -2.3304 0.9673
2.7994 -7.4670 -2.3307 0.9673
2.8458 -7.4501 -2.3309 0.9673
2.9841 -7.3976 -2.3314 0.9673
3.0301 -7.3796 -2.3316 0.9673
3.1216 -7.3427 -2.3319 0.9673
3.1672 -7.3239 -2.3321 0.9673
3.3935 -7.2255 -2.3331 0.9673
3.4384 -7.2050 -2.3333 0.9673
3.5725 -7.1419 -2.3339 0.9673
3.6169 -7.1203 -2.3341 0.9673
3.7494 -7.0539 -2.3348 0.9673
3.7933 -7.0313 -2.3350 0.9673
3.9676 -6.9380 -2.3359 0.9672
4.0109 -6.9141 -2.3362 0.9672
4.0540 -6.8898 -2.3364 0.9672
4.1397 -6.8406 -2.3369 0.9672
4.2673 -6.7648 -2.3376 0.9672
4.4353 -6.6600 -2.3387 0.9672
4.4768 -6.6332 -2.3389 0.9672
4.5183 -6.6061 -2.3392 0.9672
4.5596 -6.5788 -2.3394 0.9672
4.6007 -6.5513 -2.3397 0.9672
4.7231 -6.4670 -2.3405 0.9672
4.7636 -6.4385 -2.3408 0.9672
4.8038 -6.4097 -2.3411 0.9672
4.8839 -6.3513 -2.3417 0.9672
4.9633 -6.2920 -2.3422 0.9672
5.0421 -6.2317 -2.3428 0.9671
5.0811 -6.2011 -2.3431 0.9671
5.1973 -6.1082 -2.3440 0.9671
5.2738 -6.0450 -2.3446 0.9671
5.3118 -6.0130 -2.3449 0.9671
5.3496 -5.9809 -2.3452 0.9671
5.4618 -5.8830 -2.3462 0.9671
5.5357 -5.8166 -2.3468 0.9671
5.5723 -5.7830 -2.3472 0.9671
5.6087 -5.7492 -2.3475 0.9671
5.6450 -5.7152 -2.3478 0.9671
5.7168 -5.6466 -2.3485 0.9671
5.7525 -5.6119 -2.3488 0.9671
5.7879 -5.5770 -2.3491 0.9671
5.8581 -5.5066 -2.3498 0.9670
5.8929 -5.4711 -2.3502 0.9670
5.9275 -5.4353 -2.3505 0.9670
5.9619 -5.3993 -2.3509 0.9670
5.9961 -5.3632 -2.3512 0.9670
6.0973 -5.2534 -2.3523 0.9670
6.1636 -5.1792 -2.3530 0.9670
6.1965 -5.1417 -2.3533 0.9670
6.2291 -5.1041 -2.3537 0.9670
6.4821 -4.7958 -2.3567 0.9670
6.5731 -4.6770 -2.3578 0.9669
6.6326 -4.5968 -2.3586 0.9669
6.6620 -4.5565 -2.3590 0.9669
6.6912 -4.5159 -2.3593 0.9669
6.7201 -4.4752 -2.3597 0.9669
6.7772 -4.3932 -2.3605 0.9669
6.8053 -4.3519 -2.3609 0.9669
6.8333 -4.3105 -2.3613 0.9669
6.8884 -4.2271 -2.3621 0.9669
6.9956 -4.0581 -2.3637 0.9669
7.0218 -4.0155 -2.3641 0.9669
7.0734 -3.9297 -2.3649 0.9668
7.0988 -3.8866 -2.3654 0.9668
7.1239 -3.8433 -2.3658 0.9668
7.1734 -3.7562 -2.3666 0.9668
7.1978 -3.7124 -2.3670 0.9668
7.2926 -3.5358 -2.3687 0.9668
7.3156 -3.4912 -2.3691 0.9668
7.3384 -3.4465 -2.3696 0.9668
7.3609 -3.4017 -2.3700 0.9668
7.4051 -3.3116 -2.3708 0.9668
7.4693 -3.1754 -2.3721 0.9667
7.5311 -3.0379 -2.3734 0.9667
7.6285 -2.8062 -2.3756 0.9667
7.6471 -2.7596 -2.3761 0.9667
7.6655 -2.7127 -2.3765 0.9667
7.7013 -2.6187 -2.3774 0.9667
7.7188 -2.5715 -2.3779 0.9667
7.7361 -2.5242 -2.3783 0.9667
7.8178 -2.2860 -2.3806 0.9666
7.8485 -2.1900 -2.3815 0.9666
7.8634 -2.1418 -2.3820 0.9666
7.8780 -2.0935 -2.3824 0.9666
7.8923 -2.0452 -2.3829 0.9666
7.9063 -1.9967 -2.3833 0.9666
7.9201 -1.9481 -2.3838 0.9666
7.9595 -1.8019 -2.3852 0.9666
7.9843 -1.7040 -2.3861 0.9665
8.0079 -1.6057 -2.3870 0.9665
8.0514 -1.4083 -2.3889 0.9665
8.0615 -1.3587 -2.3894 0.9665
8.0714 -1.3091 -2.3898 0.9665
8.0809 -1.2594 -2.3903 0.9665
8.1160 -1.0600 -2.3922 0.9665
8.1240 -1.0100 -2.3927 0.9665
8.1462 -0.8596 -2.3941 0.9664
8.1530 -0.8094 -2.3946 0.9664
8.1770 -0.6079 -2.3965 0.9664
8.1822 -0.5575 -2.3970 0.9664
8.1871 -0.5070 -2.3974 0.9664
8.1960 -0.4058 -2.3984 0.9664
8.2037 -0.3046 -2.3993 0.9664
8.2071 -0.2539 -2.3998 0.9664
8.2101 -0.2031 -2.4003 0.9664
8.2129 -0.1524 -2.4008 0.9663
8.2192 -0.0000 -2.4022 0.9663
8.2207 0.0508 -2.4027 0.9663
8.2235 0.2544 -2.4046 0.9663
8.2233 0.3052 -2.4051 0.9663
8.2229 0.3562 -2.4056 0.9663
8.2222 0.4071 -2.4061 0.9663
8.2182 0.5599 -2.4075 0.9663
8.2162 0.6108 -2.4080 0.9662
8.1977 0.9163 -2.4108 0.9662
8.1889 1.0180 -2.4118 0.9662
8.1841 1.0689 -2.4123 0.9662
8.1677 1.2212 -2.4137 0.9662
8.1552 1.3227 -2.4147 0.9662
8.1485 1.3734 -2.4151 0.9661
8.1341 1.4746 -2.4161 0.9661
8.1264 1.5252 -2.4166 0.9661
8.1184 1.5757 -2.4170 0.9661
8.1101 1.6262 -2.4175 0.9661
8.1014 1.6767 -2.4180 0.9661
8.0638 1.8780 -2.4199 0.9661
8.0431 1.9784 -2.4208 0.9661
8.0097 2.1285 -2.4222 0.9661
7.9979 2.1784 -2.4227 0.9660
7.9858 2.2283 -2.4232 0.9660
7.9607 2.3277 -2.4241 0.9660
7.9477 2.3774 -2.4246 0.9660
7.9207 2.4765 -2.4255 0.9660
7.8924 2.5752 -2.4264 0.9660
7.8779 2.6245 -2.4269 0.9660
7.8478 2.7227 -2.4278 0.9660
7.8323 2.7718 -2.4282 0.9660
7.8165 2.8206 -2.4287 0.9660
7.6971 3.1604 -2.4319 0.9659
7.6788 3.2085 -2.4323 0.9659
7.6603 3.2565 -2.4328 0.9659
7.5629 3.4950 -2.4350 0.9659
7.5218 3.5896 -2.4359 0.9659
7.3914 3.8703 -2.4385 0.9658
7.3455 3.9628 -2.4394 0.9658
7.2503 4.1462 -2.4411 0.9658
7.2258 4.1917 -2.4415 0.9658
7.2010 4.2370 -2.4419 0.9658
7.1759 4.2822 -2.4423 0.9658
7.1505 4.3273 -2.4428 0.9658
7.1248 4.3721 -2.4432 0.9658
7.0726 4.4614 -2.4440 0.9658
7.0461 4.5059 -2.4444 0.9657
7.0192 4.5501 -2.4448 0.9657
6.9091 4.7255 -2.4465 0.9657
6.7653 4.9408 -2.4485 0.9657
6.7058 5.0258 -2.4492 0.9657
6.6756 5.0679 -2.4496 0.9657
6.5209 5.2761 -2.4516 0.9656
6.3596 5.4794 -2.4534 0.9656
6.3265 5.5194 -2.4538 0.9656
6.2932 5.5592 -2.4542 0.9656
6.2596 5.5989 -2.4546 0.9656
6.1917 5.6776 -2.4553 0.9656
6.1574 5.7166 -2.4556 0.9656
6.1228 5.7554 -2.4560 0.9656
6.0880 5.7940 -2.4564 0.9656
5.9820 5.9085 -2.4574 0.9656
5.6467 5.8603 -2.3785 0.9667
5.3628 5.7762 -2.3036 0.9677
5.2568 5.8771 -2.3046 0.9677
5.1489 5.9760 -2.3055 0.9677
5.1125 6.0085 -2.3058 0.9677
5.0391 6.0728 -2.3064 0.9676
5.0020 6.1046 -2.3066 0.9676
4.9648 6.1362 -2.3069 0.9676
4.9274 6.1675 -2.3072 0.9676
4.8519 6.2296 -2.3078 0.9676
4.8139 6.2602 -2.3081 0.9676
4.7372 6.3208 -2.3086 0.9676
4.6986 6.3507 -2.3089 0.9676
4.6598 6.3804 -2.3092 0.9676
4.6208 6.4098 -2.3094 0.9676
4.5816 6.4390 -2.3097 0.9676
4.5422 6.4680 -2.3100 0.9676
4.2205 6.6905 -2.3120 0.9676
4.0969 6.7698 -2.3127 0.9676
4.0554 6.7957 -2.3130 0.9676
4.0137 6.8214 -2.3132 0.9676
3.9298 6.8718 -2.3136 0.9675
3.8876 6.8967 -2.3139 0.9675
3.8452 6.9212 -2.3141 0.9675
3.8027 6.9455 -2.3143 0.9675
3.6742 7.0168 -2.3150 0.9675
3.6311 7.0401 -2.3152 0.9675
3.5878 7.0630 -2.3154 0.9675
3.5008 7.1081 -2.3158 0.9675
3.3692 7.1737 -2.3164 0.9675
3.3250 7.1949 -2.3166 0.9675
3.2807 7.2160 -2.3167 0.9675
3.2363 7.2367 -2.3169 0.9675
3.1917 7.2572 -2.3171 0.9675
3.1471 7.2773 -2.3173 0.9675
3.0122 7.3361 -2.3178 0.9675
2.9670 7.3551 -2.3180 0.9675
2.9217 7.3739 -2.3182 0.9675
2.8762 7.3923 -2.3183 0.9675
2.7850 7.4283 -2.3186 0.9675
2.7391 7.4459 -2.3188 0.9675
2.5084 7.5294 -2.3195 0.9675
2.4620 7.5453 -2.3197 0.9675
2.3687 7.5760 -2.3199 0.9675
2.2751 7.6056 -2.3202 0.9675
2.1811 7.6339 -2.3205 0.9675
2.1339 7.6477 -2.3206 0.9675
2.0867 7.6611 -2.3207 0.9675
1.9920 7.6871 -2.3209 0.9674
1.8493 7.7238 -2.3212 0.9674
1.7537 7.7467 -2.3214 0.9674
1.6099 7.7788 -2.3217 0.9674
1.4172 7.8173 -2.3220 0.9674
1.3689 7.8262 -2.3221 0.9674
1.2721 7.8430 -2.3222 0.9674
1.1265 7.8659 -2.3224 0.9674
1.0291 7.8796 -2.3225 0.9674
0.8828 7.8979 -2.3227 0.9674
0.7851 7.9085 -2.3228 0.9674
0.7362 7.9133 -2.3228 0.9674
0.6872 7.9179 -2.3229 0.9674
0.6383 7.9221 -2.3229 0.9674
0.5403 7.9295 -2.3229 0.9674
0.4912 7.9328 -2.3230 0.9674
0.4422 7.9358 -2.3230 0.9674
0.3931 7.9384 -2.3230 0.9674
0.2458 7.9445 -2.3230 0.9674
0.1966 7.9458 -2.3230 0.9674
0.1475 7.9469 -2.3230 0.9674
0.0492 7.9481 -2.3230 0.9674
-0.0491 7.9481 -2.3230 0.9674
-0.1966 7.9456 -2.3230 0.9674
-0.2457 7.9442 -2.3230 0.9674
-0.2948 7.9424 -2.3229 0.9674
-0.4421 7.9353 -2.3228 0.9674
-0.5402 7.9289 -2.3228 0.9674
-1.0289 7.8784 -2.3222 0.9674
-1.0776 7.8716 -2.3221 0.9674
-1.1262 7.8646 -2.3220 0.9674
-1.3686 7.8245 -2.3216 0.9674
-1.5133 7.7968 -2.3213 0.9674
-1.5614 7.7869 -2.3212 0.9674
-1.6095 7.7768 -2.3211 0.9674
-1.6575 7.7663 -2.3210 0.9674
-1.7054 7.7555 -2.3209 0.9674
-1.7532 7.7444 -2.3208 0.9675
-1.8010 7.7330 -2.3206 0.9675
-1.8487 7.7214 -2.3205 0.9675
-1.9438 7.6971 -2.3203 0.9675
-2.0387 7.6717 -2.3200 0.9675
-2.2273 7.6172 -2.3195 0.9675
-2.3210 7.5881 -2.3192 0.9675
-2.3678 7.5732 -2.3191 0.9675
-2.5074 7.5265 -2.3186 0.9675
-2.5537 7.5103 -2.3185 0.9675
-2.6000 7.4939 -2.3183 0.9675
-2.6461 7.4771 -2.3182 0.9675
-2.8749 7.3891 -2.3173 0.9675
-2.9656 7.3518 -2.3170 0.9675
-3.0108 7.3327 -2.3168 0.9675
-3.1008 7.2938 -2.3164 0.9675
-3.1456 7.2738 -2.3162 0.9675
-3.2790 7.2122 -2.3155 0.9675
-3.3232 7.1911 -2.3153 0.9675
-3.3673 7.1697 -2.3151 0.9675
-3.4987 7.1039 -2.3144 0.9675
-3.5422 7.0814 -2.3142 0.9675
-3.5856 7.0586 -2.3139 0.9675
-3.6288 7.0356 -2.3137 0.9675
-3.6718 7.0122 -2.3134 0.9676
-3.7147 6.9887 -2.3132 0.9676
-3.8847 6.8916 -2.3122 0.9676
-3.9268 6.8667 -2.3119 0.9676
-4.0106 6.8162 -2.3114 0.9676
-4.0937 6.7646 -2.3109 0.9676
-4.1761 6.7119 -2.3104 0.9676
-4.2578 6.6582 -2.3099 0.9676
-4.2984 6.6310 -2.3096 0.9676
-4.3791 6.5758 -2.3091 0.9676
-4.4192 6.5479 -2.3088 0.9676
-4.4590 6.5196 -2.3085 0.9676
-4.4987 6.4912 -2.3083 0.9676
-4.5383 6.4624 -2.3080 0.9676
-4.5776 6.4334 -2.3077 0.9676
-4.6556 6.3748 -2.3071 0.9676
-4.6944 6.3451 -2.3068 0.9676
-4.7713 6.2849 -2.3063 0.9677
-4.8474 6.2238 -2.3057 0.9677
-4.8852 6.1929 -2.3054 0.9677
-4.9227 6.1618 -2.3051 0.9677
-4.9601 6.1304 -2.3048 0.9677
-4.9972 6.0988 -2.3045 0.9677
-5.0710 6.0349 -2.3038 0.9677
-5.1075 6.0026 -2.3035 0.9677
-5.1799 5.9374 -2.3029 0.9677
-5.2870 5.8378 -2.3019 0.9677
-5.3921 5.7363 -2.3010 0.9677
-5.4266 5.7020 -2.3006 0.9677
-5.4610 5.6675 -2.3003 0.9677
-5.5291 5.5979 -2.2996 0.9677
-5.5628 5.5628 -2.2993 0.9677
-5.6295 5.4920 -2.2986 0.9678
-5.6953 5.4203 -2.2979 0.9678
-5.7278 5.3842 -2.2976 0.9678
-5.7602 5.3478 -2.2972 0.9678
-5.7922 5.3113 -2.2969 0.9678
-5.8870 5.2005 -2.2958 0.9678
-6.0485 5.2113 -2.3334 0.9673
-6.2658 5.2649 -2.3920 0.9665
-6.4817 5.3110 -2.4491 0.9657
-6.5133 5.2700 -2.4487 0.9657
-6.5447 5.2287 -2.4483 0.9657
-6.5759 5.1873 -2.4479 0.9657
-6.6374 5.1039 -2.4471 0.9657
-6.6677 5.0620 -2.4467 0.9657
-6.7864 4.8922 -2.4451 0.9657
-6.8154 4.8494 -2.4447 0.9657
-6.8441 4.8063 -2.4443 0.9657
-6.8725 4.7631 -2.4439 0.9658
-6.9285 4.6761 -2.4431 0.9658
-6.9834 4.5885 -2.4422 0.9658
-7.0105 4.5445 -2.4418 0.9658
-7.0372 4.5002 -2.4414 0.9658
-7.0637 4.4559 -2.4409 0.9658
-7.0899 4.4113 -2.4405 0.9658
-7.1158 4.3666 -2.4401 0.9658
-7.1667 4.2768 -2.4392 0.9658
-7.2165 4.1863 -2.4384 0.9658
-7.3359 3.9577 -2.4362 0.9659
-7.3589 3.9115 -2.4358 0.9659
-7.4041 3.8188 -2.4349 0.9659
-7.4480 3.7256 -2.4340 0.9659
-7.4695 3.6788 -2.4335 0.9659
-7.5117 3.5848 -2.4326 0.9659
-7.5925 3.3954 -2.4308 0.9659
-7.6119 3.3477 -2.4304 0.9659
-7.6683 3.2042 -2.4290 0.9660
-7.7221 3.0596 -2.4277 0.9660
-7.7395 3.0112 -2.4272 0.9660
-7.7565 2.9627 -2.4267 0.9660
-7.7895 2.8655 -2.4258 0.9660
-7.8056 2.8167 -2.4253 0.9660
-7.8214 2.7679 -2.4249 0.9660
-7.8368 2.7189 -2.4244 0.9660
-7.8956 2.5223 -2.4226 0.9660
-7.9231 2.4235 -2.4216 0.9661
-7.9494 2.3245 -2.4207 0.9661
-7.9621 2.2748 -2.4202 0.9661
-7.9865 2.1753 -2.4193 0.9661
-7.9983 2.1255 -2.4188 0.9661
-8.0097 2.0755 -2.4183 0.9661
-8.0208 2.0256 -2.4178 0.9661
-8.0316 1.9756 -2.4174 0.9661
-8.0523 1.8753 -2.4164 0.9661
-8.0621 1.8251 -2.4159 0.9661
-8.0717 1.7749 -2.4155 0.9661
-8.0984 1.6239 -2.4140 0.9662
-8.1067 1.5735 -2.4136 0.9662
-8.1147 1.5230 -2.4131 0.9662
-8.1223 1.4725 -2.4126 0.9662
-8.1434 1.3208 -2.4112 0.9662
-8.1616 1.1688 -2.4097 0.9662
-8.1671 1.1181 -2.4093 0.9662
-8.1770 1.0165 -2.4083 0.9662
-8.1815 0.9658 -2.4078 0.9663
-8.1964 0.7625 -2.4059 0.9663
-8.1993 0.7117 -2.4054 0.9663
-8.2019 0.6608 -2.4049 0.9663
-8.2042 0.6100 -2.4045 0.9663
-8.2092 0.4574 -2.4030 0.9663
-8.2102 0.4065 -2.4025 0.9663
-8.2109 0.3557 -2.4021 0.9663
-8.2113 0.3048 -2.4016 0.9663
-8.2098 0.1015 -2.3997 0.9664
-8.2086 0.0508 -2.3992 0.9664
-7.9866 -0.0000 -2.3988 0.9672
-7.9751 -0.2467 -2.3964 0.9672
-7.9684 -0.3452 -2.3955 0.9672
-7.9512 -0.5417 -2.3937 0.9673
-7.9409 -0.6398 -2.3927 0.9673
-7.9293 -0.7377 -2.3918 0.9673
-7.9026 -0.9329 -2.3900 0.9673
-7.8951 -0.9815 -2.3895 0.9673
-7.8874 -1.0301 -2.3891 0.9673
-7.8536 -1.2240 -2.3873 0.9673
-7.8046 -1.4648 -2.3850 0.9674
-7.7716 -1.6084 -2.3837 0.9674
-7.7483 -1.7038 -2.3828 0.9674
-7.7361 -1.7514 -2.3823 0.9674
-7.6980 -1.8935 -2.3810 0.9674
-7.6711 -1.9878 -2.3801 0.9674
-7.6431 -2.0818 -2.3792 0.9675
-7.6287 -2.1286 -2.3788 0.9675
-7.6140 -2.1754 -2.3783 0.9675
-7.5682 -2.3150 -2.3770 0.9675
-7.5362 -2.4075 -2.3762 0.9675
-7.5198 -2.4537 -2.3757 0.9675
-7.5031 -2.4996 -2.3753 0.9675
-7.4337 -2.6825 -2.3736 0.9675
-7.4156 -2.7280 -2.3732 0.9675
-7.3973 -2.7733 -2.3728 0.9675
-7.3407 -2.9085 -2.3715 0.9676
-7.3015 -2.9980 -2.3707 0.9676
-7.2614 -3.0870 -2.3698 0.9676
-7.2409 -3.1313 -2.3694 0.9676
-7.2201 -3.1755 -2.3690 0.9676
-7.1991 -3.2195 -2.3686 0.9676
-7.1778 -3.2634 -2.3682 0.9676
-7.0675 -3.4808 -2.3662 0.9676
-7.0446 -3.5238 -2.3658 0.9676
-6.8775 -3.8209 -2.3630 0.9677
-6.8526 -3.8627 -2.3626 0.9677
-6.8021 -3.9459 -2.3618 0.9677
-6.7764 -3.9872 -2.3615 0.9677
-6.6714 -4.1510 -2.3599 0.9677
-6.6446 -4.1915 -2.3596 0.9677
-6.6175 -4.2318 -2.3592 0.9677
-6.5901 -4.2720 -2.3588 0.9677
-6.5626 -4.3119 -2.3584 0.9677
-6.5067 -4.3914 -2.3577 0.9677
-6.4211 -4.5093 -2.3566 0.9678
-6.3921 -4.5482 -2.3562 0.9678
-6.3038 -4.6639 -2.3552 0.9678
-6.2739 -4.7021 -2.3548 0.9678
-6.2438 -4.7401 -2.3545 0.9678
-6.2134 -4.7779 -2.3541 0.9678
-6.1828 -4.8155 -2.3538 0.9678
-6.0897 -4.9272 -2.3527 0.9678
-6.0583 -4.9641 -2.3524 0.9678
-6.0266 -5.0007 -2.3521 0.9678
-5.9947 -5.0372 -2.3517 0.9678
-5.9626 -5.0734 -2.3514 0.9678
-5.9303 -5.1095 -2.3511 0.9678
-5.8650 -5.1810 -2.3504 0.9678
-5.7988 -5.2517 -2.3497 0.9679
-5.7318 -5.3215 -2.3491 0.9679
-5.6641 -5.3906 -2.3485 0.9679
-5.5954 -5.4587 -2.3478 0.9679
-5.5609 -5.4925 -2.3475 0.9679
-5.4910 -5.5594 -2.3469 0.9679
-5.4559 -5.5925 -2.3466 0.9679
-5.3849 -5.6581 -2.3460 0.9679
-5.3491 -5.6906 -2.3457 0.9679
-5.2770 -5.7549 -2.3451 0.9679
-5.2407 -5.7867 -2.3448 0.9679
-5.1305 -5.8807 -2.3440 0.9679
-5.0934 -5.9117 -2.3437 0.9679
-5.0187 -5.9728 -2.3431 0.9679
-4.8672 -6.0922 -2.3420 0.9680
-4.8289 -6.1215 -2.3418 0.9680
-4.6739 -6.2363 -2.3407 0.9680
-4.5954 -6.2922 -2.3402 0.9680
-4.5559 -6.3199 -2.3399 0.9680
-4.3963 -6.4279 -2.3390 0.9680
-4.3156 -6.4805 -2.3385 0.9680
-4.2750 -6.5064 -2.3382 0.9680
-4.2343 -6.5320 -2.3380 0.9680
-4.1523 -6.5826 -2.3376 0.9680
-4.1112 -6.6075 -2.3373 0.9680
-4.0698 -6.6322 -2.3371 0.9680
-4.0284 -6.6566 -2.3369 0.9680
-3.9867 -6.6808 -2.3367 0.9680
-3.8611 -6.7517 -2.3360 0.9680
-3.6489 -6.8649 -2.3350 0.9681
-3.6061 -6.8867 -2.3348 0.9681
-3.5200 -6.9297 -2.3344 0.9681
-3.4768 -6.9507 -2.3342 0.9681
-3.4335 -6.9715 -2.3340 0.9681
-3.3901 -6.9921 -2.3339 0.9681
-3.3465 -7.0124 -2.3337 0.9681
-3.2590 -7.0521 -2.3333 0.9681
-3.1269 -7.1098 -2.3328 0.9681
-3.0827 -7.1285 -2.3326 0.9681
-3.0383 -7.1469 -2.3325 0.9681
-2.9939 -7.1651 -2.3323 0.9681
-2.9493 -7.1830 -2.3322 0.9681
-2.9046 -7.2006 -2.3320 0.9681
-2.8598 -7.2179 -2.3318 0.9681
-2.7249 -7.2684 -2.3314 0.9681
-2.6797 -7.2846 -2.3313 0.9681
-2.5892 -7.3163 -2.3310 0.9681
-2.4525 -7.3618 -2.3306 0.9681
-2.3611 -7.3908 -2.3303 0.9681
-2.2232 -7.4322 -2.3300 0.9681
-2.1771 -7.4454 -2.3298 0.9681
-2.1309 -7.4584 -2.3297 0.9681
-2.0383 -7.4835 -2.3295 0.9681
-1.9454 -7.5075 -2.3293 0.9681
-1.8989 -7.5190 -2.3292 0.9681
-1.8522 -7.5303 -2.3291 0.9681
-1.8055 -7.5413 -2.3290 0.9681
-1.7588 -7.5521 -2.3289 0.9681
-1.7120 -7.5625 -2.3288 0.9681
-1.6652 -7.5727 -2.3288 0.9681
-1.5713 -7.5921 -2.3286 0.9681
-1.5242 -7.6015 -2.3285 0.9681
-1.4300 -7.6192 -2.3284 0.9681
-1.2883 -7.6438 -2.3282 0.9681
-1.1462 -7.6658 -2.3280 0.9681
-1.0037 -7.6852 -2.3278 0.9681
-0.9085 -7.6968 -2.3277 0.9681
-0.8133 -7.7072 -2.3277 0.9682
-0.7178 -7.7164 -2.3276 0.9682
-0.6223 -7.7245 -2.3275 0.9682
-0.5746 -7.7281 -2.3275 0.9682
-0.5268 -7.7315 -2.3275 0.9682
-0.4311 -7.7373 -2.3275 0.9682
-0.3832 -7.7398 -2.3275 0.9682
-0.2875 -7.7438 -2.3274 0.9682
-0.2396 -7.7454 -2.3274 0.9682
-0.1437 -7.7478 -2.3274 0.9682
-0.0958 -7.7486 -2.3274 0.9682
-0.0479 -7.7490 -2.3274 0.9682
0.0958 -7.7487 -2.3275 0.9682
0.1917 -7.7471 -2.3275 0.9682
0.2396 -7.7458 -2.3275 0.9682
0.3833 -7.7403 -2.3276 0.9682
0.4312 -7.7379 -2.3276 0.9682
0.4790 -7.7352 -2.3277 0.9682
0.6224 -7.7254 -2.3278 0.9681
0.7179 -7.7174 -2.3279 0.9681
0.7657 -7.7130 -2.3280 0.9681
0.8134 -7.7083 -2.3280 0.9681
0.8611 -7.7033 -2.3281 0.9681
0.9087 -7.6980 -2.3281 0.9681
0.9563 -7.6925 -2.3282 0.9681
1.0990 -7.6741 -2.3284 0.9681
1.2413 -7.6531 -2.3286 0.9681
1.3360 -7.6377 -2.3288 0.9681
1.3832 -7.6296 -2.3289 0.9681
1.4304 -7.6212 -2.3290 0.9681
1.6187 -7.5847 -2.3293 0.9681
1.6657 -7.5749 -2.3294 0.9681
1.7126 -7.5648 -2.3296 0.9681
1.7594 -7.5544 -2.3297 0.9681
1.8062 -7.5437 -2.3298 0.9681
1.8529 -7.5328 -2.3299 0.9681
2.1317 -7.4612 -2.3306 0.9681
2.1779 -7.4483 -2.3307 0.9681
2.2241 -7.4351 -2.3309 0.9681
2.2702 -7.4217 -2.3310 0.9681
2.3162 -7.4079 -2.3312 0.9681
2.4537 -7.3651 -2.3316 0.9681
2.5449 -7.3351 -2.3319 0.9681
2.7263 -7.2719 -2.3325 0.9681
2.8164 -7.2386 -2.3329 0.9681
2.8613 -7.2216 -2.3330 0.9681
2.9062 -7.2043 -2.3332 0.9681
2.9509 -7.1867 -2.3334 0.9681
3.0844 -7.1324 -2.3339 0.9681
3.1287 -7.1138 -2.3341 0.9681
3.2170 -7.0757 -2.3345 0.9681
3.3048 -7.0365 -2.3349 0.9681
3.3485 -7.0165 -2.3351 0.9681
3.3921 -6.9963 -2.3353 0.9680
3.4790 -6.9550 -2.3357 0.9680
3.5222 -6.9340 -2.3359 0.9680
3.5654 -6.9127 -2.3361 0.9680
3.6940 -6.8472 -2.3367 0.9680
3.7791 -6.8023 -2.3372 0.9680
3.9058 -6.7330 -2.3379 0.9680
3.9478 -6.7094 -2.3381 0.9680
3.9896 -6.6855 -2.3383 0.9680
4.0728 -6.6370 -2.3388 0.9680
4.1555 -6.5875 -2.3393 0.9680
4.2375 -6.5370 -2.3398 0.9680
4.2783 -6.5113 -2.3400 0.9680
4.3190 -6.4854 -2.3403 0.9680
4.3594 -6.4593 -2.3405 0.9680
4.3998 -6.4329 -2.3408 0.9680
4.4800 -6.3794 -2.3413 0.9680
4.5199 -6.3523 -2.3416 0.9680
4.5596 -6.3250 -2.3418 0.9680
4.5992 -6.2974 -2.3421 0.9680
4.6386 -6.2696 -2.3424 0.9680
4.6778 -6.2415 -2.3427 0.9679
4.7169 -6.2132 -2.3429 0.9679
4.7557 -6.1846 -2.3432 0.9679
4.7945 -6.1558 -2.3435 0.9679
4.8330 -6.1267 -2.3438 0.9679
4.8714 -6.0975 -2.3440 0.9679
4.9096 -6.0680 -2.3443 0.9679
4.9477 -6.0383 -2.3446 0.9679
4.9856 -6.0083 -2.3449 0.9679
5.0607 -5.9476 -2.3455 0.9679
5.2090 -5.8236 -2.3467 0.9679
5.2456 -5.7921 -2.3470 0.9679
5.3542 -5.6960 -2.3479 0.9679
5.3901 -5.6636 -2.3482 0.9679
5.4257 -5.6308 -2.3486 0.9679
5.5315 -5.5315 -2.3495 0.9679
5.5664 -5.4979 -2.3498 0.9679
5.6355 -5.4302 -2.3505 0.9678
5.7714 -5.2921 -2.3518 0.9678
5.8711 -5.1864 -2.3528 0.9678
5.9689 -5.0788 -2.3539 0.9678
6.0011 -5.0425 -2.3542 0.9678
6.0331 -5.0061 -2.3546 0.9678
6.2203 -4.7832 -2.3567 0.9678
6.3109 -4.6691 -2.3578 0.9677
6.4573 -4.4753 -2.3597 0.9677
6.4858 -4.4360 -2.3600 0.9677
6.5142 -4.3965 -2.3604 0.9677
6.5423 -4.3568 -2.3608 0.9677
6.5978 -4.2770 -2.3616 0.9677
6.6524 -4.1964 -2.3623 0.9677
6.7324 -4.0743 -2.3635 0.9677
6.7586 -4.0332 -2.3639 0.9677
6.8103 -3.9507 -2.3647 0.9677
6.8358 -3.9091 -2.3651 0.9676
6.9106 -3.7835 -2.3663 0.9676
6.9350 -3.7414 -2.3667 0.9676
7.0303 -3.5712 -2.3683 0.9676
7.0534 -3.5282 -2.3687 0.9676
7.1214 -3.3985 -2.3700 0.9676
7.1435 -3.3550 -2.3704 0.9676
7.2294 -3.1796 -2.3720 0.9676
7.2502 -3.1353 -2.3725 0.9675
7.3111 -3.0019 -2.3737 0.9675
7.3503 -2.9123 -2.3746 0.9675
7.4070 -2.7769 -2.3759 0.9675
7.4254 -2.7316 -2.3763 0.9675
7.4789 -2.5947 -2.3776 0.9675
7.5463 -2.4107 -2.3794 0.9675
7.5625 -2.3645 -2.3798 0.9674
7.5784 -2.3181 -2.3802 0.9674
7.5940 -2.2716 -2.3807 0.9674
7.6952 -1.9434 -2.3838 0.9674
7.7086 -1.8961 -2.3842 0.9674
7.7216 -1.8487 -2.3847 0.9674
7.7343 -1.8013 -2.3851 0.9674
7.7468 -1.7538 -2.3856 0.9674
7.7589 -1.7061 -2.3860 0.9674
7.7708 -1.6584 -2.3865 0.9674
7.7824 -1.6107 -2.3869 0.9674
7.8047 -1.5149 -2.3879 0.9673
7.8154 -1.4668 -2.3883 0.9673
7.8359 -1.3706 -2.3892 0.9673
7.8458 -1.3224 -2.3897 0.9673
7.8645 -1.2257 -2.3906 0.9673
7.8821 -1.1288 -2.3915 0.9673
7.9062 -0.9829 -2.3929 0.9673
7.9277 -0.8366 -2.3943 0.9673
7.9342 -0.7876 -2.3947 0.9672
7.9465 -0.6897 -2.3957 0.9672
7.9521 -0.6407 -2.3961 0.9672
7.9574 -0.5916 -2.3966 0.9672
7.9625 -0.5425 -2.3970 0.9672
7.9717 -0.4442 -2.3980 0.9672
7.9797 -0.3457 -2.3989 0.9672
7.9893 -0.1977 -2.4003 0.9672
7.9920 -0.1483 -2.4008 0.9672
7.9943 -0.0989 -2.4012 0.9672
7.9963 -0.0495 -2.4017 0.9672
7.9980 -0.0000 -2.4022 0.9671
8.0018 0.2970 -2.4050 0.9671
7.9982 0.4953 -2.4068 0.9671
7.9946 0.5943 -2.4078 0.9671
7.9722 0.9411 -2.4110 0.9670
7.9630 1.0400 -2.4120 0.9670
7.9526 1.1388 -2.4129 0.9670
7.9347 1.2869 -2.4143 0.9670
7.8905 1.5822 -2.4171 0.9669
7.8821 1.6313 -2.4175 0.9669
7.8643 1.7293 -2.4184 0.9669
7.8353 1.8760 -2.4198 0.9669
7.8250 1.9247 -2.4203 0.9669
7.7691 2.1678 -2.4225 0.9669
7.7570 2.2162 -2.4230 0.9669
7.7446 2.2645 -2.4235 0.9669
7.7319 2.3128 -2.4239 0.9669
7.6919 2.4572 -2.4253 0.9668
7.6638 2.5531 -2.4262 0.9668
7.6492 2.6009 -2.4266 0.9668
7.6193 2.6963 -2.4275 0.9668
7.5721 2.8388 -2.4288 0.9668
7.5392 2.9333 -2.4297 0.9668
7.5050 3.0274 -2.4306 0.9668
7.4875 3.0743 -2.4310 0.9668
7.3955 3.3073 -2.4332 0.9667
7.3567 3.3997 -2.4341 0.9667
7.3368 3.4457 -2.4345 0.9667
7.3166 3.4917 -2.4349 0.9667
7.2962 3.5375 -2.4354 0.9667
7.2754 3.5832 -2.4358 0.9667
7.2331 3.6742 -2.4366 0.9667
7.1674 3.8097 -2.4379 0.9667
7.1221 3.8994 -2.4387 0.9667
7.0991 3.9440 -2.4391 0.9667
7.0041 4.1212 -2.4408 0.9666
6.9549 4.2089 -2.4416 0.9666
6.9299 4.2525 -2.4420 0.9666
6.8271 4.4256 -2.4436 0.9666
6.8007 4.4684 -2.4440 0.9666
6.7740 4.5111 -2.4444 0.9666
6.7471 4.5537 -2.4448 0.9666
6.7199 4.5961 -2.4452 0.9666
6.6924 4.6382 -2.4456 0.9666
6.6647 4.6803 -2.4460 0.9666
6.5798 4.8054 -2.4471 0.9665
6.5219 4.8880 -2.4479 0.9665
6.4925 4.9290 -2.4483 0.9665
6.4629 4.9698 -2.4487 0.9665
6.3110 5.1711 -2.4505 0.9665
6.2799 5.2108 -2.4509 0.9665
6.1849 5.3288 -2.4520 0.9665
6.1527 5.3678 -2.4524 0.9665
6.1203 5.4065 -2.4527 0.9665
6.0547 5.4834 -2.4534 0.9665
6.0215 5.5215 -2.4538 0.9665
5.9206 5.6347 -2.4548 0.9664
5.8865 5.6720 -2.4552 0.9664
5.7475 5.8190 -2.4565 0.9664
5.7122 5.8553 -2.4569 0.9664
5.4201 5.7661 -2.3768 0.9675
5.1120 5.7152 -2.3030 0.9685
5.0070 5.8113 -2.3039 0.9685
4.9716 5.8428 -2.3042 0.9685
4.9360 5.8742 -2.3045 0.9685
4.8641 5.9363 -2.3050 0.9685
4.8279 5.9670 -2.3053 0.9685
4.7915 5.9974 -2.3056 0.9684
4.7181 6.0577 -2.3061 0.9684
4.6439 6.1170 -2.3067 0.9684
4.6065 6.1463 -2.3070 0.9684
4.5689 6.1754 -2.3072 0.9684
4.5312 6.2043 -2.3075 0.9684
4.3396 6.3449 -2.3088 0.9684
4.3008 6.3723 -2.3090 0.9684
4.2225 6.4264 -2.3095 0.9684
3.9837 6.5827 -2.3109 0.9684
3.9027 6.6328 -2.3114 0.9684
3.8211 6.6818 -2.3118 0.9684
3.6975 6.7534 -2.3125 0.9684
3.6561 6.7768 -2.3127 0.9684
3.4463 6.8896 -2.3137 0.9683
3.1899 7.0162 -2.3148 0.9683
3.1467 7.0363 -2.3150 0.9683
3.1034 7.0562 -2.3152 0.9683
3.0599 7.0758 -2.3154 0.9683
2.9288 7.1329 -2.3159 0.9683
2.8848 7.1514 -2.3161 0.9683
2.8407 7.1696 -2.3162 0.9683
2.7965 7.1875 -2.3164 0.9683
2.7522 7.2051 -2.3165 0.9683
2.6632 7.2396 -2.3168 0.9683
2.6186 7.2564 -2.3170 0.9683
2.5738 7.2729 -2.3171 0.9683
2.3937 7.3361 -2.3177 0.9683
2.3030 7.3660 -2.3180 0.9683
2.2576 7.3805 -2.3181 0.9683
2.1206 7.4222 -2.3184 0.9683
2.0747 7.4356 -2.3186 0.9683
2.0289 7.4486 -2.3187 0.9683
1.9367 7.4739 -2.3189 0.9683
1.8905 7.4860 -2.3190 0.9683
1.8443 7.4979 -2.3191 0.9683
1.7980 7.5095 -2.3192 0.9683
1.7051 7.5318 -2.3194 0.9683
1.5653 7.5630 -2.3197 0.9683
1.5185 7.5728 -2.3197 0.9683
1.4717 7.5823 -2.3198 0.9683
1.3779 7.6004 -2.3200 0.9683
1.2839 7.6173 -2.3201 0.9683
1.2368 7.6253 -2.3202 0.9683
1.1896 7.6330 -2.3202 0.9683
1.1424 7.6404 -2.3203 0.9682
1.0952 7.6475 -2.3203 0.9682
1.0006 7.6609 -2.3205 0.9682
0.8583 7.6786 -2.3206 0.9682
0.7158 7.6936 -2.3207 0.9682
0.6682 7.6980 -2.3208 0.9682
0.3821 7.7180 -2.3209 0.9682
0.3344 7.7202 -2.3209 0.9682
0.0478 7.7274 -2.3209 0.9682
-0.0478 7.7274 -2.3209 0.9682
-0.1912 7.7250 -2.3209 0.9682
-0.2389 7.7236 -2.3209 0.9682
-0.2867 7.7219 -2.3208 0.9682
-0.4298 7.7149 -2.3208 0.9682
-0.4775 7.7120 -2.3207 0.9682
-0.5252 7.7088 -2.3207 0.9682
-0.5729 7.7052 -2.3206 0.9682
-0.6205 7.7014 -2.3206 0.9682
-0.6681 7.6972 -2.3205 0.9682
-0.8107 7.6830 -2.3204 0.9682
-0.8582 7.6776 -2.3203 0.9682
-0.9056 7.6719 -2.3202 0.9683
-1.0004 7.6597 -2.3201 0.9683
-1.1422 7.6391 -2.3199 0.9683
-1.1894 7.6316 -2.3198 0.9683
-1.2836 7.6158 -2.3196 0.9683
-1.3776 7.5987 -2.3194 0.9683
-1.4245 7.5897 -2.3193 0.9683
-1.4713 7.5804 -2.3193 0.9683
-1.5648 7.5610 -2.3190 0.9683
-1.6115 7.5508 -2.3189 0.9683
-1.6580 7.5404 -2.3188 0.9683
-1.7510 7.5185 -2.3186 0.9683
-1.8437 7.4956 -2.3184 0.9683
-1.8899 7.4836 -2.3183 0.9683
-1.9821 7.4589 -2.3180 0.9683
-2.1656 7.4060 -2.3175 0.9683
-2.2112 7.3920 -2.3174 0.9683
-2.3928 7.3333 -2.3168 0.9683
-2.5279 7.2862 -2.3164 0.9683
-2.6175 7.2534 -2.3160 0.9683
-2.6621 7.2366 -2.3159 0.9683
-2.7066 7.2194 -2.3157 0.9683
-2.7510 7.2020 -2.3155 0.9683
-2.7953 7.1843 -2.3154 0.9683
-2.8394 7.1664 -2.3152 0.9683
-2.8835 7.1481 -2.3150 0.9683
-2.9274 7.1295 -2.3148 0.9683
-2.9712 7.1107 -2.3146 0.9683
-3.0148 7.0915 -2.3144 0.9683
-3.1017 7.0525 -2.3140 0.9683
-3.1451 7.0326 -2.3138 0.9683
-3.3593 6.9286 -2.3127 0.9684
-3.4018 6.9070 -2.3125 0.9684
-3.4440 6.8852 -2.3122 0.9684
-3.4862 6.8630 -2.3120 0.9684
-3.5282 6.8407 -2.3118 0.9684
-3.6949 6.7487 -2.3109 0.9684
-3.7773 6.7011 -2.3104 0.9684
-3.8183 6.6770 -2.3102 0.9684
-3.9403 6.6029 -2.3094 0.9684
-3.9806 6.5777 -2.3092 0.9684
-4.0608 6.5266 -2.3087 0.9684
-4.1006 6.5006 -2.3084 0.9684
-4.1403 6.4744 -2.3082 0.9684
-4.2191 6.4213 -2.3077 0.9684
-4.2582 6.3943 -2.3074 0.9684
-4.2972 6.3671 -2.3071 0.9684
-4.3360 6.3397 -2.3069 0.9684
-4.4130 6.2841 -2.3063 0.9684
-4.4513 6.2560 -2.3061 0.9684
-4.4894 6.2276 -2.3058 0.9684
-4.5649 6.1701 -2.3052 0.9685
-4.6025 6.1410 -2.3049 0.9685
-4.6398 6.1117 -2.3047 0.9685
-4.7138 6.0523 -2.3041 0.9685
-4.7506 6.0222 -2.3038 0.9685
-4.7871 5.9920 -2.3035 0.9685
-4.8596 5.9308 -2.3029 0.9685
-4.8956 5.8999 -2.3026 0.9685
-4.9669 5.8374 -2.3020 0.9685
-5.0722 5.7419 -2.3011 0.9685
-5.1415 5.6772 -2.3005 0.9685
-5.1758 5.6445 -2.3001 0.9685
-5.2099 5.6116 -2.2998 0.9685
-5.2437 5.5785 -2.2995 0.9685
-5.2774 5.5452 -2.2992 0.9685
-5.3771 5.4441 -2.2982 0.9685
-5.4424 5.3756 -2.2976 0.9686
-5.5388 5.2714 -2.2965 0.9686
-5.5705 5.2362 -2.2962 0.9686
-5.6642 5.1297 -2.2952 0.9686
-5.8216 5.1427 -2.3330 0.9681
-6.1316 5.2172 -2.4180 0.9669
-6.2404 5.2436 -2.4481 0.9665
-6.2728 5.2051 -2.4482 0.9665
-6.3957 5.0451 -2.4466 0.9666
-6.4257 5.0047 -2.4463 0.9666
-6.4555 4.9641 -2.4459 0.9666
-6.5721 4.7998 -2.4443 0.9666
-6.6288 4.7166 -2.4435 0.9666
-6.6568 4.6748 -2.4431 0.9666
-6.6845 4.6327 -2.4427 0.9666
-6.7659 4.5057 -2.4415 0.9666
-6.8188 4.4202 -2.4407 0.9666
-6.9213 4.2473 -2.4390 0.9667
-6.9463 4.2037 -2.4386 0.9667
-6.9710 4.1600 -2.4382 0.9667
-7.0669 3.9835 -2.4365 0.9667
-7.1358 3.8497 -2.4352 0.9667
-7.1582 3.8048 -2.4348 0.9667
-7.1804 3.7598 -2.4344 0.9667
-7.2022 3.7147 -2.4339 0.9667
-7.2237 3.6694 -2.4335 0.9667
-7.2660 3.5785 -2.4326 0.9667
-7.2867 3.5329 -2.4322 0.9667
-7.3071 3.4871 -2.4318 0.9668
-7.3470 3.3953 -2.4309 0.9668
-7.3665 3.3492 -2.4305 0.9668
-7.4417 3.1637 -2.4287 0.9668
-7.4598 3.1170 -2.4282 0.9668
-7.4775 3.0702 -2.4278 0.9668
-7.5291 2.9294 -2.4265 0.9668
-7.5457 2.8822 -2.4260 0.9668
-7.5620 2.8350 -2.4256 0.9668
-7.5779 2.7876 -2.4251 0.9668
-7.5936 2.7402 -2.4247 0.9668
-7.6240 2.6451 -2.4238 0.9669
-7.6388 2.5974 -2.4233 0.9669
-7.6533 2.5497 -2.4229 0.9669
-7.6675 2.5018 -2.4224 0.9669
-7.7083 2.3578 -2.4210 0.9669
-7.7213 2.3097 -2.4206 0.9669
-7.7339 2.2614 -2.4201 0.9669
-7.7463 2.2132 -2.4197 0.9669
-7.7584 2.1648 -2.4192 0.9669
-7.7701 2.1164 -2.4188 0.9669
-7.7928 2.0193 -2.4178 0.9669
-7.8036 1.9707 -2.4174 0.9669
-7.8244 1.8733 -2.4165 0.9670
-7.8343 1.8246 -2.4160 0.9670
-7.8440 1.7758 -2.4155 0.9670
-7.8533 1.7269 -2.4151 0.9670
-7.8623 1.6780 -2.4146 0.9670
-7.9028 1.4327 -2.4123 0.9670
-7.9100 1.3835 -2.4118 0.9670
-7.9297 1.2358 -2.4104 0.9670
-7.9357 1.1865 -2.4100 0.9670
-7.9413 1.1372 -2.4095 0.9670
-7.9517 1.0385 -2.4086 0.9671
-7.9832 0.5935 -2.4044 0.9671
-7.9869 0.4945 -2.4034 0.9671
-7.9882 0.4451 -2.4030 0.9671
-7.9893 0.3955 -2.4025 0.9671
-7.9900 0.3461 -2.4020 0.9671
-7.9905 0.2966 -2.4016 0.9672
-7.9899 0.1482 -2.4002 0.9672
-7.9891 0.0988 -2.3997 0.9672
-7.9880 0.0494 -2.3992 0.9672
-7.7767 0.0000 -2.3988 0.9680
-7.7685 -0.1922 -2.3970 0.9680
-7.7657 -0.2402 -2.3965 0.9680
-7.7626 -0.2882 -2.3961 0.9680
-7.7555 -0.3840 -2.3952 0.9680
-7.7427 -0.5275 -2.3938 0.9680
-7.7272 -0.6707 -2.3925 0.9681
-7.7215 -0.7183 -2.3921 0.9681
-7.7025 -0.8610 -2.3907 0.9681
-7.6809 -1.0032 -2.3894 0.9681
-7.6731 -1.0504 -2.3889 0.9681
-7.6651 -1.0977 -2.3885 0.9681
-7.6481 -1.1920 -2.3876 0.9681
-7.6392 -1.2390 -2.3872 0.9681
-7.6299 -1.2860 -2.3867 0.9681
-7.6204 -1.3329 -2.3863 0.9681
-7.5796 -1.5199 -2.3845 0.9682
-7.5574 -1.6129 -2.3837 0.9682
-7.5342 -1.7056 -2.3828 0.9682
-7.5221 -1.7519 -2.3824 0.9682
-7.5097 -1.7980 -2.3819 0.9682
-7.4971 -1.8441 -2.3815 0.9682
-7.4843 -1.8901 -2.3811 0.9682
-7.4711 -1.9360 -2.3806 0.9682
-7.4155 -2.1186 -2.3789 0.9682
-7.4010 -2.1641 -2.3785 0.9682
-7.3862 -2.2094 -2.3781 0.9682
-7.3710 -2.2547 -2.3777 0.9682
-7.3556 -2.2998 -2.3772 0.9683
-7.3078 -2.4346 -2.3760 0.9683
-7.2914 -2.4793 -2.3756 0.9683
-7.2575 -2.5684 -2.3747 0.9683
-7.2403 -2.6128 -2.3743 0.9683
-7.2227 -2.6570 -2.3739 0.9683
-7.1869 -2.7452 -2.3731 0.9683
-7.1499 -2.8329 -2.3722 0.9683
-7.1310 -2.8766 -2.3718 0.9683
-7.1119 -2.9201 -2.3714 0.9683
-7.0925 -2.9635 -2.3710 0.9683
-7.0728 -3.0068 -2.3706 0.9683
-7.0327 -3.0930 -2.3698 0.9684
-7.0122 -3.1359 -2.3694 0.9684
-6.9915 -3.1787 -2.3690 0.9684
-6.9493 -3.2638 -2.3682 0.9684
-6.9279 -3.3062 -2.3678 0.9684
-6.9061 -3.3484 -2.3674 0.9684
-6.8842 -3.3905 -2.3671 0.9684
-6.8619 -3.4324 -2.3667 0.9684
-6.7937 -3.5574 -2.3655 0.9684
-6.7470 -3.6400 -2.3647 0.9684
-6.7233 -3.6810 -2.3643 0.9684
-6.6993 -3.7219 -2.3640 0.9684
-6.6751 -3.7627 -2.3636 0.9684
-6.5504 -3.9641 -2.3617 0.9685
-6.5247 -4.0039 -2.3613 0.9685
-6.4988 -4.0435 -2.3610 0.9685
-6.4727 -4.0830 -2.3606 0.9685
-6.4463 -4.1224 -2.3602 0.9685
-6.4197 -4.1615 -2.3599 0.9685
-6.3110 -4.3164 -2.3585 0.9685
-6.2832 -4.3547 -2.3581 0.9685
-6.2553 -4.3928 -2.3577 0.9685
-6.2270 -4.4308 -2.3574 0.9685
-6.1986 -4.4685 -2.3570 0.9685
-6.1699 -4.5061 -2.3567 0.9685
-6.1410 -4.5435 -2.3563 0.9685
-6.1119 -4.5807 -2.3560 0.9685
-6.0826 -4.6178 -2.3557 0.9685
-6.0530 -4.6546 -2.3553 0.9685
-5.9631 -4.7641 -2.3543 0.9686
-5.9327 -4.8001 -2.3540 0.9686
-5.9020 -4.8361 -2.3536 0.9686
-5.8712 -4.8718 -2.3533 0.9686
-5.7138 -5.0475 -2.3517 0.9686
-5.5513 -5.2182 -2.3501 0.9686
-5.5182 -5.2518 -2.3498 0.9686
-5.3838 -5.3839 -2.3486 0.9686
-5.2464 -5.5126 -2.3474 0.9686
-5.2115 -5.5443 -2.3471 0.9687
-5.1413 -5.6069 -2.3465 0.9687
-4.9263 -5.7897 -2.3449 0.9687
-4.8898 -5.8193 -2.3446 0.9687
-4.8532 -5.8488 -2.3443 0.9687
-4.7794 -5.9070 -2.3438 0.9687
-4.7422 -5.9358 -2.3435 0.9687
-4.6674 -5.9927 -2.3430 0.9687
-4.6298 -6.0208 -2.3427 0.9687
-4.5919 -6.0486 -2.3425 0.9687
-4.5158 -6.1036 -2.3420 0.9687
-4.4390 -6.1577 -2.3415 0.9687
-4.4004 -6.1844 -2.3413 0.9687
-4.3616 -6.2108 -2.3410 0.9687
-4.2836 -6.2631 -2.3405 0.9687
-4.2443 -6.2888 -2.3403 0.9687
-4.2050 -6.3143 -2.3401 0.9687
-4.1654 -6.3396 -2.3398 0.9687
-4.1258 -6.3646 -2.3396 0.9687
-4.0859 -6.3894 -2.3394 0.9688
-4.0058 -6.4382 -2.3389 0.9688
-3.9655 -6.4623 -2.3387 0.9688
-3.9252 -6.4861 -2.3385 0.9688
-3.8439 -6.5329 -2.3381 0.9688
-3.8031 -6.5560 -2.3379 0.9688
-3.7622 -6.5788 -2.3377 0.9688
-3.6386 -6.6457 -2.3371 0.9688
-3.4719 -6.7315 -2.3363 0.9688
-3.3878 -6.7728 -2.3359 0.9688
-3.3457 -6.7931 -2.3357 0.9688
-3.3033 -6.8131 -2.3356 0.9688
-3.2608 -6.8329 -2.3354 0.9688
-3.1329 -6.8907 -2.3349 0.9688
-3.0900 -6.9094 -2.3347 0.9688
-3.0469 -6.9280 -2.3345 0.9688
-3.0038 -6.9462 -2.3344 0.9688
-2.9173 -6.9818 -2.3341 0.9688
-2.8738 -6.9993 -2.3339 0.9688
-2.8303 -7.0165 -2.3337 0.9688
-2.6112 -7.0984 -2.3330 0.9688
-2.4787 -7.1444 -2.3326 0.9688
-2.3899 -7.1737 -2.3324 0.9688
-2.2560 -7.2157 -2.3320 0.9688
-2.1215 -7.2552 -2.3317 0.9689
-2.0764 -7.2679 -2.3315 0.9689
-1.9862 -7.2923 -2.3313 0.9689
-1.9410 -7.3042 -2.3312 0.9689
-1.8957 -7.3157 -2.3311 0.9689
-1.8049 -7.3380 -2.3309 0.9689
-1.7594 -7.3487 -2.3308 0.9689
-1.7139 -7.3592 -2.3308 0.9689
-1.6683 -7.3694 -2.3307 0.9689
-1.5769 -7.3889 -2.3305 0.9689
-1.5311 -7.3983 -2.3304 0.9689
-1.4853 -7.4074 -2.3304 0.9689
-1.4394 -7.4162 -2.3303 0.9689
-1.3935 -7.4247 -2.3302 0.9689
-1.3475 -7.4330 -2.3301 0.9689
-1.2093 -7.4561 -2.3300 0.9689
-1.1631 -7.4633 -2.3299 0.9689
-1.1170 -7.4701 -2.3298 0.9689
-1.0707 -7.4767 -2.3298 0.9689
-0.9317 -7.4948 -2.3296 0.9689
-0.7460 -7.5151 -2.3295 0.9689
-0.6995 -7.5195 -2.3295 0.9689
-0.6064 -7.5274 -2.3294 0.9689
-0.5599 -7.5309 -2.3294 0.9689
-0.5133 -7.5342 -2.3294 0.9689
-0.3734 -7.5422 -2.3293 0.9689
-0.3268 -7.5444 -2.3293 0.9689
-0.2801 -7.5462 -2.3293 0.9689
-0.1868 -7.5491 -2.3293 0.9689
-0.1401 -7.5501 -2.3293 0.9689
0.0000 -7.5515 -2.3293 0.9689
0.0934 -7.5510 -2.3293 0.9689
0.1868 -7.5493 -2.3294 0.9689
0.2335 -7.5481 -2.3294 0.9689
0.3735 -7.5427 -2.3295 0.9689
0.4201 -7.5404 -2.3295 0.9689
0.4667 -7.5378 -2.3295 0.9689
0.5134 -7.5349 -2.3296 0.9689
0.6996 -7.5204 -2.3298 0.9689
0.8391 -7.5067 -2.3299 0.9689
1.0246 -7.4844 -2.3302 0.9689
1.0709 -7.4781 -2.3302 0.9689
1.1172 -7.4716 -2.3303 0.9689
1.1634 -7.4648 -2.3304 0.9689
1.2557 -7.4503 -2.3305 0.9689
1.3018 -7.4427 -2.3306 0.9689
1.3479 -7.4348 -2.3307 0.9689
1.3939 -7.4265 -2.3308 0.9689
1.4398 -7.4181 -2.3309 0.9689
1.4858 -7.4093 -2.3310 0.9689
1.5774 -7.3910 -2.3312 0.9689
1.6231 -7.3814 -2.3313 0.9689
1.7145 -7.3614 -2.3315 0.9689
1.7600 -7.3510 -2.3316 0.9689
1.8510 -7.3294 -2.3318 0.9689
1.8964 -7.3182 -2.3319 0.9689
2.0321 -7.2829 -2.3323 0.9688
2.2121 -7.2320 -2.3328 0.9688
2.3017 -7.2049 -2.3331 0.9688
2.3463 -7.1910 -2.3332 0.9688
2.3909 -7.1768 -2.3334 0.9688
2.4798 -7.1476 -2.3336 0.9688
2.5684 -7.1173 -2.3339 0.9688
2.7005 -7.0698 -2.3344 0.9688
2.7881 -7.0369 -2.3348 0.9688
2.8754 -7.0029 -2.3351 0.9688
2.9189 -6.9855 -2.3353 0.9688
3.0486 -6.9317 -2.3358 0.9688
3.0917 -6.9133 -2.3360 0.9688
3.1346 -6.8946 -2.3362 0.9688
3.2628 -6.8369 -2.3367 0.9688
3.3053 -6.8171 -2.3369 0.9688
3.4321 -6.7564 -2.3375 0.9688
3.5160 -6.7146 -2.3379 0.9688
3.5577 -6.6933 -2.3382 0.9688
3.5994 -6.6718 -2.3384 0.9688
3.6409 -6.6500 -2.3386 0.9688
3.6823 -6.6280 -2.3388 0.9688
3.7236 -6.6057 -2.3390 0.9688
3.8057 -6.5604 -2.3395 0.9688
3.8466 -6.5374 -2.3397 0.9687
3.9279 -6.4906 -2.3401 0.9687
3.9684 -6.4668 -2.3404 0.9687
4.0087 -6.4428 -2.3406 0.9687
4.1288 -6.3693 -2.3413 0.9687
4.2476 -6.2936 -2.3421 0.9687
4.2869 -6.2679 -2.3423 0.9687
4.3260 -6.2419 -2.3426 0.9687
4.4425 -6.1626 -2.3433 0.9687
4.4811 -6.1357 -2.3436 0.9687
4.5576 -6.0812 -2.3441 0.9687
4.5957 -6.0535 -2.3444 0.9687
4.6336 -6.0257 -2.3447 0.9687
4.7462 -5.9408 -2.3455 0.9687
4.7834 -5.9120 -2.3458 0.9687
4.8574 -5.8538 -2.3463 0.9687
4.8941 -5.8244 -2.3466 0.9687
4.9306 -5.7947 -2.3469 0.9687
4.9670 -5.7649 -2.3472 0.9686
5.1106 -5.6431 -2.3484 0.9686
5.1461 -5.6121 -2.3487 0.9686
5.2164 -5.5494 -2.3493 0.9686
5.2860 -5.4859 -2.3499 0.9686
5.3206 -5.4538 -2.3502 0.9686
5.3549 -5.4215 -2.3505 0.9686
5.3890 -5.3890 -2.3508 0.9686
5.4230 -5.3563 -2.3511 0.9686
5.5237 -5.2569 -2.3521 0.9686
5.6225 -5.1557 -2.3531 0.9686
5.6875 -5.0872 -2.3537 0.9686
5.7197 -5.0526 -2.3541 0.9686
5.7833 -4.9829 -2.3547 0.9685
5.8462 -4.9124 -2.3554 0.9685
5.8773 -4.8769 -2.3558 0.9685
5.9083 -4.8411 -2.3561 0.9685
5.9997 -4.7328 -2.3571 0.9685
6.0297 -4.6963 -2.3575 0.9685
6.0596 -4.6596 -2.3579 0.9685
6.0892 -4.6227 -2.3582 0.9685
6.1767 -4.5110 -2.3593 0.9685
6.2054 -4.4734 -2.3596 0.9685
6.2903 -4.3596 -2.3607 0.9685
6.4802 -4.0877 -2.3633 0.9684
6.5323 -4.0086 -2.3641 0.9684
6.5581 -3.9688 -2.3645 0.9684
6.6585 -3.8078 -2.3660 0.9684
6.6830 -3.7671 -2.3664 0.9684
6.7551 -3.6443 -2.3676 0.9684
6.7787 -3.6031 -2.3680 0.9684
6.8020 -3.5617 -2.3684 0.9684
6.8250 -3.5202 -2.3687 0.9684
6.8926 -3.3946 -2.3699 0.9684
7.0617 -3.0538 -2.3732 0.9683
7.1209 -2.9238 -2.3744 0.9683
7.1400 -2.8802 -2.3748 0.9683
7.1776 -2.7927 -2.3757 0.9683
7.1960 -2.7487 -2.3761 0.9683
7.2142 -2.7046 -2.3765 0.9683
7.2497 -2.6161 -2.3774 0.9683
7.2670 -2.5717 -2.3778 0.9682
7.2840 -2.5271 -2.3782 0.9682
7.3008 -2.4825 -2.3786 0.9682
7.3496 -2.3479 -2.3799 0.9682
7.3807 -2.2576 -2.3808 0.9682
7.3959 -2.2123 -2.3812 0.9682
7.4254 -2.1215 -2.3821 0.9682
7.4942 -1.8926 -2.3842 0.9682
7.5072 -1.8466 -2.3847 0.9682
7.5198 -1.8004 -2.3851 0.9682
7.5676 -1.6151 -2.3869 0.9681
7.5788 -1.5685 -2.3873 0.9681
7.6005 -1.4752 -2.3882 0.9681
7.6109 -1.4285 -2.3886 0.9681
7.6210 -1.3816 -2.3891 0.9681
7.6308 -1.3347 -2.3895 0.9681
7.6496 -1.2407 -2.3904 0.9681
7.6755 -1.0992 -2.3917 0.9681
7.6837 -1.0519 -2.3922 0.9681
7.7061 -0.9097 -2.3935 0.9680
7.7131 -0.8622 -2.3940 0.9680
7.7197 -0.8146 -2.3944 0.9680
7.7261 -0.7670 -2.3949 0.9680
7.7321 -0.7193 -2.3953 0.9680
7.7433 -0.6239 -2.3962 0.9680
7.7485 -0.5761 -2.3967 0.9680
7.7534 -0.5282 -2.3971 0.9680
7.7623 -0.4325 -2.3980 0.9680
7.7662 -0.3846 -2.3985 0.9680
7.7699 -0.3366 -2.3989 0.9680
7.7764 -0.2405 -2.3999 0.9680
7.7792 -0.1925 -2.4003 0.9680
7.7818 -0.1444 -2.4008 0.9679
7.7840 -0.0963 -2.4012 0.9679
7.7859 -0.0481 -2.4017 0.9679
7.7898 0.0964 -2.4030 0.9679
7.7906 0.1446 -2.4035 0.9679
7.7910 0.1928 -2.4039 0.9679
7.7910 0.2892 -2.4048 0.9679
7.7905 0.3374 -2.4053 0.9679
7.7887 0.4339 -2.4062 0.9679
7.7837 0.5787 -2.4076 0.9679
7.7814 0.6270 -2.4080 0.9678
7.7789 0.6752 -2.4085 0.9678
7.7760 0.7234 -2.4089 0.9678
7.7729 0.7716 -2.4094 0.9678
7.7656 0.8680 -2.4103 0.9678
7.7616 0.9162 -2.4108 0.9678
7.7573 0.9644 -2.4112 0.9678
7.7045 1.3968 -2.4153 0.9678
7.6559 1.6835 -2.4180 0.9677
7.6374 1.7787 -2.4189 0.9677
7.6276 1.8262 -2.4193 0.9677
7.6072 1.9211 -2.4202 0.9677
7.5966 1.9685 -2.4206 0.9677
7.5857 2.0158 -2.4211 0.9677
7.5745 2.0631 -2.4215 0.9677
7.5265 2.2515 -2.4233 0.9676
7.5139 2.2983 -2.4237 0.9676
7.4460 2.5318 -2.4259 0.9676
7.4315 2.5783 -2.4263 0.9676
7.4167 2.6247 -2.4268 0.9676
7.4017 2.6709 -2.4272 0.9676
7.3548 2.8093 -2.4285 0.9676
7.3385 2.8552 -2.4289 0.9676
7.3220 2.9011 -2.4294 0.9676
7.2708 3.0380 -2.4306 0.9676
7.2531 3.0835 -2.4311 0.9675
7.2352 3.1288 -2.4315 0.9675
7.2170 3.1740 -2.4319 0.9675
7.1984 3.2191 -2.4323 0.9675
7.1605 3.3091 -2.4332 0.9675
7.1411 3.3539 -2.4336 0.9675
7.0813 3.4876 -2.4348 0.9675
7.0189 3.6202 -2.4361 0.9675
6.9760 3.7079 -2.4369 0.9675
6.9094 3.8387 -2.4381 0.9675
6.8637 3.9251 -2.4389 0.9674
6.8404 3.9681 -2.4393 0.9674
6.7930 4.0538 -2.4401 0.9674
6.7446 4.1388 -2.4409 0.9674
6.6950 4.2233 -2.4417 0.9674
6.6444 4.3071 -2.4425 0.9674
6.6187 4.3488 -2.4429 0.9674
6.5927 4.3903 -2.4432 0.9674
6.5399 4.4730 -2.4440 0.9674
6.4861 4.5549 -2.4448 0.9674
6.4588 4.5957 -2.4451 0.9674
6.4313 4.6362 -2.4455 0.9674
6.4035 4.6766 -2.4459 0.9674
6.3754 4.7168 -2.4463 0.9673
6.2897 4.8365 -2.4474 0.9673
6.2312 4.9154 -2.4481 0.9673
6.1114 5.0710 -2.4495 0.9673
6.0807 5.1094 -2.4499 0.9673
6.0188 5.1858 -2.4506 0.9673
5.9875 5.2236 -2.4510 0.9673
5.9559 5.2613 -2.4513 0.9673
5.9241 5.2988 -2.4517 0.9673
5.8920 5.3361 -2.4520 0.9673
5.6610 5.5914 -2.4544 0.9672
5.6271 5.6271 -2.4547 0.9672
5.5585 5.6978 -2.4553 0.9672
5.4022 5.7471 -2.4330 0.9675
5.1211 5.6546 -2.3532 0.9686
5.0323 5.6261 -2.3283 0.9689
4.9541 5.6081 -2.3082 0.9692
4.8721 5.6547 -2.3024 0.9692
4.8376 5.6854 -2.3027 0.9692
4.8030 5.7159 -2.3029 0.9692
4.7681 5.7462 -2.3032 0.9692
4.6978 5.8062 -2.3038 0.9692
4.6623 5.8358 -2.3040 0.9692
4.6267 5.8652 -2.3043 0.9692
4.5187 5.9521 -2.3051 0.9692
4.4823 5.9806 -2.3054 0.9692
4.4090 6.0369 -2.3059 0.9692
4.3349 6.0923 -2.3064 0.9692
4.2601 6.1468 -2.3069 0.9692
4.2225 6.1737 -2.3071 0.9692
4.1847 6.2003 -2.3074 0.9692
4.1467 6.2267 -2.3076 0.9692
4.1085 6.2529 -2.3079 0.9692
3.9930 6.3300 -2.3086 0.9692
3.9542 6.3552 -2.3088 0.9692
3.8760 6.4048 -2.3092 0.9691
3.8367 6.4293 -2.3095 0.9691
3.7973 6.4535 -2.3097 0.9691
3.6779 6.5247 -2.3103 0.9691
3.5572 6.5936 -2.3109 0.9691
3.4351 6.6602 -2.3115 0.9691
3.3118 6.7244 -2.3121 0.9691
3.1873 6.7863 -2.3127 0.9691
3.1036 6.8263 -2.3130 0.9691
2.8921 6.9215 -2.3139 0.9691
2.8067 6.9577 -2.3142 0.9691
2.7208 6.9929 -2.3145 0.9691
2.5041 7.0759 -2.3153 0.9691
2.4167 7.1072 -2.3155 0.9691
2.2848 7.1520 -2.3159 0.9691
2.2406 7.1664 -2.3161 0.9691
2.0185 7.2341 -2.3167 0.9691
1.9738 7.2468 -2.3168 0.9690
1.7492 7.3059 -2.3173 0.9690
1.6136 7.3380 -2.3175 0.9690
1.4318 7.3767 -2.3179 0.9690
1.3862 7.3856 -2.3179 0.9690
1.2948 7.4026 -2.3181 0.9690
1.2490 7.4107 -2.3182 0.9690
1.1114 7.4332 -2.3183 0.9690
0.9273 7.4591 -2.3185 0.9690
0.7888 7.4754 -2.3187 0.9690
0.6500 7.4891 -2.3188 0.9690
0.6037 7.4931 -2.3188 0.9690
0.5574 7.4968 -2.3188 0.9690
0.5110 7.5002 -2.3189 0.9690
0.4182 7.5060 -2.3189 0.9690
0.3718 7.5085 -2.3189 0.9690
0.3254 7.5107 -2.3189 0.9690
0.2789 7.5126 -2.3189 0.9690
0.2324 7.5142 -2.3189 0.9690
0.1860 7.5156 -2.3190 0.9690
0.0930 7.5173 -2.3190 0.9690
0.0000 7.5178 -2.3189 0.9690
-0.0464 7.5176 -2.3189 0.9690
-0.1394 7.5164 -2.3189 0.9690
-0.2324 7.5140 -2.3189 0.9690
-0.3253 7.5104 -2.3188 0.9690
-0.3717 7.5082 -2.3188 0.9690
-0.4646 7.5028 -2.3187 0.9690
-0.5109 7.4996 -2.3187 0.9690
-0.6037 7.4924 -2.3186 0.9690
-0.7425 7.4795 -2.3184 0.9690
-0.7887 7.4745 -2.3184 0.9690
-0.8349 7.4693 -2.3183 0.9690
-0.8810 7.4638 -2.3183 0.9690
-0.9271 7.4580 -2.3182 0.9690
-0.9732 7.4519 -2.3181 0.9690
-1.0653 7.4389 -2.3180 0.9690
-1.1112 7.4319 -2.3179 0.9690
-1.2029 7.4170 -2.3178 0.9690
-1.2487 7.4092 -2.3177 0.9690
-1.3402 7.3926 -2.3175 0.9690
-1.4314 7.3749 -2.3173 0.9690
-1.5678 7.3461 -2.3170 0.9690
-1.9731 7.2443 -2.3160 0.9691
-2.0178 7.2316 -2.3159 0.9691
-2.0624 7.2186 -2.3157 0.9691
-2.1069 7.2053 -2.3156 0.9691
-2.1956 7.1778 -2.3153 0.9691
-2.2839 7.1493 -2.3151 0.9691
-2.4594 7.0888 -2.3145 0.9691
-2.5030 7.0730 -2.3143 0.9691
-2.8906 6.9180 -2.3127 0.9691
-2.9331 6.8994 -2.3125 0.9691
-2.9754 6.8805 -2.3123 0.9691
-3.1436 6.8024 -2.3115 0.9691
-3.2269 6.7618 -2.3111 0.9691
-3.2684 6.7411 -2.3109 0.9691
-3.3509 6.6990 -2.3105 0.9691
-3.4737 6.6338 -2.3098 0.9691
-3.5143 6.6116 -2.3096 0.9691
-3.5951 6.5664 -2.3092 0.9691
-3.6353 6.5434 -2.3089 0.9692
-3.7549 6.4729 -2.3082 0.9692
-3.7945 6.4489 -2.3080 0.9692
-3.8339 6.4246 -2.3078 0.9692
-3.9512 6.3504 -2.3071 0.9692
-4.0286 6.2997 -2.3066 0.9692
-4.0670 6.2740 -2.3063 0.9692
-4.2567 6.1418 -2.3050 0.9692
-4.3313 6.0873 -2.3045 0.9692
-4.3683 6.0597 -2.3042 0.9692
-4.4052 6.0319 -2.3040 0.9692
-4.5147 5.9470 -2.3031 0.9692
-4.5509 5.9182 -2.3029 0.9692
-4.7638 5.7410 -2.3011 0.9693
-4.8332 5.6802 -2.3006 0.9693
-4.9358 5.5874 -2.2997 0.9693
-4.9696 5.5561 -2.2994 0.9693
-5.0698 5.4607 -2.2984 0.9693
-5.1028 5.4285 -2.2981 0.9693
-5.1681 5.3636 -2.2975 0.9693
-5.2004 5.3307 -2.2972 0.9693
-5.3278 5.1976 -2.2959 0.9693
-5.3590 5.1638 -2.2956 0.9693
-5.5302 5.0710 -2.3144 0.9691
-5.6183 5.0882 -2.3381 0.9688
-5.9020 5.1491 -2.4160 0.9677
-6.0051 5.1740 -2.4450 0.9674
-6.0741 5.1039 -2.4473 0.9673
-6.1047 5.0655 -2.4469 0.9673
-6.1948 4.9491 -2.4458 0.9674
-6.2536 4.8706 -2.4450 0.9674
-6.3399 4.7516 -2.4439 0.9674
-6.3682 4.7115 -2.4435 0.9674
-6.3962 4.6713 -2.4431 0.9674
-6.4786 4.5497 -2.4420 0.9674
-6.5588 4.4266 -2.4408 0.9674
-6.5850 4.3852 -2.4404 0.9674
-6.6365 4.3021 -2.4396 0.9674
-6.6619 4.2602 -2.4392 0.9674
-6.6871 4.2183 -2.4388 0.9674
-6.7119 4.1761 -2.4384 0.9675
-6.7608 4.0914 -2.4376 0.9675
-6.7849 4.0489 -2.4372 0.9675
-6.8086 4.0062 -2.4368 0.9675
-6.9010 3.8340 -2.4351 0.9675
-6.9233 3.7905 -2.4347 0.9675
-6.9673 3.7034 -2.4339 0.9675
-6.9889 3.6596 -2.4335 0.9675
-7.0312 3.5716 -2.4326 0.9675
-7.0519 3.5275 -2.4322 0.9675
-7.0926 3.4388 -2.4314 0.9675
-7.1124 3.3943 -2.4309 0.9675
-7.1321 3.3496 -2.4305 0.9676
-7.1514 3.3049 -2.4301 0.9676
-7.1892 3.2150 -2.4292 0.9676
-7.2077 3.1700 -2.4288 0.9676
-7.3125 2.8973 -2.4262 0.9676
-7.3451 2.8056 -2.4253 0.9676
-7.3610 2.7597 -2.4249 0.9676
-7.4361 2.5285 -2.4227 0.9677
-7.4502 2.4820 -2.4223 0.9677
-7.4641 2.4354 -2.4218 0.9677
-7.4909 2.3421 -2.4209 0.9677
-7.5038 2.2953 -2.4205 0.9677
-7.5410 2.1545 -2.4192 0.9677
-7.5643 2.0603 -2.4183 0.9677
-7.5754 2.0131 -2.4178 0.9677
-7.5970 1.9185 -2.4169 0.9677
-7.6173 1.8237 -2.4160 0.9677
-7.6270 1.7763 -2.4156 0.9678
-7.6364 1.7287 -2.4151 0.9678
-7.6455 1.6812 -2.4147 0.9678
-7.6543 1.6335 -2.4142 0.9678
-7.6629 1.5859 -2.4138 0.9678
-7.6711 1.5382 -2.4133 0.9678
-7.6867 1.4427 -2.4124 0.9678
-7.7078 1.2991 -2.4111 0.9678
-7.7262 1.1552 -2.4097 0.9678
-7.7317 1.1072 -2.4093 0.9678
-7.7465 0.9630 -2.4079 0.9679
-7.7509 0.9149 -2.4074 0.9679
