ply
format ascii 1.0
element vertex 1555
property float32 x
property float32 y
property float32 z
property float32 I
end_header
-13.4198 -6.0014 -2.3442 0.9422
-13.3357 -6.1629 -2.3427 0.9422
-13.2497 -6.3232 -2.3411 0.9423
-13.1618 -6.4823 -2.3396 0.9423
-13.0266 -6.7188 -2.3373 0.9424
-12.8399 -7.0299 -2.3343 0.9424
-12.6951 -7.2600 -2.3321 0.9425
-12.6460 -7.3360 -2.3313 0.9425
-12.5965 -7.4118 -2.3306 0.9425
-12.5465 -7.4872 -2.3299 0.9425
-12.4452 -7.6370 -2.3284 0.9426
-12.3939 -7.7114 -2.3277 0.9426
-12.3421 -7.7856 -2.3270 0.9426
-12.1310 -8.0786 -2.3242 0.9427
-12.0772 -8.1510 -2.3235 0.9427
-12.0229 -8.2231 -2.3228 0.9427
-11.9683 -8.2948 -2.3221 0.9427
-11.9132 -8.3662 -2.3214 0.9427
-11.8577 -8.4372 -2.3207 0.9428
-11.7455 -8.5782 -2.3193 0.9428
-11.6889 -8.6481 -2.3186 0.9428
-11.5743 -8.7869 -2.3173 0.9428
-11.3995 -8.9924 -2.3153 0.9429
-11.2810 -9.1275 -2.3140 0.9429
-11.1004 -9.3274 -2.3121 0.9430
-11.0395 -9.3933 -2.3114 0.9430
-10.7920 -9.6529 -2.3089 0.9430
-10.6026 -9.8436 -2.3071 0.9431
-10.4745 -9.9688 -2.3058 0.9431
-10.2798 -10.1534 -2.3040 0.9432
-10.0153 -10.3941 -2.3017 0.9432
-9.6773 -10.6855 -2.2989 0.9433
-9.5398 -10.7993 -2.2978 0.9433
-9.2610 -11.0215 -2.2956 0.9434
-9.1906 -11.0760 -2.2951 0.9434
-9.1198 -11.1301 -2.2946 0.9434
-8.9774 -11.2370 -2.2935 0.9434
-8.6890 -11.4454 -2.2915 0.9435
-8.6162 -11.4964 -2.2910 0.9435
-8.5431 -11.5470 -2.2905 0.9435
-7.9484 -11.9356 -2.2867 0.9436
-7.8729 -11.9821 -2.2863 0.9436
-7.7971 -12.0282 -2.2858 0.9436
-7.7211 -12.0738 -2.2854 0.9436
-7.6448 -12.1190 -2.2849 0.9436
-7.5682 -12.1637 -2.2845 0.9436
-7.4914 -12.2080 -2.2840 0.9436
-7.4144 -12.2518 -2.2836 0.9436
-7.1039 -12.4223 -2.2819 0.9437
-6.9472 -12.5049 -2.2811 0.9437
-6.7897 -12.5855 -2.2803 0.9437
-6.4720 -12.7410 -2.2788 0.9438
-6.2315 -12.8527 -2.2777 0.9438
-5.9892 -12.9601 -2.2767 0.9438
-5.8268 -13.0293 -2.2760 0.9438
-5.5816 -13.1294 -2.2750 0.9439
-5.4995 -13.1619 -2.2747 0.9439
-5.4173 -13.1938 -2.2744 0.9439
-5.3349 -13.2253 -2.2741 0.9439
-5.2523 -13.2562 -2.2738 0.9439
-5.1695 -13.2867 -2.2735 0.9439
-4.9202 -13.3751 -2.2726 0.9439
-4.8368 -13.4036 -2.2723 0.9439
-4.7532 -13.4317 -2.2720 0.9439
-4.5857 -13.4862 -2.2715 0.9439
-4.2488 -13.5894 -2.2705 0.9440
-4.1642 -13.6139 -2.2702 0.9440
-3.9947 -13.6616 -2.2697 0.9440
-3.9097 -13.6846 -2.2695 0.9440
-3.8247 -13.7071 -2.2693 0.9440
-3.5687 -13.7718 -2.2686 0.9440
-3.4831 -13.7923 -2.2684 0.9440
-3.3975 -13.8124 -2.2682 0.9440
-3.2258 -13.8510 -2.2678 0.9440
-3.1398 -13.8696 -2.2677 0.9440
-3.0538 -13.8876 -2.2675 0.9440
-2.6220 -13.9702 -2.2666 0.9441
-2.5354 -13.9852 -2.2665 0.9441
-2.4487 -13.9997 -2.2663 0.9441
-2.3619 -14.0137 -2.2662 0.9441
-2.0141 -14.0646 -2.2657 0.9441
-1.9270 -14.0760 -2.2655 0.9441
-1.8398 -14.0870 -2.2654 0.9441
-1.7526 -14.0974 -2.2653 0.9441
-1.3156 -14.1419 -2.2649 0.9441
-1.2281 -14.1493 -2.2648 0.9441
-1.1405 -14.1561 -2.2647 0.9441
-0.8776 -14.1736 -2.2645 0.9441
-0.7899 -14.1784 -2.2644 0.9441
-0.7022 -14.1827 -2.2644 0.9441
-0.5268 -14.1898 -2.2643 0.9441
-0.4390 -14.1926 -2.2643 0.9441
-0.3512 -14.1948 -2.2642 0.9441
-0.1756 -14.1978 -2.2642 0.9441
-0.0878 -14.1985 -2.2642 0.9441
0.0000 -14.1987 -2.2642 0.9441
0.0878 -14.1984 -2.2642 0.9441
0.1756 -14.1976 -2.2642 0.9441
0.4390 -14.1920 -2.2642 0.9441
0.5267 -14.1892 -2.2642 0.9441
0.7899 -14.1775 -2.2643 0.9441
0.8776 -14.1726 -2.2643 0.9441
1.0529 -14.1612 -2.2644 0.9441
1.3155 -14.1403 -2.2646 0.9441
1.7523 -14.0953 -2.2650 0.9441
1.8395 -14.0848 -2.2651 0.9441
1.9267 -14.0737 -2.2652 0.9441
2.1008 -14.0501 -2.2654 0.9441
2.2746 -14.0245 -2.2656 0.9441
2.3614 -14.0109 -2.2657 0.9441
2.4482 -13.9968 -2.2659 0.9441
2.6214 -13.9671 -2.2661 0.9441
2.7079 -13.9515 -2.2663 0.9441
2.9669 -13.9016 -2.2667 0.9440
3.0530 -13.8840 -2.2669 0.9440
3.2250 -13.8472 -2.2672 0.9440
3.3108 -13.8281 -2.2674 0.9440
3.5676 -13.7677 -2.2679 0.9440
3.9085 -13.6800 -2.2688 0.9440
3.9933 -13.6569 -2.2690 0.9440
4.0781 -13.6332 -2.2692 0.9440
4.2473 -13.5845 -2.2696 0.9440
4.3316 -13.5593 -2.2699 0.9440
4.4159 -13.5337 -2.2701 0.9440
4.5839 -13.4810 -2.2706 0.9440
4.6677 -13.4538 -2.2708 0.9440
4.7514 -13.4262 -2.2711 0.9439
4.8349 -13.3981 -2.2714 0.9439
5.0014 -13.3404 -2.2719 0.9439
5.0844 -13.3109 -2.2722 0.9439
5.1673 -13.2808 -2.2725 0.9439
5.2500 -13.2503 -2.2727 0.9439
5.3325 -13.2193 -2.2730 0.9439
5.4148 -13.1877 -2.2733 0.9439
5.7424 -13.0568 -2.2746 0.9439
6.1478 -12.8822 -2.2762 0.9438
6.2283 -12.8459 -2.2765 0.9438
6.6276 -12.6571 -2.2783 0.9438
6.7068 -12.6179 -2.2787 0.9438
6.9432 -12.4975 -2.2798 0.9437
7.0215 -12.4564 -2.2802 0.9437
7.3326 -12.2875 -2.2818 0.9437
7.4098 -12.2441 -2.2822 0.9437
7.4867 -12.2002 -2.2826 0.9437
7.5634 -12.1559 -2.2830 0.9437
7.8677 -11.9741 -2.2847 0.9436
7.9431 -11.9276 -2.2852 0.9436
8.0931 -11.8330 -2.2861 0.9436
8.2422 -11.7367 -2.2870 0.9436
8.5369 -11.5386 -2.2888 0.9435
8.8990 -11.2812 -2.2913 0.9435
9.0418 -11.1752 -2.2923 0.9434
9.1834 -11.0673 -2.2933 0.9434
9.2538 -11.0129 -2.2938 0.9434
9.4630 -10.8467 -2.2954 0.9434
9.6694 -10.6768 -2.2970 0.9433
9.8053 -10.5614 -2.2981 0.9433
9.8728 -10.5031 -2.2986 0.9433
10.0733 -10.3257 -2.3003 0.9432
10.2708 -10.1446 -2.3020 0.9432
10.4008 -10.0218 -2.3032 0.9432
10.4652 -9.9599 -2.3038 0.9432
10.5931 -9.8348 -2.3050 0.9431
10.6564 -9.7716 -2.3056 0.9431
10.7822 -9.6442 -2.3068 0.9431
10.8445 -9.5798 -2.3074 0.9431
10.9064 -9.5151 -2.3080 0.9431
11.0292 -9.3845 -2.3093 0.9430
11.2702 -9.1188 -2.3118 0.9430
11.3296 -9.0514 -2.3124 0.9430
11.3885 -8.9837 -2.3131 0.9429
11.5630 -8.7783 -2.3150 0.9429
11.7339 -8.5696 -2.3170 0.9428
11.7900 -8.4993 -2.3177 0.9428
12.0648 -8.1426 -2.3211 0.9427
12.1186 -8.0703 -2.3218 0.9427
12.1718 -7.9975 -2.3225 0.9427
12.5830 -7.4039 -2.3281 0.9426
12.7301 -7.1759 -2.3303 0.9425
12.7782 -7.0992 -2.3310 0.9425
13.1472 -6.4751 -2.3370 0.9424
13.1912 -6.3957 -2.3377 0.9423
13.2349 -6.3161 -2.3385 0.9423
13.4046 -5.9946 -2.3416 0.9423
13.5668 -5.6688 -2.3447 0.9422
13.6061 -5.5866 -2.3455 0.9422
13.6834 -5.4216 -2.3470 0.9421
13.7213 -5.3386 -2.3478 0.9421
13.7956 -5.1720 -2.3494 0.9421
13.8679 -5.0044 -2.3510 0.9420
13.9383 -4.8358 -2.3526 0.9420
14.0067 -4.6663 -2.3542 0.9420
14.1997 -4.1521 -2.3592 0.9418
14.3182 -3.8049 -2.3625 0.9418
14.3466 -3.7177 -2.3633 0.9417
14.3744 -3.6301 -2.3642 0.9417
14.4016 -3.5424 -2.3650 0.9417
14.4284 -3.4546 -2.3658 0.9417
14.4546 -3.3665 -2.3667 0.9417
14.5055 -3.1897 -2.3684 0.9416
14.5302 -3.1010 -2.3692 0.9416
14.5779 -2.9232 -2.3709 0.9416
14.6009 -2.8340 -2.3718 0.9415
14.6669 -2.5654 -2.3743 0.9415
14.7082 -2.3855 -2.3761 0.9414
14.7280 -2.2954 -2.3769 0.9414
14.8018 -1.9332 -2.3804 0.9413
14.8354 -1.7513 -2.3821 0.9413
14.8514 -1.6601 -2.3830 0.9413
14.8817 -1.4773 -2.3848 0.9412
14.8961 -1.3858 -2.3856 0.9412
14.9231 -1.2024 -2.3874 0.9412
14.9478 -1.0184 -2.3892 0.9411
14.9594 -0.9263 -2.3900 0.9411
14.9705 -0.8340 -2.3909 0.9411
15.0000 -0.5568 -2.3936 0.9410
15.0168 -0.3716 -2.3954 0.9410
15.0244 -0.2788 -2.3963 0.9409
15.0378 -0.0930 -2.3980 0.9409
15.0437 -0.0000 -2.3989 0.9409
15.0538 0.1862 -2.4007 0.9408
15.0615 0.3726 -2.4025 0.9408
15.0645 0.4660 -2.4034 0.9408
15.0670 0.5593 -2.4043 0.9408
15.0701 0.7462 -2.4061 0.9407
15.0709 0.8397 -2.4070 0.9407
15.0710 0.9332 -2.4079 0.9407
15.0706 1.0268 -2.4088 0.9406
15.0557 1.5887 -2.4142 0.9405
15.0513 1.6824 -2.4151 0.9405
15.0461 1.7761 -2.4160 0.9405
15.0342 1.9635 -2.4178 0.9404
15.0200 2.1509 -2.4196 0.9404
15.0034 2.3382 -2.4214 0.9403
14.9942 2.4319 -2.4223 0.9403
14.9844 2.5255 -2.4232 0.9403
14.9631 2.7126 -2.4250 0.9403
14.9268 2.9931 -2.4277 0.9402
14.8852 3.2731 -2.4304 0.9401
14.8545 3.4596 -2.4322 0.9401
14.8383 3.5526 -2.4330 0.9401
14.8041 3.7386 -2.4348 0.9400
14.7861 3.8315 -2.4357 0.9400
14.7676 3.9243 -2.4366 0.9400
14.6438 4.4793 -2.4420 0.9399
14.6212 4.5714 -2.4428 0.9398
14.5741 4.7553 -2.4446 0.9398
14.5496 4.8471 -2.4455 0.9398
14.4990 5.0303 -2.4473 0.9397
14.4187 5.3041 -2.4499 0.9397
14.3035 5.6672 -2.4534 0.9396
14.2424 5.8478 -2.4551 0.9395
14.2110 5.9379 -2.4560 0.9395
14.1464 6.1175 -2.4577 0.9395
8.1751 3.9014 -1.4445 0.9640
8.1505 3.9517 -1.4444 0.9640
8.1013 4.0524 -1.4445 0.9640
8.0767 4.1027 -1.4446 0.9640
8.0028 4.2538 -1.4452 0.9640
7.9782 4.3042 -1.4456 0.9639
7.9536 4.3546 -1.4460 0.9639
7.9289 4.4051 -1.4464 0.9639
7.9042 4.4555 -1.4469 0.9639
7.8796 4.5060 -1.4475 0.9639
7.7806 4.7086 -1.4502 0.9638
7.7309 4.8102 -1.4520 0.9638
7.6811 4.9120 -1.4539 0.9637
7.6312 5.0142 -1.4561 0.9637
7.5309 5.2194 -1.4611 0.9636
7.4298 5.4262 -1.4671 0.9634
7.4044 5.4782 -1.4688 0.9634
7.3789 5.5303 -1.4705 0.9633
7.3534 5.5825 -1.4722 0.9633
7.3022 5.6873 -1.4759 0.9632
7.2507 5.7927 -1.4799 0.9631
7.1729 5.9519 -1.4863 0.9630
7.1206 6.0587 -1.4909 0.9628
7.0943 6.1125 -1.4933 0.9628
7.0680 6.1663 -1.4957 0.9627
6.9884 6.3291 -1.5035 0.9625
6.9618 6.3837 -1.5062 0.9625
6.9349 6.4385 -1.5090 0.9624
6.8810 6.5488 -1.5148 0.9623
10.4680 10.3393 -2.3462 0.9421
10.4067 10.4067 -2.3469 0.9421
10.2232 10.6097 -2.3495 0.9421
10.0964 10.7409 -2.3507 0.9420
10.0324 10.8059 -2.3513 0.9420
9.9679 10.8705 -2.3519 0.9420
9.8377 10.9986 -2.3531 0.9420
8.4503 9.6860 -2.0498 0.9493
9.1961 10.9442 -2.2795 0.9437
9.0821 10.9453 -2.2680 0.9440
9.2999 11.4942 -2.3577 0.9419
9.2309 11.5542 -2.3583 0.9419
8.9506 11.7899 -2.3605 0.9418
8.8795 11.8477 -2.3610 0.9418
8.8081 11.9051 -2.3615 0.9418
8.6640 12.0185 -2.3626 0.9418
8.5914 12.0745 -2.3631 0.9417
8.4451 12.1852 -2.3641 0.9417
8.3716 12.2402 -2.3647 0.9417
8.2235 12.3486 -2.3658 0.9417
8.0739 12.4552 -2.3669 0.9416
7.9986 12.5077 -2.3675 0.9416
7.9229 12.5598 -2.3680 0.9416
7.8468 12.6114 -2.3686 0.9416
7.6937 12.7132 -2.3696 0.9416
7.5392 12.8130 -2.3707 0.9416
7.3833 12.9108 -2.3717 0.9415
6.9828 12.9433 -2.3452 0.9422
6.6812 12.9538 -2.3242 0.9427
6.5913 12.9758 -2.3208 0.9428
6.5061 13.0067 -2.3191 0.9428
6.4211 13.0376 -2.3175 0.9428
6.3361 13.0684 -2.3160 0.9429
6.2513 13.0993 -2.3145 0.9429
6.1000 13.1997 -2.3188 0.9428
5.6810 12.4955 -2.1888 0.9459
5.4035 12.0828 -2.1107 0.9478
5.2451 12.1289 -2.1072 0.9479
5.1344 12.0773 -2.0927 0.9482
5.0251 12.0264 -2.0785 0.9486
4.8111 11.9267 -2.0508 0.9492
4.6417 11.7151 -2.0094 0.9502
4.5559 11.7094 -2.0036 0.9504
4.4858 11.7437 -2.0047 0.9504
4.4038 11.7466 -2.0005 0.9505
4.2409 11.7522 -1.9923 0.9507
4.1599 11.7550 -1.9884 0.9507
3.3741 9.9230 -1.6713 0.9584
3.1620 10.1133 -1.6897 0.9580
3.0788 10.2924 -1.7131 0.9574
3.0363 10.3838 -1.7252 0.9571
2.9932 10.4764 -1.7375 0.9568
2.8600 10.7624 -1.7758 0.9559
2.6690 10.8506 -1.7819 0.9557
2.5891 10.8138 -1.7731 0.9560
2.5100 10.7773 -1.7646 0.9562
2.1018 9.2842 -1.5180 0.9622
1.9713 9.2366 -1.5061 0.9625
1.8572 9.2620 -1.5064 0.9625
1.6856 9.2979 -1.5068 0.9624
1.5309 9.4392 -1.5249 0.9620
1.4861 9.5355 -1.5389 0.9617
1.4508 9.7027 -1.5644 0.9610
1.2578 10.1171 -1.6257 0.9595
1.1554 10.3366 -1.6586 0.9587
0.9551 10.2664 -1.6442 0.9591
0.8884 10.2350 -1.6382 0.9592
0.8221 10.2038 -1.6324 0.9594
0.6910 10.1420 -1.6210 0.9597
0.6261 10.1114 -1.6155 0.9598
0.4251 8.5852 -1.3707 0.9658
0.3741 8.6372 -1.3786 0.9656
0.3246 8.7432 -1.3952 0.9652
0.2774 8.9670 -1.4306 0.9643
0.1101 8.9026 -1.4198 0.9646
-0.0000 9.2275 -1.4715 0.9633
-0.3055 9.8781 -1.5759 0.9608
-0.5107 10.3150 -1.6469 0.9590
-0.6582 10.6290 -1.6982 0.9578
-0.7354 10.7929 -1.7251 0.9571
-0.8027 10.7961 -1.7263 0.9571
-0.9318 10.7358 -1.7184 0.9573
-1.0598 10.6760 -1.7108 0.9575
-1.1867 10.6169 -1.7036 0.9577
-1.2498 10.5876 -1.7001 0.9577
-1.3040 9.9847 -1.6057 0.9600
-1.3694 9.5623 -1.5404 0.9616
-1.3727 9.1807 -1.4803 0.9631
-1.4310 9.1821 -1.4819 0.9631
-1.5269 9.0593 -1.4650 0.9635
-1.5740 8.9990 -1.4568 0.9637
-1.6667 8.8803 -1.4408 0.9641
-1.7513 8.7337 -1.4204 0.9646
-1.8161 8.7751 -1.4290 0.9644
-1.9311 8.7822 -1.4339 0.9642
-2.0854 8.7101 -1.4282 0.9644
-2.1302 8.6602 -1.4221 0.9645
-2.1876 8.6624 -1.4247 0.9645
-2.2385 8.6387 -1.4230 0.9645
-2.3400 8.5912 -1.4199 0.9646
-2.4411 8.5441 -1.4170 0.9646
-2.5096 8.3896 -1.3964 0.9652
-2.5796 8.4334 -1.4063 0.9649
-2.6954 8.4373 -1.4124 0.9648
-2.7536 8.4393 -1.4156 0.9647
-2.8122 8.4412 -1.4188 0.9646
-2.9893 8.4472 -1.4289 0.9644
-3.0986 8.4233 -1.4312 0.9643
-3.2371 8.6346 -1.4705 0.9633
-3.3798 8.6868 -1.4864 0.9629
-3.4604 8.7336 -1.4980 0.9627
-3.5284 8.7469 -1.5040 0.9625
-4.0763 9.2685 -1.6146 0.9598
-4.5406 10.1534 -1.7736 0.9559
-6.1757 13.5834 -2.3794 0.9414
-6.2586 13.5428 -2.3790 0.9414
-6.3411 13.5016 -2.3787 0.9414
-6.5055 13.4176 -2.3779 0.9414
-6.5872 13.3749 -2.3774 0.9414
-6.9913 13.1531 -2.3753 0.9414
-7.2301 13.0139 -2.3740 0.9415
-4.5607 7.6425 -1.4192 0.9646
-4.5853 7.5769 -1.4123 0.9648
-4.7145 7.4738 -1.4091 0.9648
-4.7978 7.5026 -1.4201 0.9646
-4.8824 7.5318 -1.4313 0.9643
-4.9683 7.5615 -1.4428 0.9640
-8.3046 12.3047 -2.3672 0.9416
-8.3787 12.2504 -2.3667 0.9417
-8.5257 12.1404 -2.3657 0.9417
-8.5987 12.0847 -2.3651 0.9417
-8.7435 11.9720 -2.3640 0.9417
-8.9579 11.7995 -2.3624 0.9418
-9.0285 11.7411 -2.3618 0.9418
-9.2381 11.5632 -2.3601 0.9418
-9.3072 11.5030 -2.3595 0.9418
-9.3758 11.4424 -2.3590 0.9418
-9.5793 11.2581 -2.3572 0.9419
-9.6463 11.1958 -2.3566 0.9419
-9.7129 11.1331 -2.3560 0.9419
-9.7790 11.0700 -2.3554 0.9419
-9.9100 10.9425 -2.3542 0.9420
-9.9749 10.8780 -2.3535 0.9420
-10.0393 10.8134 -2.3529 0.9420
-10.1033 10.7482 -2.3523 0.9420
-10.1668 10.6827 -2.3517 0.9420
-10.2299 10.6167 -2.3510 0.9420
-10.3548 10.4836 -2.3498 0.9421
-10.4779 10.3491 -2.3485 0.9421
-10.5388 10.2812 -2.3478 0.9421
-10.5992 10.2130 -2.3471 0.9421
-10.6593 10.1445 -2.3465 0.9421
-10.7188 10.0755 -2.3458 0.9422
-10.8946 9.8666 -2.3439 0.9422
-11.1225 9.5831 -2.3412 0.9423
-11.2336 9.4392 -2.3398 0.9423
-11.3428 9.2941 -2.3384 0.9423
-11.3966 9.2210 -2.3377 0.9423
-11.5029 9.0739 -2.3363 0.9424
-11.5553 8.9999 -2.3356 0.9424
-11.6073 8.9255 -2.3349 0.9424
-11.6587 8.8509 -2.3342 0.9424
-11.7601 8.7007 -2.3328 0.9425
-11.8100 8.6251 -2.3320 0.9425
-12.7157 9.0476 -2.4886 0.9387
-12.8186 8.8840 -2.4870 0.9388
-12.8692 8.8018 -2.4862 0.9388
-12.9193 8.7193 -2.4855 0.9388
-12.9689 8.6365 -2.4847 0.9388
-13.0663 8.4700 -2.4831 0.9389
-13.1142 8.3864 -2.4823 0.9389
-13.1616 8.3024 -2.4815 0.9389
-13.2084 8.2182 -2.4807 0.9389
-13.3455 7.9639 -2.4783 0.9390
-13.3901 7.8787 -2.4774 0.9390
-13.4342 7.7932 -2.4766 0.9390
-13.4777 7.7074 -2.4758 0.9390
-13.5630 7.5351 -2.4742 0.9391
-13.6047 7.4486 -2.4733 0.9391
-13.6460 7.3619 -2.4725 0.9391
-13.7267 7.1877 -2.4708 0.9392
-13.7663 7.1002 -2.4700 0.9392
-13.8436 6.9247 -2.4683 0.9392
-13.8815 6.8367 -2.4675 0.9392
-13.9554 6.6599 -2.4658 0.9393
-13.9915 6.5712 -2.4650 0.9393
-14.0270 6.4823 -2.4641 0.9393
-14.0620 6.3932 -2.4633 0.9393
-14.0964 6.3039 -2.4624 0.9394
-14.1302 6.2145 -2.4615 0.9394
-14.2281 5.9451 -2.4590 0.9395
-14.2596 5.8549 -2.4581 0.9395
-14.2905 5.7646 -2.4572 0.9395
-14.3506 5.5835 -2.4555 0.9395
-14.4084 5.4017 -2.4538 0.9396
-14.4364 5.3106 -2.4529 0.9396
-14.4638 5.2194 -2.4520 0.9396
-14.6160 4.6692 -2.4468 0.9397
-14.6393 4.5770 -2.4459 0.9398
-14.6620 4.4848 -2.4450 0.9398
-14.6842 4.3925 -2.4441 0.9398
-14.7057 4.3000 -2.4432 0.9398
-14.7267 4.2075 -2.4423 0.9398
-14.7861 3.9293 -2.4397 0.9399
-14.8227 3.7433 -2.4379 0.9400
-14.8889 3.3706 -2.4343 0.9400
-14.9040 3.2773 -2.4334 0.9401
-14.9457 2.9969 -2.4307 0.9401
-14.9585 2.9033 -2.4298 0.9401
-14.9706 2.8097 -2.4289 0.9402
-14.9822 2.7161 -2.4281 0.9402
-14.9931 2.6224 -2.4272 0.9402
-15.0225 2.3412 -2.4245 0.9403
-15.0466 2.0598 -2.4218 0.9403
-15.0534 1.9660 -2.4209 0.9404
-15.0705 1.6846 -2.4182 0.9404
-15.0823 1.4031 -2.4155 0.9405
-15.0872 1.2155 -2.4137 0.9405
-15.0903 0.9344 -2.4110 0.9406
-15.0895 0.7471 -2.4092 0.9406
-15.0838 0.4665 -2.4065 0.9407
-15.0772 0.2797 -2.4047 0.9407
-15.0683 0.0931 -2.4029 0.9408
-14.3753 -0.0000 -2.4019 0.9434
-14.3171 -0.7089 -2.3951 0.9435
-14.2862 -0.9734 -2.3926 0.9436
-14.2630 -1.1492 -2.3909 0.9436
-14.2102 -1.4995 -2.3875 0.9437
-14.1957 -1.5868 -2.3867 0.9437
-14.1650 -1.7610 -2.3850 0.9438
-14.1489 -1.8479 -2.3842 0.9438
-14.1151 -2.0214 -2.3825 0.9438
-14.0974 -2.1079 -2.3817 0.9438
-14.0412 -2.3666 -2.3792 0.9439
-13.9589 -2.7094 -2.3759 0.9440
-13.9371 -2.7947 -2.3751 0.9440
-13.9148 -2.8798 -2.3742 0.9440
-13.7954 -3.3030 -2.3702 0.9441
-13.7700 -3.3871 -2.3693 0.9441
-13.7440 -3.4710 -2.3685 0.9441
-13.7176 -3.5547 -2.3677 0.9442
-13.6907 -3.6382 -2.3669 0.9442
-13.6634 -3.7216 -2.3661 0.9442
-13.6354 -3.8047 -2.3653 0.9442
-13.6071 -3.8876 -2.3645 0.9442
-13.5782 -3.9704 -2.3637 0.9442
-13.4886 -4.2173 -2.3614 0.9443
-13.4578 -4.2992 -2.3606 0.9443
-13.3946 -4.4624 -2.3590 0.9444
-13.3624 -4.5436 -2.3582 0.9444
-13.1937 -4.9464 -2.3543 0.9445
-13.0869 -5.1853 -2.3520 0.9445
-13.0503 -5.2644 -2.3513 0.9445
-12.9758 -5.4219 -2.3497 0.9446
-12.8995 -5.5783 -2.3482 0.9446
-12.7006 -5.9650 -2.3445 0.9447
-12.4906 -6.3449 -2.3408 0.9448
-12.4473 -6.4200 -2.3401 0.9448
-12.4035 -6.4948 -2.3394 0.9448
-12.3593 -6.5694 -2.3387 0.9448
-12.3146 -6.6437 -2.3379 0.9448
-12.2696 -6.7176 -2.3372 0.9449
-12.1781 -6.8647 -2.3358 0.9449
-12.1318 -6.9378 -2.3351 0.9449
-12.0378 -7.0830 -2.3337 0.9449
-11.7955 -7.4408 -2.3302 0.9450
-11.7459 -7.5114 -2.3296 0.9450
-11.6958 -7.5817 -2.3289 0.9450
-11.5431 -7.7906 -2.3269 0.9451
-11.4914 -7.8596 -2.3262 0.9451
-11.4393 -7.9282 -2.3255 0.9451
-11.3339 -8.0645 -2.3242 0.9451
-11.2270 -8.1995 -2.3229 0.9452
-11.1185 -8.3330 -2.3216 0.9452
-11.0086 -8.4653 -2.3203 0.9452
-10.9530 -8.5308 -2.3197 0.9453
-10.8408 -8.6609 -2.3184 0.9453
-10.7270 -8.7896 -2.3172 0.9453
-10.6696 -8.8535 -2.3166 0.9453
-10.5537 -8.9800 -2.3153 0.9454
-10.4952 -9.0427 -2.3147 0.9454
-10.3772 -9.1670 -2.3135 0.9454
-10.3176 -9.2287 -2.3129 0.9454
-10.0759 -9.4714 -2.3106 0.9455
-10.0146 -9.5311 -2.3100 0.9455
-9.9531 -9.5905 -2.3094 0.9455
-9.8911 -9.6495 -2.3088 0.9455
-9.8288 -9.7080 -2.3083 0.9455
-9.7033 -9.8241 -2.3072 0.9455
-9.6400 -9.8815 -2.3066 0.9456
-9.5764 -9.9385 -2.3060 0.9456
-9.5125 -9.9952 -2.3055 0.9456
-9.4482 -10.0515 -2.3049 0.9456
-9.3837 -10.1073 -2.3044 0.9456
-9.2537 -10.2178 -2.3033 0.9456
-9.1881 -10.2724 -2.3028 0.9456
-9.1224 -10.3267 -2.3023 0.9457
-9.0563 -10.3806 -2.3017 0.9457
-8.9232 -10.4871 -2.3007 0.9457
-8.7889 -10.5919 -2.2997 0.9457
-8.7213 -10.6438 -2.2992 0.9457
-8.5168 -10.7967 -2.2977 0.9458
-8.4481 -10.8469 -2.2972 0.9458
-8.3098 -10.9460 -2.2962 0.9458
-8.2402 -10.9948 -2.2958 0.9458
-8.1003 -11.0914 -2.2948 0.9458
-8.0299 -11.1390 -2.2944 0.9458
-7.6741 -11.3707 -2.2921 0.9459
-7.6022 -11.4158 -2.2917 0.9459
-7.5301 -11.4604 -2.2912 0.9459
-7.3121 -11.5916 -2.2899 0.9459
-7.1655 -11.6769 -2.2891 0.9460
-6.9440 -11.8015 -2.2879 0.9460
-6.8697 -11.8422 -2.2875 0.9460
-6.7951 -11.8824 -2.2871 0.9460
-6.7204 -11.9222 -2.2867 0.9460
-6.6454 -11.9615 -2.2863 0.9460
-6.5702 -12.0004 -2.2859 0.9460
-6.3433 -12.1143 -2.2848 0.9461
-6.2673 -12.1513 -2.2845 0.9461
-6.1146 -12.2241 -2.2837 0.9461
-6.0380 -12.2598 -2.2834 0.9461
-5.9611 -12.2951 -2.2831 0.9461
-5.8841 -12.3298 -2.2827 0.9461
-5.8069 -12.3641 -2.2824 0.9461
-5.7295 -12.3980 -2.2820 0.9461
-5.6519 -12.4314 -2.2817 0.9461
-5.4961 -12.4968 -2.2811 0.9461
-5.3397 -12.5604 -2.2804 0.9462
-5.2612 -12.5915 -2.2801 0.9462
-5.1825 -12.6221 -2.2798 0.9462
-5.1037 -12.6523 -2.2795 0.9462
-4.8663 -12.7400 -2.2787 0.9462
-4.6274 -12.8234 -2.2778 0.9462
-4.3872 -12.9026 -2.2771 0.9462
-4.2264 -12.9530 -2.2766 0.9462
-4.1458 -12.9775 -2.2763 0.9462
-3.8219 -13.0708 -2.2754 0.9463
-3.5778 -13.1357 -2.2747 0.9463
-3.4962 -13.1563 -2.2745 0.9463
-3.2506 -13.2155 -2.2739 0.9463
-3.1686 -13.2343 -2.2738 0.9463
-2.9218 -13.2876 -2.2732 0.9463
-2.8394 -13.3044 -2.2730 0.9463
-2.6742 -13.3366 -2.2727 0.9463
-2.5915 -13.3520 -2.2726 0.9463
-2.5087 -13.3669 -2.2724 0.9463
-2.2599 -13.4086 -2.2720 0.9463
-2.1768 -13.4216 -2.2719 0.9464
-2.0937 -13.4340 -2.2717 0.9464
-2.0104 -13.4459 -2.2716 0.9464
-1.7604 -13.4789 -2.2713 0.9464
-1.5098 -13.5075 -2.2710 0.9464
-1.4262 -13.5160 -2.2709 0.9464
-1.3425 -13.5240 -2.2708 0.9464
-1.2588 -13.5316 -2.2707 0.9464
-1.1751 -13.5387 -2.2706 0.9464
-1.0075 -13.5513 -2.2705 0.9464
-0.9236 -13.5570 -2.2704 0.9464
-0.8398 -13.5621 -2.2704 0.9464
-0.7559 -13.5667 -2.2703 0.9464
-0.5880 -13.5744 -2.2702 0.9464
-0.5040 -13.5776 -2.2702 0.9464
-0.4200 -13.5803 -2.2702 0.9464
-0.3360 -13.5824 -2.2701 0.9464
-0.2520 -13.5840 -2.2701 0.9464
-0.0840 -13.5860 -2.2701 0.9464
0.0000 -13.5862 -2.2701 0.9464
0.3361 -13.5820 -2.2701 0.9464
0.4201 -13.5798 -2.2701 0.9464
0.5040 -13.5770 -2.2701 0.9464
0.6719 -13.5700 -2.2701 0.9464
0.8397 -13.5611 -2.2702 0.9464
1.0912 -13.5440 -2.2703 0.9464
1.1750 -13.5374 -2.2704 0.9464
1.2587 -13.5302 -2.2705 0.9464
1.4261 -13.5144 -2.2706 0.9464
1.5097 -13.5057 -2.2707 0.9464
1.7601 -13.4769 -2.2709 0.9464
1.8435 -13.4663 -2.2710 0.9464
1.9268 -13.4552 -2.2711 0.9464
2.1764 -13.4191 -2.2714 0.9464
2.2595 -13.4061 -2.2716 0.9464
2.3425 -13.3925 -2.2717 0.9464
2.4254 -13.3785 -2.2718 0.9464
2.5082 -13.3640 -2.2719 0.9463
2.5910 -13.3491 -2.2721 0.9463
2.6737 -13.3336 -2.2722 0.9463
2.9211 -13.2843 -2.2727 0.9463
3.0034 -13.2669 -2.2728 0.9463
3.0856 -13.2490 -2.2730 0.9463
3.1678 -13.2307 -2.2731 0.9463
3.3317 -13.1925 -2.2735 0.9463
3.4135 -13.1728 -2.2737 0.9463
3.5767 -13.1317 -2.2741 0.9463
3.7395 -13.0887 -2.2744 0.9463
3.8207 -13.0665 -2.2747 0.9463
3.9828 -13.0207 -2.2751 0.9463
4.0636 -12.9971 -2.2753 0.9463
4.3856 -12.8978 -2.2762 0.9463
4.4658 -12.8718 -2.2765 0.9462
4.6256 -12.8183 -2.2770 0.9462
4.8643 -12.7347 -2.2777 0.9462
5.2589 -12.5859 -2.2791 0.9462
5.3373 -12.5547 -2.2794 0.9462
5.4156 -12.5231 -2.2797 0.9462
5.5715 -12.4585 -2.2803 0.9462
5.6492 -12.4254 -2.2806 0.9461
5.7267 -12.3920 -2.2809 0.9461
5.8041 -12.3581 -2.2813 0.9461
5.8812 -12.3237 -2.2816 0.9461
6.0349 -12.2535 -2.2822 0.9461
6.1115 -12.2178 -2.2826 0.9461
6.1878 -12.1816 -2.2829 0.9461
6.2640 -12.1449 -2.2832 0.9461
6.3400 -12.1078 -2.2836 0.9461
6.4157 -12.0702 -2.2840 0.9461
6.4912 -12.0321 -2.2843 0.9461
6.5666 -11.9937 -2.2847 0.9461
6.7912 -11.8756 -2.2858 0.9460
6.8657 -11.8353 -2.2862 0.9460
7.0876 -11.7118 -2.2873 0.9460
7.1612 -11.6698 -2.2877 0.9460
7.3076 -11.5844 -2.2885 0.9460
7.5253 -11.4530 -2.2898 0.9459
7.5974 -11.4084 -2.2902 0.9459
7.7408 -11.3178 -2.2910 0.9459
8.0245 -11.1314 -2.2928 0.9459
8.2345 -10.9871 -2.2942 0.9458
8.3040 -10.9382 -2.2946 0.9458
8.4421 -10.8391 -2.2956 0.9458
8.5790 -10.7383 -2.2965 0.9458
8.6471 -10.6873 -2.2970 0.9458
8.7149 -10.6359 -2.2975 0.9458
8.7824 -10.5840 -2.2980 0.9458
8.9164 -10.4791 -2.2990 0.9457
9.1153 -10.3187 -2.3005 0.9457
9.2464 -10.2098 -2.3015 0.9457
9.6953 -9.8160 -2.3053 0.9456
9.7581 -9.7581 -2.3058 0.9456
9.8206 -9.6999 -2.3064 0.9456
9.8828 -9.6413 -2.3069 0.9455
9.9447 -9.5824 -2.3075 0.9455
10.0062 -9.5230 -2.3080 0.9455
10.1282 -9.4032 -2.3092 0.9455
10.1887 -9.3426 -2.3097 0.9455
10.3086 -9.2206 -2.3109 0.9455
10.3681 -9.1589 -2.3115 0.9454
10.4272 -9.0970 -2.3121 0.9454
10.4859 -9.0346 -2.3127 0.9454
10.6023 -8.9089 -2.3139 0.9454
10.7173 -8.7817 -2.3151 0.9454
10.7742 -8.7175 -2.3157 0.9453
10.8870 -8.5881 -2.3169 0.9453
10.9428 -8.5229 -2.3175 0.9453
11.0534 -8.3914 -2.3188 0.9453
11.1081 -8.3252 -2.3194 0.9453
11.1624 -8.2586 -2.3201 0.9452
11.2699 -8.1243 -2.3213 0.9452
11.3231 -8.0567 -2.3220 0.9452
11.3759 -7.9888 -2.3226 0.9452
11.5318 -7.7829 -2.3246 0.9451
11.6338 -7.6441 -2.3259 0.9451
11.7838 -7.4333 -2.3279 0.9451
11.9301 -7.2197 -2.3299 0.9450
12.1193 -6.9307 -2.3327 0.9450
12.1656 -6.8576 -2.3334 0.9449
12.2568 -6.7106 -2.3348 0.9449
12.3018 -6.6367 -2.3355 0.9449
12.3905 -6.4880 -2.3369 0.9449
12.4341 -6.4132 -2.3376 0.9448
12.5202 -6.2628 -2.3391 0.9448
12.6460 -6.0350 -2.3412 0.9448
12.6870 -5.9586 -2.3420 0.9447
12.9237 -5.4942 -2.3464 0.9446
13.0724 -5.1795 -2.3494 0.9446
13.1084 -5.1002 -2.3502 0.9446
13.1439 -5.0207 -2.3509 0.9445
13.2477 -4.7806 -2.3532 0.9445
13.2814 -4.7001 -2.3540 0.9445
13.3472 -4.5385 -2.3555 0.9444
13.3795 -4.4573 -2.3563 0.9444
13.4112 -4.3759 -2.3571 0.9444
13.4424 -4.2943 -2.3579 0.9444
13.4732 -4.2125 -2.3587 0.9444
13.5035 -4.1305 -2.3594 0.9443
13.5333 -4.0482 -2.3602 0.9443
13.5914 -3.8831 -2.3618 0.9443
13.6475 -3.7172 -2.3634 0.9443
13.6749 -3.6340 -2.3642 0.9442
13.7017 -3.5506 -2.3650 0.9442
13.7539 -3.3831 -2.3666 0.9442
13.7792 -3.2991 -2.3674 0.9442
13.8041 -3.2149 -2.3682 0.9441
13.8284 -3.1305 -2.3690 0.9441
13.8755 -2.9613 -2.3706 0.9441
13.8983 -2.8764 -2.3714 0.9441
13.9424 -2.7062 -2.3731 0.9440
13.9637 -2.6208 -2.3739 0.9440
14.0047 -2.4496 -2.3755 0.9440
14.0244 -2.3637 -2.3763 0.9440
14.0437 -2.2778 -2.3772 0.9439
14.0623 -2.1916 -2.3780 0.9439
14.0982 -2.0189 -2.3796 0.9439
14.1480 -1.7589 -2.3821 0.9438
14.1636 -1.6720 -2.3830 0.9438
14.1931 -1.4977 -2.3846 0.9438
14.2205 -1.3230 -2.3863 0.9437
14.2900 -0.7962 -2.3914 0.9436
14.3175 -0.5315 -2.3939 0.9436
14.3331 -0.3546 -2.3956 0.9435
14.3401 -0.2661 -2.3964 0.9435
14.3578 -0.0000 -2.3990 0.9434
14.3626 0.0888 -2.3998 0.9434
14.3707 0.2666 -2.4016 0.9434
14.3738 0.3556 -2.4024 0.9434
14.3765 0.4447 -2.4033 0.9433
14.3786 0.5337 -2.4041 0.9433
14.3815 0.8013 -2.4067 0.9433
14.3814 0.8905 -2.4075 0.9432
14.3778 1.1584 -2.4101 0.9432
14.3691 1.4264 -2.4127 0.9431
14.3606 1.6052 -2.4144 0.9431
14.3555 1.6946 -2.4153 0.9431
14.3217 2.1414 -2.4196 0.9430
14.3132 2.2307 -2.4204 0.9429
14.3042 2.3200 -2.4213 0.9429
14.2947 2.4093 -2.4221 0.9429
14.2845 2.4985 -2.4230 0.9429
14.2739 2.5877 -2.4238 0.9429
14.2626 2.6769 -2.4247 0.9428
14.2385 2.8551 -2.4264 0.9428
14.1835 3.2109 -2.4298 0.9427
14.1364 3.4771 -2.4324 0.9427
14.1021 3.6543 -2.4341 0.9426
14.0466 3.9194 -2.4366 0.9426
14.0068 4.0956 -2.4383 0.9425
13.8975 4.5346 -2.4426 0.9424
13.8740 4.6220 -2.4434 0.9424
13.7743 4.9706 -2.4468 0.9423
13.6937 5.2306 -2.4493 0.9423
13.6372 5.4033 -2.4509 0.9422
13.5176 5.7467 -2.4542 0.9422
13.4864 5.8321 -2.4551 0.9422
8.1994 3.8509 -1.5136 0.9639
8.1748 3.9012 -1.5135 0.9639
8.0026 4.2537 -1.5143 0.9639
7.9533 4.3545 -1.5150 0.9639
7.8793 4.5059 -1.5166 0.9639
7.8546 4.5565 -1.5172 0.9638
7.8299 4.6071 -1.5179 0.9638
7.7803 4.7084 -1.5195 0.9638
7.7555 4.7592 -1.5204 0.9638
7.7307 4.8100 -1.5213 0.9637
7.6560 4.9629 -1.5245 0.9637
7.6310 5.0140 -1.5256 0.9636
7.5809 5.1164 -1.5282 0.9636
7.5558 5.1678 -1.5295 0.9636
7.5307 5.2192 -1.5309 0.9635
7.5055 5.2708 -1.5324 0.9635
7.4802 5.3224 -1.5339 0.9635
7.4549 5.3742 -1.5355 0.9634
7.4296 5.4260 -1.5372 0.9634
7.4042 5.4780 -1.5389 0.9633
7.3787 5.5301 -1.5407 0.9633
7.3019 5.6871 -1.5464 0.9632
7.2504 5.7925 -1.5506 0.9631
7.2246 5.8454 -1.5528 0.9630
7.1726 5.9517 -1.5573 0.9629
7.0941 6.1123 -1.5646 0.9627
7.0678 6.1661 -1.5672 0.9627
7.0148 6.2744 -1.5725 0.9626
6.9882 6.3289 -1.5753 0.9625
6.9615 6.3835 -1.5782 0.9624
6.9078 6.4933 -1.5841 0.9623
10.0862 9.7187 -2.3403 0.9448
9.9705 9.8480 -2.3416 0.9448
9.9121 9.9121 -2.3422 0.9447
9.8532 9.9758 -2.3428 0.9447
9.7939 10.0392 -2.3434 0.9447
9.6764 10.1674 -2.3452 0.9447
9.6157 10.2296 -2.3458 0.9447
9.5547 10.2913 -2.3464 0.9446
9.3689 10.4744 -2.3481 0.9446
8.5710 9.7026 -2.1632 0.9489
9.1156 10.7131 -2.3503 0.9446
9.0513 10.7718 -2.3509 0.9445
8.9866 10.8301 -2.3514 0.9445
8.7901 11.0024 -2.3530 0.9445
8.1698 10.4895 -2.2215 0.9475
8.3869 11.3358 -2.3561 0.9444
8.1107 11.5494 -2.3581 0.9444
7.9709 11.6542 -2.3591 0.9443
7.8296 11.7572 -2.3602 0.9443
7.7585 11.8080 -2.3607 0.9443
7.5431 11.9578 -2.3623 0.9443
7.3978 12.0554 -2.3633 0.9443
7.2512 12.1510 -2.3643 0.9442
7.1032 12.2447 -2.3652 0.9442
7.0287 12.2908 -2.3657 0.9442
6.9538 12.3363 -2.3662 0.9442
6.8787 12.3814 -2.3666 0.9442
6.7275 12.4701 -2.3675 0.9442
6.6515 12.5138 -2.3679 0.9441
6.5752 12.5569 -2.3683 0.9441
6.4985 12.5996 -2.3687 0.9441
6.3444 12.6834 -2.3696 0.9441
6.1892 12.7653 -2.3704 0.9441
6.1111 12.8055 -2.3708 0.9441
5.4029 12.0814 -2.2113 0.9477
5.2758 11.9958 -2.1896 0.9482
5.1523 11.9143 -2.1689 0.9487
5.0060 11.9807 -2.1695 0.9487
4.8106 11.9255 -2.1486 0.9492
4.5557 11.7090 -2.0993 0.9503
4.1596 11.7541 -2.0833 0.9507
3.4573 9.9651 -1.7624 0.9581
3.2945 9.8892 -1.7416 0.9586
3.2429 9.9388 -1.7468 0.9585
3.1618 10.1127 -1.7703 0.9579
3.1205 10.2017 -1.7825 0.9577
3.0362 10.3834 -1.8076 0.9571
2.9493 10.5700 -1.8336 0.9565
2.8512 10.7291 -1.8549 0.9560
2.7706 10.6920 -1.8455 0.9562
2.6119 10.6188 -1.8271 0.9566
2.4700 10.6057 -1.8195 0.9568
2.4046 10.6216 -1.8196 0.9568
2.0344 9.2517 -1.5828 0.9623
1.9678 9.2202 -1.5753 0.9625
1.9018 9.1893 -1.5680 0.9627
1.7720 9.1296 -1.5539 0.9630
1.7080 9.1001 -1.5471 0.9631
1.6607 9.1603 -1.5555 0.9629
1.6182 9.2514 -1.5693 0.9626
1.5749 9.3442 -1.5833 0.9623
1.5418 9.5063 -1.6091 0.9617
1.4507 9.7022 -1.6391 0.9610
1.4038 9.8030 -1.6547 0.9606
1.3561 9.9056 -1.6705 0.9603
1.3074 10.0101 -1.6868 0.9599
1.1333 10.1385 -1.7046 0.9595
1.0665 10.1071 -1.6981 0.9596
1.0002 10.0758 -1.6918 0.9598
0.9345 10.0448 -1.6856 0.9599
0.8692 10.0140 -1.6795 0.9601
0.8044 9.9835 -1.6735 0.9602
0.7424 9.9860 -1.6731 0.9602
0.6189 9.9955 -1.6733 0.9602
0.3774 8.7137 -1.4573 0.9652
0.2196 8.8749 -1.4833 0.9646
0.1643 8.8531 -1.4795 0.9647
0.1101 8.9020 -1.4875 0.9645
0.0563 9.1070 -1.5217 0.9637
-0.0000 9.2269 -1.5417 0.9633
-0.0578 9.3500 -1.5623 0.9628
-0.1172 9.4764 -1.5835 0.9623
-0.1782 9.6064 -1.6054 0.9618
-0.3055 9.8773 -1.6512 0.9607
-0.5107 10.3142 -1.7255 0.9590
-0.6581 10.6282 -1.7792 0.9577
-0.8026 10.7954 -1.8087 0.9570
-0.9318 10.7351 -1.8004 0.9572
-1.1233 10.6457 -1.7886 0.9575
-1.1867 10.6161 -1.7849 0.9576
-1.2497 10.5869 -1.7812 0.9577
-1.2409 9.9818 -1.6807 0.9600
-1.3039 9.9839 -1.6823 0.9600
-1.3504 9.8645 -1.6636 0.9604
-1.4309 9.1815 -1.5526 0.9630
-1.4791 9.1198 -1.5437 0.9632
-1.6666 8.8798 -1.5096 0.9640
-1.7016 8.7666 -1.4921 0.9644
-1.7512 8.7331 -1.4882 0.9645
-1.8159 8.7742 -1.4971 0.9643
-1.9795 8.7440 -1.4980 0.9643
-2.0334 8.7309 -1.4978 0.9643
-2.0853 8.7096 -1.4964 0.9643
-2.1300 8.6596 -1.4900 0.9645
-2.1875 8.6618 -1.4927 0.9644
-2.2384 8.6381 -1.4910 0.9645
-2.2892 8.6143 -1.4893 0.9645
-2.3399 8.5907 -1.4877 0.9645
-2.4574 8.4039 -1.4630 0.9651
-2.6372 8.4347 -1.4766 0.9648
-2.8119 8.4406 -1.4865 0.9646
-2.8707 8.4426 -1.4900 0.9645
-2.9298 8.4446 -1.4935 0.9644
-2.9891 8.4465 -1.4971 0.9643
-3.0318 8.4015 -1.4924 0.9644
-3.0984 8.4225 -1.4995 0.9643
-3.2157 8.5775 -1.5306 0.9635
-3.2921 8.6187 -1.5416 0.9633
-3.3797 8.6864 -1.5574 0.9629
-3.5532 8.8084 -1.5870 0.9622
-3.6353 8.8537 -1.5992 0.9619
-3.7031 8.8625 -1.6049 0.9618
-3.7449 8.8090 -1.5993 0.9619
-4.0754 9.2663 -1.6914 0.9598
-5.8782 12.9291 -2.3731 0.9440
-6.1923 12.7716 -2.3716 0.9441
-6.2701 12.7310 -2.3712 0.9441
-6.3477 12.6899 -2.3708 0.9441
-6.4250 12.6483 -2.3704 0.9441
-6.5019 12.6062 -2.3700 0.9441
-6.7312 12.4769 -2.3688 0.9441
-6.8070 12.4328 -2.3683 0.9441
-6.8825 12.3883 -2.3679 0.9441
-4.5304 7.6996 -1.4927 0.9644
-4.5553 7.6335 -1.4853 0.9646
-4.5799 7.5680 -1.4780 0.9648
-4.7072 7.4622 -1.4742 0.9649
-4.9604 7.5495 -1.5093 0.9640
-7.8355 11.7659 -2.3620 0.9443
-7.9064 11.7148 -2.3615 0.9443
-7.9771 11.6632 -2.3610 0.9443
-8.1868 11.5059 -2.3595 0.9443
-8.2561 11.4526 -2.3590 0.9444
-8.3934 11.3446 -2.3579 0.9444
-8.5966 11.1794 -2.3563 0.9444
-8.6636 11.1235 -2.3558 0.9444
-8.7303 11.0672 -2.3553 0.9444
-8.8623 10.9533 -2.3542 0.9445
-8.9278 10.8957 -2.3536 0.9445
-9.0576 10.7793 -2.3525 0.9445
-9.1858 10.6614 -2.3514 0.9445
-9.3124 10.5418 -2.3502 0.9446
-9.4374 10.4206 -2.3491 0.9446
-9.4993 10.3595 -2.3485 0.9446
-9.5608 10.2980 -2.3479 0.9446
-9.6219 10.2361 -2.3473 0.9446
-9.7427 10.1111 -2.3461 0.9446
-9.8025 10.0480 -2.3455 0.9447
-9.8619 9.9846 -2.3449 0.9447
-10.2095 9.5969 -2.3412 0.9448
-10.3219 9.4648 -2.3399 0.9448
-10.3774 9.3982 -2.3393 0.9448
-10.4871 9.2641 -2.3380 0.9448
-10.5413 9.1965 -2.3374 0.9448
-10.6484 9.0604 -2.3361 0.9449
-10.7012 8.9919 -2.3354 0.9449
-10.7536 8.9230 -2.3348 0.9449
-10.8055 8.8538 -2.3341 0.9449
-10.8570 8.7844 -2.3335 0.9449
-10.9080 8.7146 -2.3328 0.9450
-10.9585 8.6445 -2.3321 0.9450
-11.0582 8.5034 -2.3308 0.9450
-11.1074 8.4324 -2.3301 0.9450
-11.2043 8.2895 -2.3288 0.9450
-11.2520 8.2176 -2.3281 0.9451
-12.1153 8.6204 -2.4844 0.9415
-12.2621 8.3866 -2.4822 0.9415
-12.3100 8.3081 -2.4815 0.9415
-12.4043 8.1503 -2.4799 0.9416
-12.4507 8.0709 -2.4792 0.9416
-12.4965 7.9913 -2.4784 0.9416
-12.6309 7.7510 -2.4761 0.9417
-12.6747 7.6703 -2.4754 0.9417
-12.7179 7.5894 -2.4746 0.9417
-12.8444 7.3453 -2.4723 0.9418
-12.9261 7.1813 -2.4707 0.9418
-13.0056 7.0164 -2.4691 0.9418
-13.0446 6.9336 -2.4683 0.9418
-13.0830 6.8506 -2.4675 0.9419
-13.1582 6.6839 -2.4660 0.9419
-13.1951 6.6003 -2.4652 0.9419
-13.3022 6.3482 -2.4627 0.9420
-13.3368 6.2637 -2.4619 0.9420
-13.4045 6.0943 -2.4603 0.9420
-13.4699 5.9241 -2.4587 0.9421
-13.5018 5.8388 -2.4579 0.9421
-13.5331 5.7532 -2.4571 0.9421
-13.5640 5.6675 -2.4562 0.9421
-13.5942 5.5817 -2.4554 0.9421
-13.6530 5.4095 -2.4538 0.9422
-13.7096 5.2367 -2.4521 0.9422
-13.7371 5.1501 -2.4513 0.9422
-13.7640 5.0633 -2.4505 0.9423
-13.8415 4.8022 -2.4480 0.9423
-13.8662 4.7149 -2.4471 0.9423
-13.8903 4.6275 -2.4463 0.9424
-14.0027 4.1886 -2.4421 0.9424
-14.0437 4.0123 -2.4404 0.9425
-14.0634 3.9241 -2.4396 0.9425
-14.1533 3.4813 -2.4353 0.9426
-14.2005 3.2147 -2.4328 0.9427
-14.2152 3.1258 -2.4319 0.9427
-14.2292 3.0368 -2.4311 0.9427
-14.2428 2.9477 -2.4302 0.9427
-14.2557 2.8585 -2.4293 0.9427
-14.2799 2.6801 -2.4276 0.9428
-14.3120 2.4122 -2.4251 0.9428
-14.3306 2.2334 -2.4234 0.9429
-14.3391 2.1440 -2.4225 0.9429
-14.3543 1.9650 -2.4208 0.9429
-14.3730 1.6966 -2.4182 0.9430
-14.3867 1.4282 -2.4156 0.9431
-14.3930 1.2492 -2.4139 0.9431
-14.3991 0.8022 -2.4096 0.9432
-14.3987 0.7129 -2.4088 0.9432
-14.3961 0.5344 -2.4071 0.9433
-14.3882 0.2670 -2.4045 0.9433
-14.3802 0.0889 -2.4028 0.9433
-13.7463 -0.0000 -2.4019 0.9457
-13.7413 -0.0850 -2.4010 0.9457
-13.7359 -0.1699 -2.4002 0.9457
-13.7299 -0.2548 -2.3994 0.9458
-13.7164 -0.4243 -2.3978 0.9458
-13.6832 -0.7624 -2.3945 0.9459
-13.6735 -0.8467 -2.3937 0.9459
-13.6634 -0.9309 -2.3929 0.9459
-13.6416 -1.0991 -2.3913 0.9459
-13.6300 -1.1831 -2.3905 0.9460
-13.6051 -1.3506 -2.3889 0.9460
-13.5919 -1.4343 -2.3881 0.9460
-13.5184 -1.8507 -2.3841 0.9461
-13.4855 -2.0164 -2.3825 0.9461
-13.4136 -2.3462 -2.3793 0.9462
-13.3746 -2.5102 -2.3777 0.9462
-13.3125 -2.7552 -2.3754 0.9463
-13.2687 -2.9177 -2.3738 0.9463
-13.2461 -2.9987 -2.3730 0.9463
-13.2229 -3.0796 -2.3722 0.9464
-13.1506 -3.3211 -2.3699 0.9464
-13.1256 -3.4012 -2.3691 0.9464
-13.1000 -3.4812 -2.3684 0.9464
-13.0475 -3.6406 -2.3668 0.9465
-13.0205 -3.7200 -2.3661 0.9465
-12.9931 -3.7993 -2.3653 0.9465
-12.9651 -3.8783 -2.3646 0.9465
-12.8786 -4.1142 -2.3623 0.9466
-12.7250 -4.5032 -2.3585 0.9467
-12.6273 -4.7340 -2.3563 0.9467
-12.5600 -4.8868 -2.3548 0.9467
-12.4908 -5.0387 -2.3534 0.9468
-12.3837 -5.2646 -2.3512 0.9468
-12.3101 -5.4141 -2.3497 0.9469
-12.2726 -5.4884 -2.3490 0.9469
-12.1964 -5.6364 -2.3476 0.9469
-12.1576 -5.7100 -2.3469 0.9469
-12.0788 -5.8564 -2.3455 0.9470
-11.9573 -6.0740 -2.3434 0.9470
-11.7465 -6.4313 -2.3399 0.9471
-11.6593 -6.5722 -2.3386 0.9471
-11.6150 -6.6423 -2.3379 0.9471
-11.5704 -6.7120 -2.3372 0.9471
-11.5254 -6.7816 -2.3365 0.9471
-11.4341 -6.9196 -2.3352 0.9472
-11.3878 -6.9882 -2.3345 0.9472
-11.2941 -7.1245 -2.3332 0.9472
-11.2467 -7.1922 -2.3326 0.9472
-11.1021 -7.3934 -2.3306 0.9473
-10.9540 -7.5919 -2.3287 0.9473
-10.8533 -7.7226 -2.3274 0.9473
-10.8025 -7.7874 -2.3268 0.9474
-10.7512 -7.8520 -2.3262 0.9474
-10.6476 -7.9801 -2.3249 0.9474
-10.5952 -8.0436 -2.3243 0.9474
-10.3822 -8.2945 -2.3219 0.9475
-10.3280 -8.3565 -2.3213 0.9475
-9.9957 -8.7206 -2.3178 0.9476
-9.8822 -8.8391 -2.3166 0.9476
-9.8249 -8.8979 -2.3161 0.9476
-9.7673 -8.9563 -2.3155 0.9476
-9.7094 -9.0143 -2.3149 0.9476
-9.6511 -9.0720 -2.3144 0.9476
-9.4743 -9.2429 -2.3127 0.9477
-9.4148 -9.2991 -2.3122 0.9477
-9.3549 -9.3549 -2.3116 0.9477
-9.2342 -9.4655 -2.3105 0.9477
-9.1734 -9.5203 -2.3100 0.9477
-9.1122 -9.5746 -2.3095 0.9477
-9.0508 -9.6286 -2.3090 0.9478
-8.9890 -9.6822 -2.3084 0.9478
-8.9270 -9.7354 -2.3079 0.9478
-8.8646 -9.7883 -2.3074 0.9478
-8.4844 -10.0972 -2.3044 0.9479
-8.4200 -10.1473 -2.3039 0.9479
-8.3553 -10.1971 -2.3034 0.9479
-8.2904 -10.2464 -2.3030 0.9479
-8.2251 -10.2954 -2.3025 0.9479
-8.1596 -10.3439 -2.3020 0.9479
-8.0939 -10.3921 -2.3015 0.9479
-7.8281 -10.5806 -2.2997 0.9480
-7.6260 -10.7178 -2.2984 0.9480
-7.3531 -10.8949 -2.2966 0.9480
-7.1458 -11.0235 -2.2954 0.9481
-7.0762 -11.0654 -2.2950 0.9481
-6.9363 -11.1482 -2.2942 0.9481
-6.5828 -11.3477 -2.2922 0.9481
-6.2960 -11.4995 -2.2907 0.9482
-6.2238 -11.5364 -2.2904 0.9482
-6.0787 -11.6089 -2.2896 0.9482
-5.9329 -11.6797 -2.2890 0.9482
-5.8597 -11.7144 -2.2886 0.9482
-5.4907 -11.8815 -2.2870 0.9482
-5.4164 -11.9135 -2.2867 0.9482
-5.2672 -11.9763 -2.2860 0.9483
-5.1924 -12.0071 -2.2857 0.9483
-5.0422 -12.0673 -2.2851 0.9483
-4.9668 -12.0967 -2.2849 0.9483
-4.8156 -12.1542 -2.2843 0.9483
-4.6638 -12.2099 -2.2837 0.9483
-4.5877 -12.2371 -2.2835 0.9483
-4.5114 -12.2638 -2.2832 0.9483
-4.3584 -12.3159 -2.2827 0.9483
-4.2817 -12.3412 -2.2824 0.9483
-4.1278 -12.3906 -2.2819 0.9483
-3.9734 -12.4381 -2.2815 0.9484
-3.5073 -12.5697 -2.2802 0.9484
-3.4292 -12.5900 -2.2800 0.9484
-3.2726 -12.6293 -2.2796 0.9484
-3.1157 -12.6667 -2.2792 0.9484
-2.8005 -12.7360 -2.2785 0.9484
-2.5632 -12.7831 -2.2780 0.9484
-2.4840 -12.7979 -2.2779 0.9484
-2.3252 -12.8261 -2.2776 0.9484
-2.2457 -12.8394 -2.2774 0.9484
-2.0068 -12.8767 -2.2771 0.9485
-1.9270 -12.8882 -2.2769 0.9485
-1.8472 -12.8992 -2.2768 0.9485
-1.7673 -12.9097 -2.2767 0.9485
-1.6874 -12.9198 -2.2766 0.9485
-1.5273 -12.9386 -2.2764 0.9485
-1.4472 -12.9473 -2.2763 0.9485
-1.2869 -12.9632 -2.2762 0.9485
-1.2066 -12.9705 -2.2761 0.9485
-0.8050 -12.9998 -2.2758 0.9485
-0.5636 -13.0116 -2.2756 0.9485
-0.4026 -13.0172 -2.2756 0.9485
-0.2416 -13.0209 -2.2755 0.9485
-0.1610 -13.0221 -2.2755 0.9485
0.0000 -13.0229 -2.2755 0.9485
0.2416 -13.0207 -2.2755 0.9485
0.3221 -13.0190 -2.2755 0.9485
0.4026 -13.0168 -2.2755 0.9485
0.8049 -12.9989 -2.2756 0.9485
0.8853 -12.9939 -2.2756 0.9485
1.0460 -12.9825 -2.2757 0.9485
1.1263 -12.9760 -2.2758 0.9485
1.3669 -12.9540 -2.2760 0.9485
1.5271 -12.9369 -2.2761 0.9485
1.7671 -12.9078 -2.2764 0.9485
1.9267 -12.8861 -2.2766 0.9485
2.0862 -12.8625 -2.2768 0.9485
2.1658 -12.8499 -2.2769 0.9485
2.2453 -12.8369 -2.2770 0.9485
2.3248 -12.8235 -2.2771 0.9485
2.4042 -12.8096 -2.2773 0.9485
2.6419 -12.7650 -2.2777 0.9484
2.7999 -12.7330 -2.2780 0.9484
2.8788 -12.7163 -2.2781 0.9484
3.0363 -12.6815 -2.2784 0.9484
3.1149 -12.6634 -2.2786 0.9484
3.1934 -12.6448 -2.2788 0.9484
3.3500 -12.6063 -2.2791 0.9484
3.4282 -12.5864 -2.2793 0.9484
3.5062 -12.5660 -2.2795 0.9484
3.6620 -12.5238 -2.2799 0.9484
3.8173 -12.4798 -2.2803 0.9484
3.8948 -12.4571 -2.2805 0.9484
3.9721 -12.4339 -2.2807 0.9484
4.0493 -12.4103 -2.2809 0.9484
4.1264 -12.3862 -2.2812 0.9484
4.2033 -12.3617 -2.2814 0.9484
4.2801 -12.3367 -2.2816 0.9484
4.5097 -12.2591 -2.2823 0.9483
4.5859 -12.2323 -2.2826 0.9483
4.7379 -12.1774 -2.2831 0.9483
5.1901 -12.0018 -2.2847 0.9483
5.4140 -11.9080 -2.2856 0.9483
5.6362 -11.8103 -2.2865 0.9482
5.7834 -11.7429 -2.2872 0.9482
6.0756 -11.6029 -2.2885 0.9482
6.2205 -11.5303 -2.2892 0.9482
6.2926 -11.4934 -2.2895 0.9482
6.3646 -11.4561 -2.2899 0.9482
6.5791 -11.3413 -2.2909 0.9482
6.6502 -11.3022 -2.2913 0.9481
6.7211 -11.2627 -2.2917 0.9481
6.8621 -11.1824 -2.2924 0.9481
7.0720 -11.0588 -2.2936 0.9481
7.4170 -10.8444 -2.2956 0.9480
7.4853 -10.8003 -2.2960 0.9480
7.5533 -10.7558 -2.2965 0.9480
7.8229 -10.5736 -2.2982 0.9480
7.8897 -10.5270 -2.2986 0.9480
7.9562 -10.4801 -2.2991 0.9480
8.1540 -10.3368 -2.3004 0.9479
8.2846 -10.2392 -2.3013 0.9479
8.3494 -10.1898 -2.3018 0.9479
8.4783 -10.0900 -2.3027 0.9479
8.5423 -10.0394 -2.3032 0.9479
8.6060 -9.9885 -2.3037 0.9479
8.6695 -9.9372 -2.3042 0.9479
8.7326 -9.8855 -2.3047 0.9478
8.9822 -9.6748 -2.3067 0.9478
9.2270 -9.4581 -2.3087 0.9478
9.4667 -9.2354 -2.3108 0.9477
9.6432 -9.0646 -2.3125 0.9477
9.7592 -8.9489 -2.3136 0.9477
9.8167 -8.8905 -2.3141 0.9476
9.8739 -8.8317 -2.3147 0.9476
10.1547 -8.5327 -2.3175 0.9476
10.2098 -8.4719 -2.3181 0.9476
10.2646 -8.4107 -2.3187 0.9475
10.4268 -8.2251 -2.3205 0.9475
10.4801 -8.1625 -2.3210 0.9475
10.5857 -8.0364 -2.3222 0.9475
10.7414 -7.8448 -2.3241 0.9474
10.8938 -7.6503 -2.3259 0.9474
11.0916 -7.3864 -2.3284 0.9473
11.1402 -7.3197 -2.3291 0.9473
11.1883 -7.2527 -2.3297 0.9473
11.2833 -7.1176 -2.3310 0.9473
11.4230 -6.9129 -2.3329 0.9472
11.4688 -6.8440 -2.3336 0.9472
11.5141 -6.7749 -2.3343 0.9472
11.6036 -6.6357 -2.3356 0.9472
11.7348 -6.4248 -2.3376 0.9471
11.8202 -6.2829 -2.3390 0.9471
11.8623 -6.2115 -2.3396 0.9471
12.2599 -5.4827 -2.3466 0.9469
12.2973 -5.4084 -2.3473 0.9469
12.3342 -5.3339 -2.3480 0.9469
12.3707 -5.2591 -2.3487 0.9469
12.4068 -5.1841 -2.3494 0.9469
12.4776 -5.0333 -2.3509 0.9468
12.5466 -4.8816 -2.3523 0.9468
12.5805 -4.8054 -2.3531 0.9468
12.6139 -4.7290 -2.3538 0.9468
12.6468 -4.6523 -2.3545 0.9468
12.7113 -4.4984 -2.3560 0.9467
12.7429 -4.4211 -2.3567 0.9467
12.7740 -4.3436 -2.3575 0.9467
12.8046 -4.2658 -2.3582 0.9467
12.8348 -4.1879 -2.3590 0.9467
12.8938 -4.0313 -2.3605 0.9466
12.9226 -3.9528 -2.3612 0.9466
12.9509 -3.8741 -2.3620 0.9466
12.9788 -3.7951 -2.3627 0.9466
13.0595 -3.5571 -2.3650 0.9465
13.0855 -3.4774 -2.3657 0.9465
13.1110 -3.3975 -2.3665 0.9465
13.2081 -3.0761 -2.3696 0.9464
13.2312 -2.9954 -2.3704 0.9464
13.2538 -2.9144 -2.3711 0.9464
13.3187 -2.6707 -2.3735 0.9463
13.3393 -2.5891 -2.3742 0.9463
13.3595 -2.5074 -2.3750 0.9463
13.4170 -2.2614 -2.3774 0.9462
13.4529 -2.0966 -2.3790 0.9462
13.4701 -2.0141 -2.3798 0.9462
13.5186 -1.7656 -2.3821 0.9461
13.5484 -1.5994 -2.3837 0.9461
13.5626 -1.5160 -2.3845 0.9461
13.5763 -1.4326 -2.3853 0.9461
13.5894 -1.3491 -2.3861 0.9461
13.6021 -1.2654 -2.3869 0.9460
13.6370 -1.0139 -2.3893 0.9460
13.6476 -0.9299 -2.3901 0.9460
13.6849 -0.5928 -2.3934 0.9459
13.7075 -0.3392 -2.3958 0.9458
13.7254 -0.0849 -2.3982 0.9458
13.7347 0.0850 -2.3999 0.9458
13.7419 0.2550 -2.4015 0.9457
13.7470 0.4252 -2.4031 0.9457
13.7488 0.5104 -2.4040 0.9457
13.7508 0.6808 -2.4056 0.9456
13.7510 0.7661 -2.4064 0.9456
13.7507 0.8514 -2.4072 0.9456
13.7498 0.9368 -2.4081 0.9456
13.7466 1.1075 -2.4097 0.9455
13.7377 1.3637 -2.4121 0.9455
13.7291 1.5346 -2.4138 0.9454
13.7184 1.7054 -2.4154 0.9454
13.7122 1.7908 -2.4163 0.9454
13.7055 1.8762 -2.4171 0.9454
13.6983 1.9616 -2.4179 0.9454
13.6905 2.0470 -2.4187 0.9453
13.6542 2.3882 -2.4220 0.9453
13.6094 2.7289 -2.4253 0.9452
13.5968 2.8140 -2.4261 0.9452
13.5837 2.8990 -2.4269 0.9452
13.5412 3.1537 -2.4293 0.9451
13.5260 3.2384 -2.4302 0.9451
13.5103 3.3231 -2.4310 0.9451
13.4771 3.4923 -2.4326 0.9450
13.4419 3.6612 -2.4342 0.9450
13.4235 3.7455 -2.4350 0.9450
13.3850 3.9138 -2.4367 0.9449
13.3444 4.0818 -2.4383 0.9449
13.3017 4.2493 -2.4399 0.9449
13.2336 4.4998 -2.4423 0.9448
13.2099 4.5830 -2.4431 0.9448
13.0832 4.9974 -2.4471 0.9447
13.0289 5.1622 -2.4487 0.9447
13.0009 5.2444 -2.4495 0.9447
12.9724 5.3264 -2.4503 0.9446
12.9434 5.4083 -2.4511 0.9446
12.8837 5.5715 -2.4526 0.9446
12.8220 5.7341 -2.4542 0.9446
12.7904 5.8151 -2.4550 0.9445
8.1745 3.9011 -1.5826 0.9639
8.1254 4.0018 -1.5826 0.9639
8.0762 4.1024 -1.5828 0.9639
8.0516 4.1528 -1.5829 0.9639
8.0270 4.2031 -1.5832 0.9639
7.9777 4.3039 -1.5838 0.9639
7.9037 4.4553 -1.5853 0.9638
7.8791 4.5058 -1.5859 0.9638
7.8049 4.6576 -1.5881 0.9638
7.7801 4.7083 -1.5889 0.9637
7.7553 4.7591 -1.5899 0.9637
7.6307 5.0138 -1.5954 0.9636
7.6057 5.0650 -1.5966 0.9636
7.5807 5.1163 -1.5980 0.9635
7.5304 5.2191 -1.6009 0.9635
7.4800 5.3223 -1.6040 0.9634
7.4039 5.4779 -1.6092 0.9633
7.3785 5.5299 -1.6111 0.9633
7.3529 5.5821 -1.6131 0.9632
7.3017 5.6870 -1.6171 0.9631
7.2502 5.7923 -1.6215 0.9630
7.2243 5.8452 -1.6237 0.9630
7.1984 5.8983 -1.6261 0.9629
7.1724 5.9515 -1.6285 0.9629
7.1463 6.0048 -1.6309 0.9628
7.0939 6.1121 -1.6361 0.9627
7.0675 6.1659 -1.6388 0.9626
7.0146 6.2742 -1.6444 0.9625
6.9880 6.3286 -1.6473 0.9624
6.9345 6.4381 -1.6533 0.9623
6.9076 6.4931 -1.6565 0.9622
9.6278 9.2770 -2.3361 0.9472
9.5727 9.3388 -2.3367 0.9471
9.4613 9.4612 -2.3379 0.9471
9.4049 9.5220 -2.3385 0.9471
9.2336 9.7021 -2.3402 0.9471
9.1173 9.8203 -2.3414 0.9470
9.0013 9.9391 -2.3430 0.9470
8.9417 9.9969 -2.3435 0.9470
8.4498 9.6854 -2.2458 0.9491
8.4129 9.7643 -2.2520 0.9490
8.6996 10.2243 -2.3456 0.9469
8.6381 10.2801 -2.3462 0.9469
8.5141 10.3907 -2.3472 0.9469
8.4514 10.4454 -2.3477 0.9469
8.2615 10.6072 -2.3492 0.9469
8.1331 10.7131 -2.3502 0.9468
8.0684 10.7654 -2.3507 0.9468
7.8721 10.9199 -2.3521 0.9468
7.8059 10.9706 -2.3526 0.9468
7.6727 11.0707 -2.3535 0.9468
7.6059 11.1205 -2.3541 0.9468
7.4710 11.2186 -2.3551 0.9467
7.4030 11.2670 -2.3556 0.9467
7.3347 11.3149 -2.3561 0.9467
7.1280 11.4562 -2.3575 0.9467
7.0584 11.5024 -2.3580 0.9467
6.7770 11.6823 -2.3598 0.9466
6.7058 11.7262 -2.3603 0.9466
6.4906 11.8549 -2.3615 0.9466
6.2728 11.9795 -2.3628 0.9466
6.1997 12.0201 -2.3632 0.9466
6.1262 12.0603 -2.3636 0.9466
6.0526 12.0999 -2.3639 0.9465
5.9786 12.1391 -2.3643 0.9465
5.9043 12.1778 -2.3647 0.9465
5.8298 12.2160 -2.3651 0.9465
5.7551 12.2538 -2.3655 0.9465
5.6801 12.2911 -2.3658 0.9465
5.6048 12.3278 -2.3662 0.9465
5.1506 11.9104 -2.2673 0.9487
5.0284 11.8280 -2.2457 0.9491
4.8317 11.7677 -2.2227 0.9497
4.7358 11.7402 -2.2119 0.9499
4.6408 11.7130 -2.2014 0.9501
4.4031 11.7448 -2.1916 0.9503
3.3767 9.9308 -1.8327 0.9583
3.2958 9.8930 -1.8220 0.9585
3.2427 9.9382 -1.8266 0.9584
3.2024 10.0245 -1.8388 0.9582
3.0785 10.2916 -1.8770 0.9573
2.9492 10.5696 -1.9173 0.9564
2.8509 10.7282 -1.9396 0.9559
2.6117 10.6179 -1.9105 0.9566
2.5336 10.5818 -1.9012 0.9568
2.4561 10.5462 -1.8920 0.9570
2.3795 10.5108 -1.8830 0.9572
1.9785 9.2704 -1.6563 0.9622
1.9120 9.2387 -1.6485 0.9624
1.8464 9.2080 -1.6409 0.9626
1.6725 9.2253 -1.6382 0.9626
1.5418 9.5058 -1.6826 0.9617
1.4966 9.6029 -1.6982 0.9613
1.4506 9.7018 -1.7140 0.9609
1.4038 9.8025 -1.7302 0.9606
1.3073 10.0095 -1.7638 0.9598
1.2576 10.1160 -1.7812 0.9595
1.1332 10.1377 -1.7824 0.9594
1.0664 10.1063 -1.7756 0.9596
0.9344 10.0440 -1.7625 0.9599
0.5843 8.5755 -1.5019 0.9657
0.5305 8.5678 -1.4999 0.9657
0.4775 8.5710 -1.4999 0.9657
0.1631 8.7886 -1.5359 0.9649
0.1112 8.9895 -1.5708 0.9642
0.0000 9.2262 -1.6121 0.9632
-0.1172 9.4758 -1.6558 0.9623
-0.2410 9.7392 -1.7022 0.9612
-0.3719 10.0180 -1.7516 0.9601
-0.5832 10.4679 -1.8319 0.9583
-0.6581 10.6274 -1.8605 0.9577
-0.7352 10.7913 -1.8899 0.9570
-0.8026 10.7947 -1.8913 0.9570
-0.8673 10.7645 -1.8869 0.9571
-1.1233 10.6450 -1.8703 0.9575
-1.2408 9.9811 -1.7574 0.9600
-1.3038 9.9832 -1.7592 0.9599
-1.3784 9.6254 -1.6990 0.9613
-1.3726 9.1797 -1.6218 0.9630
-1.4308 9.1809 -1.6235 0.9630
-1.5267 9.0582 -1.6050 0.9634
-1.7014 8.7660 -1.5602 0.9644
-1.7510 8.7325 -1.5562 0.9645
-1.8157 8.7733 -1.5654 0.9643
-1.8792 8.8051 -1.5731 0.9641
-1.9309 8.7810 -1.5709 0.9642
-2.0339 8.7329 -1.5667 0.9642
-2.0851 8.7090 -1.5647 0.9643
-2.1299 8.6590 -1.5581 0.9644
-2.1873 8.6613 -1.5609 0.9644
-2.2382 8.6375 -1.5591 0.9644
-2.3397 8.5901 -1.5556 0.9645
-2.3903 8.5665 -1.5540 0.9645
-2.4408 8.5429 -1.5524 0.9646
-2.5792 8.4321 -1.5407 0.9648
-2.6370 8.4341 -1.5440 0.9648
-2.6950 8.4360 -1.5474 0.9647
-2.7532 8.4380 -1.5508 0.9646
-2.8117 8.4399 -1.5544 0.9645
-2.9889 8.4459 -1.5654 0.9643
-3.0316 8.4011 -1.5606 0.9644
-3.0981 8.4218 -1.5679 0.9642
-3.2365 8.6329 -1.6109 0.9633
-3.4720 8.7629 -1.6469 0.9624
-3.6349 8.8528 -1.6721 0.9619
-3.7029 8.8620 -1.6782 0.9618
-3.7447 8.8085 -1.6724 0.9619
-3.8143 8.8203 -1.6791 0.9617
-5.6074 12.3334 -2.3673 0.9465
-5.6827 12.2967 -2.3669 0.9465
-5.9072 12.1836 -2.3658 0.9465
-6.0555 12.1058 -2.3651 0.9465
-6.1293 12.0662 -2.3647 0.9465
-6.2028 12.0261 -2.3643 0.9465
-6.2760 11.9856 -2.3640 0.9465
-6.3489 11.9446 -2.3636 0.9466
-6.4216 11.9031 -2.3632 0.9466
-6.4940 11.8611 -2.3628 0.9466
-4.4999 7.7570 -1.5669 0.9642
-4.5499 7.6244 -1.5514 0.9646
-4.5989 7.4944 -1.5364 0.9649
-4.7828 7.4791 -1.5512 0.9646
-4.8670 7.5081 -1.5634 0.9643
-4.9525 7.5375 -1.5759 0.9640
-7.5439 11.1776 -2.3562 0.9467
-7.6113 11.1285 -2.3558 0.9467
-7.6785 11.0790 -2.3553 0.9467
-7.7453 11.0291 -2.3548 0.9467
-7.8117 10.9787 -2.3543 0.9468
