ply
format ascii 1.0
element vertex 1554
property float32 x
property float32 y
property float32 z
property float32 I
end_header
1.0306 1.7516 -0.2625 0.9918
1.0013 1.7509 -0.2605 0.9919
0.9868 1.7506 -0.2595 0.9919
0.9580 1.7497 -0.2576 0.9920
0.9438 1.7494 -0.2567 0.9920
0.9296 1.7490 -0.2558 0.9920
0.8878 1.7478 -0.2532 0.9921
0.8741 1.7474 -0.2523 0.9922
0.8604 1.7470 -0.2515 0.9922
0.8200 1.7459 -0.2491 0.9923
0.8066 1.7455 -0.2483 0.9923
0.7934 1.7451 -0.2476 0.9923
0.7672 1.7444 -0.2461 0.9923
0.7284 1.7433 -0.2440 0.9924
0.7156 1.7429 -0.2433 0.9924
0.7029 1.7425 -0.2427 0.9925
0.6777 1.7418 -0.2414 0.9925
0.6652 1.7414 -0.2407 0.9925
0.6527 1.7411 -0.2401 0.9925
0.6404 1.7407 -0.2395 0.9925
0.6158 1.7401 -0.2384 0.9926
0.5915 1.7395 -0.2373 0.9926
0.5674 1.7389 -0.2362 0.9926
0.5554 1.7386 -0.2357 0.9927
0.5435 1.7383 -0.2352 0.9927
0.5316 1.7380 -0.2347 0.9927
0.5080 1.7374 -0.2338 0.9927
0.4963 1.7372 -0.2333 0.9927
0.4499 1.7360 -0.2316 0.9928
0.4384 1.7358 -0.2312 0.9928
0.4041 1.7349 -0.2300 0.9928
0.3814 1.7343 -0.2293 0.9929
0.3588 1.7338 -0.2287 0.9929
0.3476 1.7335 -0.2283 0.9929
0.3252 1.7329 -0.2277 0.9929
0.3141 1.7327 -0.2274 0.9929
0.2809 1.7318 -0.2266 0.9929
0.2699 1.7315 -0.2263 0.9930
0.2589 1.7313 -0.2261 0.9930
0.2479 1.7310 -0.2258 0.9930
0.2369 1.7307 -0.2256 0.9930
0.2260 1.7304 -0.2254 0.9930
0.2151 1.7302 -0.2252 0.9930
0.1825 1.7293 -0.2246 0.9930
0.1608 1.7288 -0.2242 0.9930
0.1285 1.7279 -0.2238 0.9930
0.0962 1.7271 -0.2234 0.9930
0.0855 1.7268 -0.2233 0.9931
0.0748 1.7266 -0.2232 0.9931
0.0641 1.7263 -0.2231 0.9931
0.0320 1.7255 -0.2229 0.9931
0.0213 1.7252 -0.2228 0.9931
-0.0107 1.7244 -0.2227 0.9931
-0.0213 1.7241 -0.2227 0.9931
-0.0320 1.7238 -0.2227 0.9931
-0.0426 1.7235 -0.2227 0.9931
-0.0640 1.7230 -0.2227 0.9931
-0.0746 1.7227 -0.2227 0.9931
-0.0959 1.7221 -0.2227 0.9931
-0.1173 1.7216 -0.2228 0.9931
-0.1387 1.7210 -0.2230 0.9931
-0.1708 1.7201 -0.2232 0.9931
-0.2030 1.7193 -0.2236 0.9930
-0.2137 1.7190 -0.2237 0.9930
-0.2352 1.7184 -0.2240 0.9930
-0.2677 1.7175 -0.2245 0.9930
-0.2894 1.7170 -0.2249 0.9930
-0.3003 1.7167 -0.2251 0.9930
-0.3221 1.7161 -0.2255 0.9930
-0.3330 1.7158 -0.2257 0.9930
-0.3550 1.7152 -0.2262 0.9930
-0.4214 1.7134 -0.2279 0.9929
-0.4438 1.7128 -0.2285 0.9929
-0.5232 1.7105 -0.2310 0.9928
-0.5347 1.7102 -0.2314 0.9928
-0.5578 1.7096 -0.2322 0.9928
-0.5694 1.7093 -0.2327 0.9928
-0.5811 1.7089 -0.2331 0.9927
-0.5928 1.7086 -0.2336 0.9927
-0.6045 1.7083 -0.2340 0.9927
-0.6282 1.7076 -0.2350 0.9927
-0.6401 1.7073 -0.2355 0.9927
-0.6640 1.7066 -0.2365 0.9926
-0.6882 1.7060 -0.2376 0.9926
-0.7003 1.7056 -0.2381 0.9926
-0.7125 1.7053 -0.2387 0.9926
-0.7248 1.7049 -0.2393 0.9926
-0.7495 1.7042 -0.2404 0.9925
-0.7620 1.7039 -0.2410 0.9925
-0.7745 1.7035 -0.2417 0.9925
-0.7871 1.7031 -0.2423 0.9925
-0.7997 1.7028 -0.2430 0.9924
-0.8125 1.7024 -0.2436 0.9924
-0.8381 1.7017 -0.2450 0.9924
-0.8510 1.7013 -0.2457 0.9924
-0.8771 1.7006 -0.2471 0.9923
-0.9035 1.6998 -0.2486 0.9923
-0.9168 1.6994 -0.2494 0.9922
-0.9302 1.6991 -0.2502 0.9922
-0.9710 1.6979 -0.2526 0.9921
-0.9847 1.6975 -0.2534 0.9921
-0.9986 1.6971 -0.2543 0.9921
-1.0549 1.6954 -0.2579 0.9920
-1.1277 1.6933 -0.2627 0.9918
-1.1426 1.6929 -0.2638 0.9918
-1.1575 1.6924 -0.2648 0.9918
-1.1727 1.6920 -0.2659 0.9917
-1.1879 1.6916 -0.2669 0.9917
-1.2188 1.6907 -0.2692 0.9916
-1.2344 1.6902 -0.2703 0.9916
-1.2502 1.6897 -0.2715 0.9916
-1.2821 1.6888 -0.2738 0.9915
-1.2983 1.6883 -0.2750 0.9914
-1.3146 1.6878 -0.2763 0.9914
-1.3477 1.6869 -0.2788 0.9913
-1.3814 1.6859 -0.2815 0.9912
-1.4157 1.6848 -0.2842 0.9912
-1.4508 1.6838 -0.2870 0.9911
-1.4685 1.6833 -0.2885 0.9910
-1.5046 1.6822 -0.2915 0.9909
-1.5230 1.6816 -0.2930 0.9909
-1.5415 1.6811 -0.2946 0.9908
-1.5602 1.6805 -0.2961 0.9908
-1.6372 1.6782 -0.3028 0.9906
-1.6770 1.6770 -0.3063 0.9905
-1.7178 1.6758 -0.3099 0.9904
-1.7595 1.6745 -0.3137 0.9903
-1.7808 1.6739 -0.3156 0.9902
-1.8240 1.6726 -0.3196 0.9901
-1.8685 1.6712 -0.3237 0.9899
-1.8912 1.6707 -0.3259 0.9899
-1.9377 1.6695 -0.3303 0.9897
-1.9853 1.6681 -0.3349 0.9896
-12.2134 10.1343 -2.0496 0.9380
-13.6854 11.2136 -2.2849 0.9311
-13.7528 11.1274 -2.2847 0.9311
-13.8859 10.9537 -2.2841 0.9312
-13.9516 10.8662 -2.2838 0.9312
-14.0168 10.7784 -2.2835 0.9312
-14.1454 10.6015 -2.2829 0.9312
-14.2089 10.5124 -2.2826 0.9312
-14.2718 10.4230 -2.2823 0.9312
-14.3958 10.2431 -2.2817 0.9312
-14.5176 10.0616 -2.2811 0.9312
-14.6371 9.8786 -2.2805 0.9313
-14.8119 9.6016 -2.2796 0.9313
-14.8690 9.5085 -2.2793 0.9313
-16.1145 9.7520 -2.4325 0.9268
-16.1723 9.6508 -2.4322 0.9269
-16.2294 9.5493 -2.4319 0.9269
-16.2859 9.4475 -2.4315 0.9269
-16.5054 9.0367 -2.4302 0.9269
-16.5587 8.9332 -2.4298 0.9269
-16.6113 8.8294 -2.4295 0.9269
-16.9129 8.2001 -2.4274 0.9270
-17.0082 7.9880 -2.4267 0.9270
-17.0548 7.8815 -2.4264 0.9270
-17.1906 7.5604 -2.4253 0.9271
-17.2345 7.4529 -2.4249 0.9271
-17.4033 7.0202 -2.4235 0.9271
-17.4836 6.8024 -2.4228 0.9271
-17.5989 6.4740 -2.4217 0.9272
-17.6360 6.3641 -2.4214 0.9272
-17.7774 5.9223 -2.4199 0.9272
-17.8760 5.5891 -2.4188 0.9272
-17.9978 5.1421 -2.4173 0.9273
-18.1595 4.4667 -2.4151 0.9273
-18.2077 4.2405 -2.4144 0.9274
-18.2747 3.9002 -2.4132 0.9274
-18.2957 3.7865 -2.4129 0.9274
-18.3542 3.4448 -2.4117 0.9274
-18.3723 3.3307 -2.4114 0.9275
-18.4223 2.9879 -2.4102 0.9275
-18.4375 2.8735 -2.4099 0.9275
-18.4659 2.6444 -2.4091 0.9275
-18.4790 2.5297 -2.4087 0.9275
-18.4914 2.4150 -2.4083 0.9275
-18.5338 1.9557 -2.4068 0.9276
-18.5426 1.8407 -2.4065 0.9276
-18.5507 1.7257 -2.4061 0.9276
-18.5582 1.6107 -2.4057 0.9276
-18.5708 1.3806 -2.4049 0.9276
-18.5806 1.1505 -2.4042 0.9277
-18.5844 1.0354 -2.4038 0.9277
-18.5875 0.9203 -2.4034 0.9277
-18.5916 0.6901 -2.4027 0.9277
-18.5929 0.4600 -2.4019 0.9277
-18.5924 0.3449 -2.4015 0.9277
-18.5913 0.2299 -2.4012 0.9278
-18.5894 0.1149 -2.4008 0.9278
-17.5595 -0.0000 -2.4004 0.9316
-17.5566 -0.1086 -2.4000 0.9316
-17.5530 -0.2171 -2.3997 0.9316
-17.5381 -0.5425 -2.3986 0.9316
-17.5248 -0.7591 -2.3979 0.9316
-17.5172 -0.8674 -2.3975 0.9316
-17.5089 -0.9755 -2.3972 0.9317
-17.4999 -1.0837 -2.3968 0.9317
-17.4903 -1.1917 -2.3965 0.9317
-17.4574 -1.5153 -2.3954 0.9317
-17.4451 -1.6230 -2.3951 0.9317
-17.4321 -1.7305 -2.3947 0.9317
-17.3894 -2.0528 -2.3936 0.9317
-17.3737 -2.1599 -2.3933 0.9318
-17.3575 -2.2670 -2.3929 0.9318
-17.3230 -2.4808 -2.3922 0.9318
-17.3048 -2.5875 -2.3919 0.9318
-17.2664 -2.8005 -2.3912 0.9318
-17.2463 -2.9068 -2.3908 0.9318
-17.1819 -3.2249 -2.3898 0.9319
-17.1591 -3.3305 -2.3894 0.9319
-17.1357 -3.4361 -2.3891 0.9319
-17.1116 -3.5415 -2.3887 0.9319
-17.0869 -3.6467 -2.3884 0.9319
-17.0615 -3.7518 -2.3880 0.9319
-17.0356 -3.8566 -2.3877 0.9319
-16.9816 -4.0659 -2.3870 0.9319
-16.9537 -4.1702 -2.3867 0.9319
-16.9252 -4.2743 -2.3863 0.9320
-16.8960 -4.3783 -2.3860 0.9320
-16.8358 -4.5857 -2.3853 0.9320
-16.8047 -4.6890 -2.3850 0.9320
-16.7406 -4.8951 -2.3843 0.9320
-16.6399 -5.2026 -2.3833 0.9320
-16.5696 -5.4065 -2.3826 0.9321
-16.5335 -5.5081 -2.3823 0.9321
-16.4968 -5.6094 -2.3819 0.9321
-16.3831 -5.9120 -2.3809 0.9321
-16.2638 -6.2124 -2.3799 0.9321
-16.2228 -6.3120 -2.3796 0.9321
-16.1812 -6.4112 -2.3793 0.9321
-16.0530 -6.7076 -2.3783 0.9322
-16.0090 -6.8058 -2.3780 0.9322
-15.9644 -6.9037 -2.3777 0.9322
-15.8736 -7.0987 -2.3770 0.9322
-15.8272 -7.1959 -2.3767 0.9322
-15.7328 -7.3891 -2.3761 0.9322
-15.6847 -7.4852 -2.3758 0.9322
-15.6360 -7.5811 -2.3754 0.9323
-15.5868 -7.6766 -2.3751 0.9323
-15.5370 -7.7719 -2.3748 0.9323
-15.4356 -7.9613 -2.3742 0.9323
-15.3841 -8.0556 -2.3739 0.9323
-15.3320 -8.1495 -2.3736 0.9323
-15.2793 -8.2431 -2.3733 0.9323
-15.2261 -8.3363 -2.3730 0.9323
-15.1179 -8.5218 -2.3723 0.9323
-15.0630 -8.6141 -2.3720 0.9323
-14.8949 -8.8886 -2.3711 0.9324
-14.7219 -9.1600 -2.3702 0.9324
-14.6038 -9.3390 -2.3697 0.9324
-14.5440 -9.4280 -2.3694 0.9324
-14.3613 -9.6926 -2.3685 0.9324
-14.2994 -9.7801 -2.3682 0.9324
-14.2369 -9.8671 -2.3679 0.9325
-14.1104 -10.0400 -2.3673 0.9325
-13.9167 -10.2964 -2.3665 0.9325
-13.7851 -10.4653 -2.3659 0.9325
-13.6514 -10.6325 -2.3654 0.9325
-13.5838 -10.7155 -2.3651 0.9325
-13.5158 -10.7980 -2.3649 0.9325
-13.4472 -10.8802 -2.3646 0.9325
-13.3781 -10.9619 -2.3643 0.9326
-13.3086 -11.0431 -2.3640 0.9326
-13.2385 -11.1240 -2.3638 0.9326
-13.0970 -11.2843 -2.3633 0.9326
-13.0255 -11.3639 -2.3630 0.9326
-12.9536 -11.4430 -2.3627 0.9326
-12.8812 -11.5216 -2.3625 0.9326
-12.8083 -11.5997 -2.3622 0.9326
-12.7349 -11.6775 -2.3620 0.9326
-12.6611 -11.7547 -2.3617 0.9326
-12.5868 -11.8316 -2.3615 0.9326
-12.5121 -11.9079 -2.3612 0.9326
-12.2086 -12.2086 -2.3602 0.9327
-12.0542 -12.3561 -2.3597 0.9327
-11.8980 -12.5017 -2.3592 0.9327
-11.6606 -12.7165 -2.3585 0.9327
-11.5805 -12.7871 -2.3583 0.9327
-11.4193 -12.9269 -2.3578 0.9327
-11.2564 -13.0646 -2.3574 0.9327
-11.0918 -13.2003 -2.3569 0.9328
-11.0090 -13.2674 -2.3567 0.9328
-10.9257 -13.3342 -2.3565 0.9328
-10.8420 -13.4001 -2.3563 0.9328
-10.6735 -13.5307 -2.3559 0.9328
-10.5886 -13.5952 -2.3557 0.9328
-10.1588 -13.9100 -2.3546 0.9328
-10.0717 -13.9713 -2.3544 0.9328
-9.9843 -14.0321 -2.3542 0.9328
-9.8965 -14.0924 -2.3540 0.9328
-9.8083 -14.1522 -2.3538 0.9328
-9.7198 -14.2114 -2.3536 0.9329
-9.5418 -14.3282 -2.3532 0.9329
-9.1815 -14.5552 -2.3525 0.9329
-8.5386 -14.9310 -2.3513 0.9329
-8.2583 -15.0836 -2.3508 0.9329
-8.0700 -15.1825 -2.3504 0.9329
-7.5943 -15.4197 -2.3497 0.9330
-7.4983 -15.4654 -2.3495 0.9330
-7.4020 -15.5105 -2.3494 0.9330
-7.3055 -15.5550 -2.3492 0.9330
-7.2087 -15.5989 -2.3491 0.9330
-7.0144 -15.6850 -2.3488 0.9330
-6.9169 -15.7271 -2.3486 0.9330
-6.7210 -15.8097 -2.3484 0.9330
-6.6228 -15.8500 -2.3482 0.9330
-6.5243 -15.8898 -2.3481 0.9330
-6.2274 -16.0055 -2.3477 0.9330
-6.1279 -16.0429 -2.3476 0.9330
-6.0283 -16.0796 -2.3475 0.9330
-5.8284 -16.1513 -2.3472 0.9330
-5.4261 -16.2874 -2.3468 0.9330
-5.3250 -16.3199 -2.3467 0.9330
-5.0207 -16.4138 -2.3464 0.9331
-4.9188 -16.4438 -2.3463 0.9331
-4.8169 -16.4732 -2.3462 0.9331
-4.7147 -16.5020 -2.3461 0.9331
-4.3045 -16.6111 -2.3457 0.9331
-4.0984 -16.6619 -2.3456 0.9331
-3.9591 -16.5360 -2.3244 0.9337
-3.7882 -16.7334 -2.3453 0.9331
-3.6845 -16.7560 -2.3453 0.9331
-3.5807 -16.7779 -2.3452 0.9331
-3.1643 -16.8594 -2.3449 0.9331
-2.9554 -16.8964 -2.3448 0.9331
-2.7460 -16.9308 -2.3447 0.9331
-2.6412 -16.9471 -2.3446 0.9331
-2.5363 -16.9627 -2.3446 0.9331
-2.3262 -16.9921 -2.3445 0.9331
-2.1158 -17.0189 -2.3444 0.9331
-1.7996 -17.0544 -2.3443 0.9331
-1.5372 -16.5233 -2.2685 0.9352
-1.2714 -17.1008 -2.3441 0.9331
-1.0598 -17.1149 -2.3441 0.9331
-0.9539 -17.1210 -2.3441 0.9331
-0.3181 -17.1440 -2.3440 0.9331
-0.0000 -17.1469 -2.3440 0.9331
0.1060 -17.1466 -2.3440 0.9331
0.4241 -17.1418 -2.3440 0.9331
0.5301 -17.1390 -2.3440 0.9331
0.6361 -17.1354 -2.3440 0.9331
0.9539 -17.1210 -2.3441 0.9331
1.0598 -17.1150 -2.3441 0.9331
1.1656 -17.1082 -2.3441 0.9331
1.2714 -17.1009 -2.3441 0.9331
1.4828 -17.0842 -2.3442 0.9331
1.5885 -17.0749 -2.3442 0.9331
1.7996 -17.0545 -2.3443 0.9331
1.9051 -17.0433 -2.3443 0.9331
2.1158 -17.0191 -2.3444 0.9331
2.2210 -17.0060 -2.3445 0.9331
2.4313 -16.9779 -2.3446 0.9331
2.5363 -16.9629 -2.3446 0.9331
2.6412 -16.9472 -2.3447 0.9331
3.2686 -16.8401 -2.3450 0.9331
3.4768 -16.7994 -2.3451 0.9331
3.8918 -16.7104 -2.3454 0.9331
3.9952 -16.6865 -2.3455 0.9331
4.0984 -16.6621 -2.3456 0.9331
4.3045 -16.6113 -2.3458 0.9331
4.4073 -16.5850 -2.3459 0.9331
4.5099 -16.5580 -2.3459 0.9331
4.8169 -16.4735 -2.3462 0.9331
5.2238 -16.3521 -2.3466 0.9330
5.6277 -16.2209 -2.3471 0.9330
5.8285 -16.1516 -2.3473 0.9330
5.9285 -16.1161 -2.3474 0.9330
6.0284 -16.0799 -2.3475 0.9330
6.2274 -16.0058 -2.3478 0.9330
6.4256 -15.9293 -2.3480 0.9330
6.5244 -15.8901 -2.3482 0.9330
6.8192 -15.7690 -2.3486 0.9330
7.0145 -15.6853 -2.3488 0.9330
7.4984 -15.4657 -2.3496 0.9330
7.5944 -15.4201 -2.3497 0.9330
8.1645 -15.1337 -2.3507 0.9329
8.3522 -15.0337 -2.3510 0.9329
8.4456 -14.9828 -2.3511 0.9329
8.7241 -14.8268 -2.3517 0.9329
8.8162 -14.7737 -2.3518 0.9329
8.9996 -14.6658 -2.3522 0.9329
9.1818 -14.5556 -2.3526 0.9329
9.2723 -14.4997 -2.3527 0.9329
9.6312 -14.2704 -2.3535 0.9329
9.8086 -14.1526 -2.3539 0.9328
9.9846 -14.0326 -2.3543 0.9328
10.0720 -13.9717 -2.3545 0.9328
10.2458 -13.8485 -2.3549 0.9328
10.3322 -13.7861 -2.3551 0.9328
10.4181 -13.7231 -2.3553 0.9328
10.5890 -13.5956 -2.3557 0.9328
10.6738 -13.5311 -2.3559 0.9328
10.8423 -13.4005 -2.3564 0.9328
10.9260 -13.3344 -2.3566 0.9328
11.0093 -13.2679 -2.3568 0.9328
11.0922 -13.2008 -2.3570 0.9328
11.1746 -13.1331 -2.3573 0.9328
11.2567 -13.0651 -2.3575 0.9327
11.4197 -12.9273 -2.3579 0.9327
11.6609 -12.7169 -2.3586 0.9327
11.8197 -12.5742 -2.3591 0.9327
11.8984 -12.5022 -2.3593 0.9327
11.9767 -12.4296 -2.3596 0.9327
12.0546 -12.3566 -2.3598 0.9327
12.1320 -12.2830 -2.3601 0.9327
12.2090 -12.2091 -2.3603 0.9327
12.4373 -11.9842 -2.3610 0.9326
12.5125 -11.9084 -2.3613 0.9326
12.7354 -11.6779 -2.3620 0.9326
13.0260 -11.3643 -2.3631 0.9326
13.0975 -11.2848 -2.3633 0.9326
13.1685 -11.2048 -2.3636 0.9326
13.3091 -11.0436 -2.3641 0.9326
13.3786 -10.9623 -2.3644 0.9326
13.5163 -10.7985 -2.3649 0.9325
13.6520 -10.6329 -2.3655 0.9325
13.7190 -10.5495 -2.3658 0.9325
13.7856 -10.4657 -2.3660 0.9325
14.1110 -10.0404 -2.3674 0.9325
14.1745 -9.9542 -2.3677 0.9325
14.2375 -9.8676 -2.3680 0.9325
14.3000 -9.7804 -2.3683 0.9324
14.3619 -9.6931 -2.3686 0.9324
14.4234 -9.6052 -2.3689 0.9324
14.6045 -9.3394 -2.3698 0.9324
14.6638 -9.2501 -2.3701 0.9324
14.7225 -9.1604 -2.3703 0.9324
14.7807 -9.0703 -2.3706 0.9324
14.8955 -8.8890 -2.3712 0.9324
14.9521 -8.7979 -2.3715 0.9324
15.0636 -8.6144 -2.3721 0.9323
15.1185 -8.5222 -2.3724 0.9323
15.1729 -8.4296 -2.3728 0.9323
15.2268 -8.3367 -2.3731 0.9323
15.2800 -8.2434 -2.3734 0.9323
15.5377 -7.7722 -2.3749 0.9323
15.6854 -7.4856 -2.3759 0.9322
15.7335 -7.3894 -2.3762 0.9322
15.8743 -7.0991 -2.3771 0.9322
15.9200 -7.0017 -2.3775 0.9322
15.9652 -6.9041 -2.3778 0.9322
16.0098 -6.8061 -2.3781 0.9322
16.0537 -6.7079 -2.3784 0.9322
16.1820 -6.4116 -2.3794 0.9321
16.2646 -6.2127 -2.3801 0.9321
16.3049 -6.1128 -2.3804 0.9321
16.3447 -6.0127 -2.3807 0.9321
16.4603 -5.7108 -2.3817 0.9321
16.4976 -5.6097 -2.3820 0.9321
16.5704 -5.4068 -2.3827 0.9320
16.6749 -5.1006 -2.3837 0.9320
16.7415 -4.8953 -2.3844 0.9320
16.7738 -4.7923 -2.3847 0.9320
16.8366 -4.5858 -2.3854 0.9320
16.8670 -4.4823 -2.3858 0.9320
16.9260 -4.2746 -2.3864 0.9319
17.0364 -3.8568 -2.3878 0.9319
17.0877 -3.6469 -2.3885 0.9319
17.1365 -3.4363 -2.3892 0.9319
17.1827 -3.2250 -2.3899 0.9319
17.2048 -3.1191 -2.3903 0.9318
17.2673 -2.8006 -2.3913 0.9318
17.2868 -2.6942 -2.3917 0.9318
17.3239 -2.4809 -2.3924 0.9318
17.3584 -2.2671 -2.3931 0.9318
17.3746 -2.1601 -2.3934 0.9318
17.3902 -2.0529 -2.3938 0.9317
17.4052 -1.9456 -2.3941 0.9317
17.4699 -1.4076 -2.3959 0.9317
17.5098 -0.9756 -2.3973 0.9316
17.5181 -0.8674 -2.3977 0.9316
17.5257 -0.7592 -2.3980 0.9316
17.5327 -0.6509 -2.3984 0.9316
17.5446 -0.4341 -2.3991 0.9316
17.5575 -0.1086 -2.4002 0.9316
17.5604 -0.0000 -2.4005 0.9316
17.5643 0.2172 -2.4012 0.9315
17.5653 0.3259 -2.4016 0.9315
17.5651 0.5433 -2.4023 0.9315
17.5640 0.6520 -2.4027 0.9315
17.5623 0.7607 -2.4030 0.9315
17.5530 1.0869 -2.4041 0.9315
17.5485 1.1956 -2.4045 0.9315
17.5240 1.6303 -2.4059 0.9314
17.5162 1.7389 -2.4063 0.9314
17.5077 1.8474 -2.4066 0.9314
17.4782 2.1729 -2.4077 0.9314
17.4671 2.2812 -2.4080 0.9314
17.4552 2.3896 -2.4084 0.9313
17.3858 2.9303 -2.4102 0.9313
17.3699 3.0382 -2.4105 0.9313
17.3534 3.1460 -2.4109 0.9313
17.3361 3.2537 -2.4112 0.9313
17.2804 3.5763 -2.4123 0.9312
17.1741 4.1119 -2.4141 0.9312
17.1508 4.2187 -2.4144 0.9312
7.4515 1.9309 -1.0523 0.9694
6.8585 1.9137 -0.9734 0.9717
6.6801 1.9085 -0.9497 0.9723
6.5101 1.9036 -0.9272 0.9730
6.3474 1.8987 -0.9057 0.9736
6.1912 1.8938 -0.8851 0.9742
5.8992 1.8845 -0.8466 0.9753
5.6315 1.8761 -0.8114 0.9763
5.1575 1.8611 -0.7495 0.9781
4.8467 1.8513 -0.7092 0.9793
4.6580 1.8456 -0.6849 0.9800
4.5698 1.8434 -0.6736 0.9803
4.4020 1.8393 -0.6522 0.9809
4.3218 1.8373 -0.6420 0.9812
4.2441 1.8353 -0.6321 0.9815
4.1687 1.8334 -0.6225 0.9818
4.0241 1.8296 -0.6043 0.9823
3.9547 1.8276 -0.5955 0.9826
3.8873 1.8257 -0.5871 0.9828
3.7581 1.8221 -0.5709 0.9833
3.6961 1.8204 -0.5632 0.9835
3.6358 1.8187 -0.5557 0.9837
3.5198 1.8154 -0.5414 0.9841
3.4641 1.8139 -0.5345 0.9843
3.3566 1.8109 -0.5214 0.9847
3.2544 1.8080 -0.5089 0.9851
2.9747 1.8002 -0.4753 0.9861
2.9317 1.7990 -0.4702 0.9862
2.8078 1.7956 -0.4556 0.9866
2.7295 1.7934 -0.4465 0.9869
2.6914 1.7923 -0.4420 0.9870
2.6542 1.7913 -0.4377 0.9872
2.6176 1.7903 -0.4335 0.9873
2.5817 1.7893 -0.4294 0.9874
2.5465 1.7883 -0.4254 0.9875
2.4121 1.7846 -0.4102 0.9880
2.3484 1.7828 -0.4031 0.9882
2.1983 1.7787 -0.3866 0.9886
2.1416 1.7771 -0.3804 0.9888
2.1140 1.7763 -0.3775 0.9889
2.0867 1.7756 -0.3745 0.9890
2.0075 1.7734 -0.3662 0.9892
1.9818 1.7727 -0.3635 0.9893
1.9317 1.7713 -0.3583 0.9895
1.9071 1.7706 -0.3557 0.9895
1.8829 1.7699 -0.3533 0.9896
1.8590 1.7693 -0.3508 0.9897
1.8355 1.7686 -0.3484 0.9898
1.8123 1.7680 -0.3461 0.9898
1.7224 1.7655 -0.3372 0.9901
1.7006 1.7649 -0.3350 0.9902
1.6791 1.7643 -0.3329 0.9902
1.6579 1.7637 -0.3309 0.9903
1.6369 1.7631 -0.3289 0.9903
1.5167 1.7604 -0.3176 0.9907
1.4975 1.7600 -0.3159 0.9907
1.4786 1.7596 -0.3142 0.9908
1.4412 1.7589 -0.3108 0.9909
1.4046 1.7581 -0.3076 0.9910
1.3866 1.7578 -0.3061 0.9910
1.2822 1.7557 -0.2972 0.9913
1.2487 1.7550 -0.2944 0.9913
1.2159 1.7543 -0.2918 0.9914
1.1836 1.7537 -0.2892 0.9915
1.1676 1.7533 -0.2880 0.9915
1.1362 1.7527 -0.2855 0.9916
1.1052 1.7520 -0.2832 0.9917
1.0748 1.7514 -0.2809 0.9917
1.0448 1.7508 -0.2787 0.9918
1.0300 1.7505 -0.2776 0.9918
0.9862 1.7495 -0.2745 0.9919
0.9718 1.7492 -0.2735 0.9920
0.9152 1.7478 -0.2697 0.9921
0.8600 1.7462 -0.2661 0.9922
0.7931 1.7443 -0.2619 0.9923
0.7281 1.7425 -0.2582 0.9924
0.7026 1.7418 -0.2567 0.9924
0.6900 1.7414 -0.2561 0.9925
0.6401 1.7401 -0.2535 0.9925
0.6278 1.7398 -0.2528 0.9926
0.6156 1.7395 -0.2522 0.9926
0.5913 1.7389 -0.2511 0.9926
0.5792 1.7386 -0.2505 0.9926
0.5552 1.7380 -0.2494 0.9927
0.4961 1.7366 -0.2469 0.9927
0.4728 1.7360 -0.2460 0.9928
0.4612 1.7357 -0.2455 0.9928
0.4497 1.7354 -0.2451 0.9928
0.4382 1.7351 -0.2446 0.9928
0.4039 1.7343 -0.2434 0.9928
0.3926 1.7340 -0.2430 0.9928
0.3587 1.7332 -0.2419 0.9929
0.3475 1.7329 -0.2416 0.9929
0.3029 1.7318 -0.2403 0.9929
0.2918 1.7315 -0.2400 0.9929
0.2808 1.7312 -0.2398 0.9929
0.2698 1.7310 -0.2395 0.9930
0.2588 1.7307 -0.2392 0.9930
0.2478 1.7304 -0.2390 0.9930
0.2259 1.7299 -0.2385 0.9930
0.2041 1.7293 -0.2380 0.9930
0.1933 1.7290 -0.2378 0.9930
0.1824 1.7288 -0.2376 0.9930
0.1284 1.7274 -0.2368 0.9930
0.0855 1.7263 -0.2363 0.9930
0.0748 1.7260 -0.2362 0.9930
0.0427 1.7252 -0.2359 0.9931
0.0320 1.7249 -0.2358 0.9931
0.0107 1.7244 -0.2357 0.9931
-0.0320 1.7232 -0.2356 0.9931
-0.0533 1.7227 -0.2356 0.9931
-0.0639 1.7224 -0.2356 0.9931
-0.0959 1.7216 -0.2357 0.9931
-0.1066 1.7213 -0.2357 0.9931
-0.1173 1.7210 -0.2358 0.9931
-0.1279 1.7207 -0.2359 0.9931
-0.1493 1.7201 -0.2360 0.9931
-0.2029 1.7187 -0.2366 0.9930
-0.2244 1.7181 -0.2369 0.9930
-0.2352 1.7179 -0.2370 0.9930
-0.2460 1.7175 -0.2372 0.9930
-0.2676 1.7170 -0.2375 0.9930
-0.3111 1.7158 -0.2384 0.9930
-0.3220 1.7155 -0.2386 0.9930
-0.3439 1.7149 -0.2391 0.9930
-0.3549 1.7146 -0.2394 0.9930
-0.3769 1.7140 -0.2399 0.9929
-0.3990 1.7134 -0.2405 0.9929
-0.4213 1.7128 -0.2411 0.9929
-0.4325 1.7125 -0.2414 0.9929
-0.4549 1.7119 -0.2421 0.9929
-0.4662 1.7116 -0.2425 0.9929
-0.4775 1.7112 -0.2429 0.9929
-0.4888 1.7109 -0.2432 0.9928
-0.5002 1.7106 -0.2436 0.9928
-0.5230 1.7100 -0.2444 0.9928
-0.5345 1.7096 -0.2449 0.9928
-0.5461 1.7093 -0.2453 0.9928
-0.5576 1.7090 -0.2457 0.9928
-0.5692 1.7087 -0.2462 0.9928
-0.5809 1.7084 -0.2467 0.9927
-0.5926 1.7080 -0.2471 0.9927
-0.6161 1.7074 -0.2481 0.9927
-0.6280 1.7071 -0.2486 0.9927
-0.6398 1.7067 -0.2492 0.9927
-0.6518 1.7064 -0.2497 0.9927
-0.6638 1.7060 -0.2502 0.9926
-0.6879 1.7054 -0.2514 0.9926
-0.7001 1.7050 -0.2520 0.9926
-0.7123 1.7047 -0.2526 0.9926
-0.7245 1.7043 -0.2532 0.9926
-0.7369 1.7040 -0.2538 0.9925
-0.7868 1.7025 -0.2564 0.9925
-0.7994 1.7022 -0.2571 0.9924
-0.8122 1.7018 -0.2578 0.9924
-0.8378 1.7011 -0.2592 0.9924
-0.8507 1.7007 -0.2600 0.9924
-0.9032 1.6992 -0.2631 0.9923
-0.9299 1.6984 -0.2647 0.9922
-0.9434 1.6980 -0.2655 0.9922
-0.9569 1.6977 -0.2664 0.9922
-0.9706 1.6972 -0.2673 0.9921
-0.9843 1.6968 -0.2682 0.9921
-0.9982 1.6964 -0.2691 0.9921
-1.0121 1.6960 -0.2700 0.9921
-1.0261 1.6956 -0.2709 0.9920
-1.0403 1.6952 -0.2719 0.9920
-1.0688 1.6944 -0.2739 0.9919
-1.0833 1.6940 -0.2749 0.9919
-1.0978 1.6935 -0.2759 0.9919
-1.1272 1.6927 -0.2780 0.9918
-1.1421 1.6922 -0.2791 0.9918
-1.1571 1.6918 -0.2802 0.9918
-1.1722 1.6913 -0.2813 0.9917
-1.1875 1.6909 -0.2825 0.9917
-1.2339 1.6895 -0.2860 0.9916
-1.2497 1.6890 -0.2872 0.9916
-1.2655 1.6886 -0.2885 0.9915
-1.2977 1.6876 -0.2910 0.9914
-1.3471 1.6862 -0.2950 0.9913
-1.3639 1.6857 -0.2964 0.9913
-1.3979 1.6846 -0.2993 0.9912
-1.4325 1.6836 -0.3022 0.9911
-1.4679 1.6825 -0.3052 0.9910
-1.4858 1.6820 -0.3068 0.9910
-1.5223 1.6809 -0.3100 0.9909
-1.5595 1.6798 -0.3133 0.9908
-1.5785 1.6792 -0.3150 0.9907
-1.5976 1.6787 -0.3168 0.9907
-1.6169 1.6780 -0.3186 0.9906
-1.6365 1.6775 -0.3204 0.9906
-1.6966 1.6758 -0.3260 0.9904
-1.7592 1.6742 -0.3320 0.9902
-1.7805 1.6737 -0.3340 0.9902
-1.8240 1.6726 -0.3383 0.9901
-1.8462 1.6720 -0.3405 0.9900
-1.8687 1.6714 -0.3427 0.9899
-1.8915 1.6709 -0.3450 0.9899
-1.9377 1.6695 -0.3496 0.9897
-1.9852 1.6681 -0.3545 0.9896
-12.2129 10.1339 -2.1694 0.9379
-12.9173 10.5842 -2.2829 0.9348
-12.9810 10.5029 -2.2826 0.9348
-13.0441 10.4212 -2.2823 0.9348
-13.4121 9.9229 -2.2807 0.9349
-13.5305 9.7539 -2.2801 0.9349
-13.5889 9.6689 -2.2799 0.9349
-13.6467 9.5835 -2.2796 0.9349
-13.9278 9.1513 -2.2781 0.9349
-14.0363 8.9761 -2.2776 0.9349
-14.0898 8.8879 -2.2773 0.9350
-15.1014 9.3960 -2.4314 0.9307
-15.1573 9.3013 -2.4310 0.9307
-15.2126 9.2062 -2.4307 0.9307
-15.2673 9.1107 -2.4304 0.9307
-15.5825 8.5314 -2.4285 0.9308
-15.6329 8.4338 -2.4282 0.9308
-15.6827 8.3358 -2.4279 0.9308
-15.8282 8.0402 -2.4269 0.9308
-15.9222 7.8417 -2.4262 0.9309
-16.0584 7.5419 -2.4252 0.9309
-16.1025 7.4414 -2.4249 0.9309
-16.2727 7.0370 -2.4236 0.9309
-16.3540 6.8333 -2.4229 0.9309
-16.3936 6.7311 -2.4226 0.9310
-16.4710 6.5260 -2.4219 0.9310
-16.5458 6.3200 -2.4212 0.9310
-16.6532 6.0095 -2.4202 0.9310
-16.6877 5.9056 -2.4199 0.9310
-16.7872 5.5925 -2.4188 0.9311
-16.8191 5.4879 -2.4185 0.9311
-16.8808 5.2779 -2.4178 0.9311
-16.9685 4.9617 -2.4167 0.9311
-16.9965 4.8559 -2.4164 0.9311
-17.0237 4.7501 -2.4160 0.9311
-17.0503 4.6440 -2.4157 0.9311
-17.0762 4.5379 -2.4153 0.9312
-17.1260 4.3250 -2.4146 0.9312
-17.2177 3.8978 -2.4132 0.9312
-17.2390 3.7907 -2.4129 0.9312
-17.2596 3.6835 -2.4125 0.9312
-17.3173 3.3612 -2.4115 0.9313
-17.3525 3.1458 -2.4108 0.9313
-17.4147 2.7140 -2.4093 0.9313
-17.4286 2.6059 -2.4090 0.9313
-17.4662 2.2811 -2.4079 0.9314
-17.4878 2.0643 -2.4072 0.9314
-17.4977 1.9558 -2.4068 0.9314
-17.5231 1.6302 -2.4058 0.9314
-17.5303 1.5215 -2.4054 0.9314
-17.5368 1.4129 -2.4051 0.9314
-17.5425 1.3042 -2.4047 0.9314
-17.5590 0.8694 -2.4033 0.9315
-17.5646 0.4346 -2.4018 0.9315
-17.5643 0.3259 -2.4015 0.9315
-17.5618 0.1085 -2.4008 0.9316
-16.6381 -0.0000 -2.4004 0.9350
-16.6354 -0.1029 -2.4001 0.9350
-16.6184 -0.5140 -2.3987 0.9350
-16.6061 -0.7193 -2.3980 0.9350
-16.5912 -0.9244 -2.3974 0.9350
-16.5739 -1.1293 -2.3967 0.9351
-16.5642 -1.2315 -2.3963 0.9351
-16.5431 -1.4359 -2.3957 0.9351
-16.5194 -1.6400 -2.3950 0.9351
-16.5067 -1.7418 -2.3947 0.9351
-16.4792 -1.9453 -2.3940 0.9351
-16.4334 -2.2498 -2.3930 0.9352
-16.4169 -2.3511 -2.3927 0.9352
-16.3998 -2.4522 -2.3923 0.9352
-16.3447 -2.7548 -2.3913 0.9352
-16.3048 -2.9559 -2.3907 0.9352
-16.2840 -3.0563 -2.3903 0.9352
-16.2625 -3.1565 -2.3900 0.9352
-16.2178 -3.3565 -2.3893 0.9353
-15.9282 -4.4444 -2.3858 0.9354
-15.8982 -4.5422 -2.3854 0.9354
-15.8677 -4.6398 -2.3851 0.9354
-15.8366 -4.7372 -2.3848 0.9354
-15.7726 -4.9314 -2.3842 0.9354
-15.6721 -5.2211 -2.3832 0.9354
-15.6022 -5.4131 -2.3826 0.9354
-15.5299 -5.6042 -2.3819 0.9355
-15.4172 -5.8890 -2.3810 0.9355
-15.3392 -6.0777 -2.3804 0.9355
-15.2589 -6.2653 -2.3798 0.9355
-15.2179 -6.3587 -2.3795 0.9355
-15.1763 -6.4518 -2.3792 0.9355
-15.1342 -6.5447 -2.3789 0.9355
-15.0044 -6.8217 -2.3779 0.9356
-14.9601 -6.9136 -2.3776 0.9356
-14.9151 -7.0050 -2.3773 0.9356
-14.8696 -7.0962 -2.3770 0.9356
-14.7770 -7.2778 -2.3764 0.9356
-14.7299 -7.3681 -2.3761 0.9356
-14.6822 -7.4581 -2.3758 0.9356
-14.6340 -7.5479 -2.3756 0.9356
-14.4861 -7.8151 -2.3747 0.9356
-14.4357 -7.9037 -2.3744 0.9357
-14.3848 -7.9917 -2.3741 0.9357
-14.2814 -8.1671 -2.3735 0.9357
-14.0137 -8.5995 -2.3721 0.9357
-13.9029 -8.7701 -2.3715 0.9357
-13.7330 -9.0234 -2.3707 0.9357
-13.6172 -9.1904 -2.3701 0.9358
-13.3189 -9.6015 -2.3688 0.9358
-13.1962 -9.7633 -2.3683 0.9358
-13.0715 -9.9236 -2.3677 0.9358
-13.0085 -10.0031 -2.3675 0.9358
-12.9449 -10.0822 -2.3672 0.9358
-12.8809 -10.1610 -2.3670 0.9358
-12.8165 -10.2394 -2.3667 0.9359
-12.6861 -10.3948 -2.3662 0.9359
-12.4198 -10.7009 -2.3652 0.9359
-12.3521 -10.7763 -2.3649 0.9359
-12.2839 -10.8514 -2.3647 0.9359
-12.2153 -10.9260 -2.3644 0.9359
-12.0768 -11.0740 -2.3639 0.9359
-11.8656 -11.2927 -2.3632 0.9359
-11.7227 -11.4363 -2.3628 0.9360
-11.5781 -11.5781 -2.3623 0.9360
-11.5052 -11.6484 -2.3621 0.9360
-11.1342 -11.9927 -2.3609 0.9360
-11.0588 -12.0602 -2.3607 0.9360
-10.9829 -12.1273 -2.3605 0.9360
-10.9067 -12.1938 -2.3603 0.9360
-10.7531 -12.3255 -2.3598 0.9360
-10.1232 -12.8331 -2.3582 0.9361
-9.8809 -13.0154 -2.3576 0.9361
-9.7994 -13.0752 -2.3574 0.9361
-9.6354 -13.1932 -2.3570 0.9361
-9.5528 -13.2515 -2.3568 0.9361
-9.4699 -13.3092 -2.3566 0.9361
-9.3867 -13.3664 -2.3564 0.9361
-9.2192 -13.4794 -2.3560 0.9361
-9.1349 -13.5351 -2.3559 0.9361
-8.9655 -13.6450 -2.3555 0.9361
-8.8802 -13.6991 -2.3553 0.9362
-8.7088 -13.8058 -2.3550 0.9362
-8.3623 -14.0129 -2.3543 0.9362
-8.2749 -14.0634 -2.3541 0.9362
-8.1872 -14.1133 -2.3540 0.9362
-8.0992 -14.1627 -2.3538 0.9362
-7.7443 -14.3549 -2.3532 0.9362
-7.6549 -14.4015 -2.3530 0.9362
-7.5652 -14.4476 -2.3529 0.9362
-7.4752 -14.4933 -2.3527 0.9362
-7.3850 -14.5383 -2.3526 0.9362
-7.2945 -14.5828 -2.3524 0.9362
-7.2037 -14.6267 -2.3523 0.9362
-6.9299 -14.7552 -2.3518 0.9362
-6.7461 -14.8381 -2.3516 0.9362
-6.6538 -14.8787 -2.3514 0.9363
-6.5613 -14.9187 -2.3513 0.9363
-6.3756 -14.9971 -2.3510 0.9363
-6.2824 -15.0354 -2.3509 0.9363
-6.1890 -15.0731 -2.3508 0.9363
-6.0953 -15.1104 -2.3507 0.9363
-5.8131 -15.2186 -2.3503 0.9363
-5.6238 -15.2878 -2.3501 0.9363
-5.4338 -15.3548 -2.3499 0.9363
-5.3385 -15.3873 -2.3498 0.9363
-5.2430 -15.4194 -2.3497 0.9363
-5.1474 -15.4508 -2.3496 0.9363
-4.9554 -15.5120 -2.3494 0.9363
-4.8592 -15.5417 -2.3493 0.9363
-4.7628 -15.5708 -2.3492 0.9363
-4.6662 -15.5993 -2.3491 0.9363
-4.5695 -15.6273 -2.3490 0.9363
-4.4726 -15.6546 -2.3489 0.9363
-4.3756 -15.6814 -2.3488 0.9363
-4.2783 -15.7076 -2.3487 0.9363
-4.0834 -15.7582 -2.3486 0.9363
-3.8880 -15.8064 -2.3484 0.9363
-3.5937 -15.8744 -2.3482 0.9363
-3.0019 -15.9941 -2.3478 0.9363
-2.8037 -16.0292 -2.3477 0.9364
-2.6051 -16.0619 -2.3476 0.9364
-2.4061 -16.0922 -2.3475 0.9364
-2.3065 -16.1065 -2.3474 0.9364
-2.2068 -16.1201 -2.3474 0.9364
-1.9073 -16.1575 -2.3472 0.9364
-1.7073 -16.1793 -2.3472 0.9364
-1.6071 -16.1894 -2.3471 0.9364
-1.5070 -16.1987 -2.3471 0.9364
-1.4068 -16.2075 -2.3471 0.9364
-1.2062 -16.2233 -2.3470 0.9364
-0.9050 -16.2425 -2.3470 0.9364
-0.8045 -16.2477 -2.3470 0.9364
-0.7040 -16.2523 -2.3469 0.9364
-0.6035 -16.2562 -2.3469 0.9364
-0.0000 -16.2672 -2.3469 0.9364
0.1006 -16.2669 -2.3469 0.9364
0.3018 -16.2645 -2.3469 0.9364
0.6035 -16.2563 -2.3469 0.9364
0.7040 -16.2523 -2.3469 0.9364
0.9050 -16.2426 -2.3470 0.9364
1.0054 -16.2368 -2.3470 0.9364
1.2062 -16.2234 -2.3470 0.9364
1.8073 -16.1688 -2.3472 0.9364
2.1071 -16.1333 -2.3473 0.9364
2.3065 -16.1066 -2.3474 0.9364
2.6051 -16.0620 -2.3476 0.9364
2.7044 -16.0460 -2.3476 0.9364
2.8037 -16.0293 -2.3477 0.9364
3.0019 -15.9942 -2.3478 0.9363
3.1008 -15.9758 -2.3479 0.9363
3.1996 -15.9567 -2.3479 0.9363
3.3969 -15.9168 -2.3481 0.9363
3.4954 -15.8960 -2.3481 0.9363
3.6920 -15.8525 -2.3483 0.9363
3.8880 -15.8066 -2.3484 0.9363
3.9858 -15.7828 -2.3485 0.9363
4.1810 -15.7334 -2.3487 0.9363
4.2784 -15.7078 -2.3487 0.9363
4.3756 -15.6816 -2.3488 0.9363
4.4727 -15.6549 -2.3489 0.9363
4.6663 -15.5996 -2.3491 0.9363
4.7629 -15.5710 -2.3492 0.9363
4.8593 -15.5419 -2.3493 0.9363
5.1474 -15.4511 -2.3496 0.9363
5.2431 -15.4196 -2.3497 0.9363
5.5290 -15.3218 -2.3500 0.9363
5.9074 -15.1833 -2.3505 0.9363
6.0015 -15.1473 -2.3506 0.9363
6.0954 -15.1107 -2.3507 0.9363
6.3757 -14.9973 -2.3511 0.9363
6.4687 -14.9585 -2.3512 0.9363
6.5614 -14.9190 -2.3514 0.9363
6.6539 -14.8790 -2.3515 0.9363
6.7462 -14.8384 -2.3516 0.9362
6.9300 -14.7555 -2.3519 0.9362
7.0215 -14.7132 -2.3520 0.9362
7.1128 -14.6705 -2.3522 0.9362
7.5653 -14.4480 -2.3529 0.9362
7.7445 -14.3552 -2.3532 0.9362
7.8336 -14.3080 -2.3534 0.9362
8.0993 -14.1631 -2.3538 0.9362
8.2751 -14.0638 -2.3542 0.9362
8.4496 -13.9624 -2.3545 0.9362
8.5364 -13.9108 -2.3547 0.9362
8.6229 -13.8587 -2.3549 0.9362
8.8805 -13.6995 -2.3554 0.9361
8.9657 -13.6453 -2.3556 0.9361
9.2194 -13.4798 -2.3561 0.9361
9.4702 -13.3096 -2.3567 0.9361
9.5531 -13.2518 -2.3569 0.9361
9.6356 -13.1936 -2.3570 0.9361
9.8812 -13.0158 -2.3576 0.9361
9.9623 -12.9555 -2.3578 0.9361
10.0431 -12.8948 -2.3580 0.9361
10.1235 -12.8335 -2.3582 0.9361
10.2036 -12.7717 -2.3584 0.9361
10.2832 -12.7095 -2.3586 0.9361
10.3626 -12.6468 -2.3588 0.9361
10.4415 -12.5836 -2.3591 0.9361
10.5201 -12.5199 -2.3593 0.9360
10.5982 -12.4557 -2.3595 0.9360
10.7534 -12.3259 -2.3599 0.9360
10.9071 -12.1942 -2.3603 0.9360
10.9833 -12.1276 -2.3606 0.9360
11.2096 -11.9252 -2.3612 0.9360
11.2842 -11.8568 -2.3615 0.9360
11.3584 -11.7879 -2.3617 0.9360
11.5785 -11.5785 -2.3624 0.9360
11.6510 -11.5078 -2.3626 0.9360
11.7231 -11.4367 -2.3628 0.9360
11.8661 -11.2931 -2.3633 0.9359
12.0072 -11.1477 -2.3638 0.9359
12.0772 -11.0744 -2.3640 0.9359
12.1467 -11.0006 -2.3643 0.9359
12.3525 -10.7767 -2.3650 0.9359
12.4203 -10.7013 -2.3653 0.9359
12.4875 -10.6254 -2.3655 0.9359
12.5543 -10.5491 -2.3658 0.9359
12.6866 -10.3952 -2.3663 0.9359
12.7520 -10.3177 -2.3665 0.9359
13.0090 -10.0035 -2.3676 0.9358
13.0720 -9.9240 -2.3678 0.9358
13.1346 -9.8440 -2.3681 0.9358
13.3195 -9.6019 -2.3689 0.9358
13.4402 -9.4386 -2.3694 0.9358
13.5591 -9.2737 -2.3700 0.9358
13.6177 -9.1908 -2.3702 0.9358
13.6759 -9.1074 -2.3705 0.9358
13.7907 -8.9397 -2.3711 0.9357
13.8473 -8.8553 -2.3713 0.9357
13.9035 -8.7705 -2.3716 0.9357
14.0142 -8.5999 -2.3722 0.9357
14.0688 -8.5140 -2.3725 0.9357
14.1229 -8.4279 -2.3728 0.9357
14.1765 -8.3414 -2.3730 0.9357
14.5365 -7.7267 -2.3751 0.9356
14.5858 -7.6376 -2.3754 0.9356
14.6346 -7.5482 -2.3757 0.9356
14.7777 -7.2781 -2.3765 0.9356
14.8242 -7.1875 -2.3768 0.9356
14.9607 -6.9138 -2.3777 0.9356
15.0489 -6.7300 -2.3784 0.9355
15.0922 -6.6377 -2.3787 0.9355
15.1349 -6.5450 -2.3790 0.9355
15.1770 -6.4521 -2.3793 0.9355
15.2596 -6.2655 -2.3799 0.9355
15.3000 -6.1719 -2.3802 0.9355
15.3792 -5.9837 -2.3808 0.9355
15.4179 -5.8893 -2.3811 0.9355
15.4561 -5.7946 -2.3814 0.9355
15.5306 -5.6044 -2.3821 0.9355
15.5670 -5.5090 -2.3824 0.9354
15.6381 -5.3174 -2.3830 0.9354
15.6728 -5.2214 -2.3833 0.9354
15.7069 -5.1250 -2.3836 0.9354
15.7733 -4.9317 -2.3843 0.9354
15.8056 -4.8347 -2.3846 0.9354
15.8373 -4.7375 -2.3849 0.9354
15.9289 -4.4446 -2.3859 0.9354
16.0152 -4.1501 -2.3869 0.9353
16.0696 -3.9528 -2.3875 0.9353
16.0960 -3.8538 -2.3878 0.9353
16.2185 -3.3567 -2.3895 0.9353
16.3056 -2.9561 -2.3908 0.9352
16.3258 -2.8556 -2.3911 0.9352
16.4006 -2.4523 -2.3924 0.9352
16.4342 -2.2499 -2.3931 0.9352
16.4501 -2.1485 -2.3934 0.9352
16.4654 -2.0470 -2.3938 0.9351
16.4800 -1.9454 -2.3941 0.9351
16.5074 -1.7419 -2.3948 0.9351
16.5202 -1.6400 -2.3951 0.9351
16.5324 -1.5381 -2.3955 0.9351
16.5650 -1.2316 -2.3965 0.9351
16.5837 -1.0269 -2.3971 0.9351
16.5920 -0.9245 -2.3975 0.9350
16.5998 -0.8220 -2.3978 0.9350
16.6192 -0.5141 -2.3988 0.9350
16.6290 -0.3086 -2.3995 0.9350
16.6329 -0.2058 -2.3998 0.9350
16.6409 0.1029 -2.4009 0.9350
16.6432 0.4118 -2.4019 0.9349
16.6415 0.6177 -2.4026 0.9349
16.6373 0.8237 -2.4032 0.9349
16.6342 0.9268 -2.4036 0.9349
16.6305 1.0297 -2.4039 0.9349
16.6212 1.2357 -2.4046 0.9349
16.6093 1.4416 -2.4053 0.9348
16.6024 1.5445 -2.4056 0.9348
16.5949 1.6474 -2.4059 0.9348
16.5779 1.8530 -2.4066 0.9348
16.5584 2.0585 -2.4073 0.9348
16.5477 2.1612 -2.4076 0.9348
16.5243 2.3663 -2.4083 0.9348
16.5117 2.4688 -2.4087 0.9348
16.4984 2.5712 -2.4090 0.9347
16.4845 2.6736 -2.4093 0.9347
16.4699 2.7759 -2.4097 0.9347
16.4547 2.8781 -2.4100 0.9347
16.3693 3.3878 -2.4117 0.9347
16.3104 3.6924 -2.4127 0.9346
16.2895 3.7937 -2.4130 0.9346
16.2680 3.8949 -2.4133 0.9346
16.2458 3.9960 -2.4137 0.9346
7.4569 1.9323 -1.1114 0.9693
7.2485 1.9262 -1.0821 0.9701
6.7046 1.9155 -1.0060 0.9722
6.3516 1.8999 -0.9565 0.9736
6.1949 1.8949 -0.9346 0.9742
6.0455 1.8902 -0.9138 0.9747
5.9026 1.8856 -0.8940 0.9753
5.7657 1.8813 -0.8750 0.9758
5.2718 1.8656 -0.8068 0.9777
5.1601 1.8621 -0.7914 0.9781
4.9489 1.8554 -0.7625 0.9789
4.8490 1.8522 -0.7489 0.9792
4.6596 1.8462 -0.7231 0.9799
4.5699 1.8434 -0.7109 0.9803
4.4846 1.8414 -0.6994 0.9806
4.4020 1.8394 -0.6883 0.9809
4.3220 1.8374 -0.6776 0.9812
4.2445 1.8355 -0.6672 0.9815
4.1690 1.8336 -0.6571 0.9818
3.9559 1.8281 -0.6287 0.9825
3.8884 1.8262 -0.6198 0.9828
3.8228 1.8243 -0.6111 0.9830
3.7591 1.8226 -0.6027 0.9833
3.6367 1.8191 -0.5867 0.9837
3.3574 1.8113 -0.5504 0.9847
3.3057 1.8099 -0.5437 0.9849
3.2551 1.8084 -0.5372 0.9851
3.2058 1.8071 -0.5309 0.9852
3.1576 1.8057 -0.5248 0.9854
3.0644 1.8031 -0.5130 0.9857
2.9754 1.8006 -0.5017 0.9860
2.9323 1.7994 -0.4964 0.9862
2.8488 1.7971 -0.4860 0.9865
2.8084 1.7959 -0.4809 0.9866
2.7688 1.7949 -0.4760 0.9868
2.7300 1.7937 -0.4713 0.9869
2.6920 1.7927 -0.4666 0.9870
2.6547 1.7917 -0.4621 0.9871
2.6181 1.7906 -0.4576 0.9873
2.5822 1.7896 -0.4533 0.9874
2.5470 1.7887 -0.4490 0.9875
2.5125 1.7877 -0.4449 0.9876
2.4785 1.7868 -0.4408 0.9877
2.4452 1.7858 -0.4368 0.9878
2.4125 1.7849 -0.4330 0.9879
2.3178 1.7823 -0.4218 0.9883
2.2872 1.7814 -0.4183 0.9884
2.2277 1.7798 -0.4114 0.9885
2.1701 1.7782 -0.4048 0.9887
2.1143 1.7766 -0.3984 0.9889
2.0603 1.7751 -0.3923 0.9891
2.0338 1.7744 -0.3894 0.9892
2.0078 1.7737 -0.3865 0.9892
1.9569 1.7722 -0.3809 0.9894
1.9320 1.7716 -0.3782 0.9895
1.9074 1.7709 -0.3755 0.9895
1.8832 1.7702 -0.3729 0.9896
1.8358 1.7689 -0.3678 0.9898
1.7896 1.7676 -0.3629 0.9899
1.7670 1.7670 -0.3605 0.9900
1.7447 1.7664 -0.3582 0.9900
1.7226 1.7658 -0.3559 0.9901
1.6372 1.7634 -0.3472 0.9903
1.5960 1.7623 -0.3430 0.9904
1.5758 1.7617 -0.3410 0.9905
1.5558 1.7612 -0.3390 0.9905
1.5165 1.7601 -0.3352 0.9907
1.4972 1.7596 -0.3333 0.9907
1.4781 1.7590 -0.3315 0.9908
1.4592 1.7585 -0.3297 0.9908
1.4220 1.7575 -0.3262 0.9909
1.3678 1.7562 -0.3212 0.9910
1.3327 1.7555 -0.3180 0.9911
1.2983 1.7548 -0.3149 0.9912
1.2814 1.7545 -0.3134 0.9913
1.2646 1.7542 -0.3120 0.9913
1.1989 1.7529 -0.3064 0.9915
1.1828 1.7525 -0.3050 0.9915
1.1354 1.7516 -0.3011 0.9916
1.1045 1.7509 -0.2987 0.9917
1.0892 1.7506 -0.2975 0.9917
1.0741 1.7503 -0.2963 0.9917
1.0590 1.7500 -0.2951 0.9918
1.0293 1.7494 -0.2928 0.9918
1.0001 1.7487 -0.2906 0.9919
0.9856 1.7485 -0.2896 0.9919
0.9712 1.7481 -0.2885 0.9920
0.9428 1.7476 -0.2865 0.9920
0.8326 1.7447 -0.2789 0.9922
0.8059 1.7439 -0.2772 0.9923
0.7927 1.7436 -0.2763 0.9923
0.7796 1.7432 -0.2755 0.9923
0.7665 1.7428 -0.2747 0.9923
0.7535 1.7425 -0.2739 0.9924
0.7150 1.7414 -0.2716 0.9924
0.7023 1.7410 -0.2708 0.9924
0.6399 1.7395 -0.2674 0.9925
0.6276 1.7391 -0.2667 0.9926
0.6154 1.7389 -0.2661 0.9926
0.6032 1.7386 -0.2655 0.9926
0.5911 1.7383 -0.2649 0.9926
0.5790 1.7380 -0.2643 0.9926
0.5670 1.7377 -0.2637 0.9926
0.5550 1.7374 -0.2631 0.9927
0.5431 1.7371 -0.2626 0.9927
0.5313 1.7368 -0.2620 0.9927
0.5195 1.7365 -0.2615 0.9927
0.4960 1.7360 -0.2605 0.9927
0.4843 1.7357 -0.2600 0.9927
0.4611 1.7351 -0.2590 0.9928
0.4266 1.7343 -0.2577 0.9928
0.4038 1.7337 -0.2568 0.9928
0.3924 1.7334 -0.2564 0.9928
0.3698 1.7329 -0.2556 0.9929
0.3586 1.7326 -0.2553 0.9929
0.3362 1.7320 -0.2545 0.9929
0.3250 1.7318 -0.2542 0.9929
0.3028 1.7312 -0.2536 0.9929
0.2917 1.7309 -0.2532 0.9929
0.2587 1.7301 -0.2524 0.9930
0.2477 1.7298 -0.2521 0.9930
0.2368 1.7296 -0.2519 0.9930
0.2259 1.7293 -0.2516 0.9930
0.2041 1.7287 -0.2511 0.9930
0.1932 1.7285 -0.2509 0.9930
0.1607 1.7276 -0.2503 0.9930
0.1284 1.7268 -0.2498 0.9930
0.1176 1.7265 -0.2497 0.9930
0.1069 1.7262 -0.2495 0.9930
0.0640 1.7252 -0.2491 0.9930
0.0533 1.7249 -0.2490 0.9930
0.0320 1.7243 -0.2488 0.9931
0.0213 1.7240 -0.2488 0.9931
0.0107 1.7238 -0.2487 0.9931
0.0000 1.7235 -0.2487 0.9931
-0.0107 1.7232 -0.2486 0.9931
-0.0320 1.7227 -0.2486 0.9931
-0.0426 1.7224 -0.2486 0.9931
-0.0639 1.7218 -0.2486 0.9931
-0.0746 1.7215 -0.2486 0.9931
-0.0852 1.7213 -0.2486 0.9931
-0.0959 1.7210 -0.2487 0.9931
-0.1065 1.7207 -0.2487 0.9931
-0.1172 1.7204 -0.2488 0.9931
-0.1386 1.7198 -0.2489 0.9931
-0.1493 1.7196 -0.2490 0.9930
-0.1599 1.7193 -0.2491 0.9930
-0.1706 1.7190 -0.2492 0.9930
-0.1814 1.7187 -0.2493 0.9930
-0.2136 1.7179 -0.2497 0.9930
-0.2243 1.7176 -0.2499 0.9930
-0.2351 1.7173 -0.2501 0.9930
-0.2459 1.7170 -0.2502 0.9930
-0.2783 1.7161 -0.2508 0.9930
-0.2892 1.7158 -0.2510 0.9930
-0.3219 1.7149 -0.2517 0.9930
-0.3328 1.7146 -0.2520 0.9930
-0.3438 1.7143 -0.2523 0.9930
-0.3768 1.7134 -0.2531 0.9929
-0.3878 1.7131 -0.2534 0.9929
-0.3989 1.7128 -0.2537 0.9929
-0.4100 1.7125 -0.2541 0.9929
-0.4212 1.7122 -0.2544 0.9929
-0.4773 1.7107 -0.2562 0.9928
-0.5229 1.7094 -0.2579 0.9928
-0.5344 1.7091 -0.2583 0.9928
-0.5459 1.7088 -0.2588 0.9928
-0.5574 1.7084 -0.2593 0.9928
-0.5807 1.7078 -0.2602 0.9927
-0.6396 1.7061 -0.2629 0.9927
-0.6635 1.7054 -0.2640 0.9926
-0.6756 1.7051 -0.2646 0.9926
-0.6877 1.7047 -0.2652 0.9926
-0.7243 1.7037 -0.2671 0.9925
-0.7490 1.7030 -0.2684 0.9925
-0.7739 1.7023 -0.2698 0.9925
-0.7992 1.7016 -0.2712 0.9924
-0.8375 1.7004 -0.2735 0.9924
-0.8504 1.7001 -0.2742 0.9923
-0.8634 1.6997 -0.2750 0.9923
-0.8896 1.6990 -0.2767 0.9923
-0.9028 1.6986 -0.2775 0.9923
-0.9430 1.6974 -0.2801 0.9922
-0.9566 1.6970 -0.2810 0.9922
-0.9702 1.6966 -0.2820 0.9921
-0.9978 1.6958 -0.2839 0.9921
-1.0117 1.6954 -0.2848 0.9921
-1.0258 1.6950 -0.2858 0.9920
-1.0399 1.6946 -0.2868 0.9920
-1.0541 1.6942 -0.2879 0.9920
-1.0829 1.6933 -0.2900 0.9919
-1.0974 1.6929 -0.2911 0.9919
-1.1120 1.6924 -0.2922 0.9918
-1.1268 1.6920 -0.2933 0.9918
-1.1417 1.6916 -0.2944 0.9918
-1.1566 1.6911 -0.2956 0.9918
-1.2023 1.6898 -0.2992 0.9917
-1.2178 1.6893 -0.3004 0.9916
-1.2334 1.6888 -0.3017 0.9916
-1.2810 1.6874 -0.3057 0.9915
-1.2972 1.6870 -0.3070 0.9914
-1.3633 1.6850 -0.3127 0.9913
-1.4145 1.6834 -0.3172 0.9912
-1.4319 1.6829 -0.3188 0.9911
-1.4673 1.6818 -0.3220 0.9910
-1.4852 1.6813 -0.3237 0.9910
-1.5034 1.6808 -0.3253 0.9909
-1.5218 1.6804 -0.3271 0.9909
-1.5782 1.6789 -0.3324 0.9907
-1.5974 1.6785 -0.3343 0.9907
-1.6564 1.6770 -0.3401 0.9905
-1.6765 1.6765 -0.3421 0.9905
-1.8023 1.6733 -0.3548 0.9901
-1.8464 1.6722 -0.3594 0.9900
-1.8915 1.6709 -0.3641 0.9899
-1.9377 1.6695 -0.3690 0.9897
-1.9851 1.6680 -0.3741 0.9896
-12.2295 10.0206 -2.2810 0.9381
-12.2899 9.9437 -2.2808 0.9381
-12.3497 9.8664 -2.2805 0.9381
-12.4091 9.7887 -2.2803 0.9381
-12.5264 9.6323 -2.2797 0.9381
-12.5843 9.5536 -2.2795 0.9381
-12.6417 9.4745 -2.2792 0.9381
-12.7550 9.3153 -2.2787 0.9382
-12.8662 9.1547 -2.2782 0.9382
-13.0293 8.9113 -2.2774 0.9382
-13.1354 8.7474 -2.2768 0.9382
-13.1876 8.6650 -2.2765 0.9382
-13.3915 8.3321 -2.2755 0.9382
-14.4047 8.7173 -2.4291 0.9342
-14.5586 8.4454 -2.4282 0.9342
-14.6088 8.3542 -2.4279 0.9342
-14.6583 8.2627 -2.4276 0.9343
-14.7073 8.1708 -2.4273 0.9343
-14.7557 8.0787 -2.4270 0.9343
-14.8035 7.9863 -2.4267 0.9343
-14.8508 7.8936 -2.4264 0.9343
-14.8974 7.8007 -2.4261 0.9343
-14.9435 7.7074 -2.4258 0.9343
-15.0338 7.5201 -2.4252 0.9343
-15.0781 7.4260 -2.4249 0.9343
-15.1218 7.3317 -2.4246 0.9343
-15.1649 7.2371 -2.4242 0.9343
-15.2074 7.1422 -2.4239 0.9344
-15.3715 6.7604 -2.4227 0.9344
-15.4498 6.5681 -2.4220 0.9344
-15.5258 6.3748 -2.4214 0.9344
-15.5629 6.2779 -2.4211 0.9344
-15.5994 6.1806 -2.4208 0.9344
-15.6352 6.0833 -2.4204 0.9344
-15.7051 5.8879 -2.4198 0.9345
-15.8052 5.5933 -2.4188 0.9345
-15.8690 5.3959 -2.4182 0.9345
-15.9302 5.1977 -2.4175 0.9345
-16.0174 4.8994 -2.4165 0.9345
-16.0452 4.7996 -2.4162 0.9346
-16.0725 4.6995 -2.4159 0.9346
-16.1248 4.4992 -2.4152 0.9346
-16.1749 4.2982 -2.4146 0.9346
-16.2451 3.9958 -2.4136 0.9346
-16.3096 3.6922 -2.4126 0.9347
-16.3869 3.2859 -2.4112 0.9347
-16.4046 3.1840 -2.4109 0.9347
-16.4381 2.9801 -2.4102 0.9347
-16.4837 2.6734 -2.4092 0.9347
-16.4976 2.5711 -2.4089 0.9347
-16.5109 2.4687 -2.4085 0.9348
-16.5355 2.2637 -2.4079 0.9348
-16.5677 1.9557 -2.4068 0.9348
-16.5941 1.6473 -2.4058 0.9348
-16.6148 1.3386 -2.4048 0.9349
-16.6297 1.0297 -2.4038 0.9349
-16.6365 0.8237 -2.4031 0.9349
-16.6407 0.6177 -2.4024 0.9349
-16.6419 0.5147 -2.4021 0.9349
-16.6424 0.4117 -2.4018 0.9349
-16.6423 0.3087 -2.4014 0.9349
-16.6415 0.2058 -2.4011 0.9350
-16.6401 0.1029 -2.4007 0.9350
-15.8068 -0.0000 -2.4004 0.9381
-15.8043 -0.0978 -2.4001 0.9381
-15.8013 -0.1955 -2.3998 0.9381
-15.7977 -0.2932 -2.3994 0.9381
-15.7886 -0.4884 -2.3988 0.9381
-15.7772 -0.6835 -2.3982 0.9381
-15.7555 -0.9756 -2.3972 0.9381
-15.7380 -1.1701 -2.3966 0.9381
-15.7283 -1.2672 -2.3962 0.9382
-15.7181 -1.3644 -2.3959 0.9382
-15.6838 -1.6550 -2.3950 0.9382
-15.6712 -1.7517 -2.3946 0.9382
-15.6442 -1.9449 -2.3940 0.9382
-15.6298 -2.0413 -2.3937 0.9382
-15.6148 -2.1377 -2.3934 0.9382
-15.5830 -2.3300 -2.3927 0.9382
-15.5489 -2.5220 -2.3921 0.9383
-15.4933 -2.8088 -2.3912 0.9383
-15.4736 -2.9042 -2.3908 0.9383
-15.4534 -2.9995 -2.3905 0.9383
-15.4110 -3.1895 -2.3899 0.9383
-15.3890 -3.2844 -2.3896 0.9383
-15.3195 -3.5679 -2.3887 0.9383
-15.1087 -4.3167 -2.3862 0.9384
-15.0797 -4.4094 -2.3859 0.9384
-15.0502 -4.5020 -2.3856 0.9384
-14.9896 -4.6867 -2.3850 0.9384
-14.9584 -4.7787 -2.3847 0.9384
-14.9267 -4.8704 -2.3844 0.9385
-14.8944 -4.9620 -2.3841 0.9385
-14.8616 -5.0534 -2.3838 0.9385
-14.8282 -5.1446 -2.3835 0.9385
-14.7246 -5.4167 -2.3826 0.9385
-14.6529 -5.5970 -2.3820 0.9385
-14.5789 -5.7764 -2.3814 0.9385
-14.5411 -5.8657 -2.3811 0.9385
-14.5028 -5.9548 -2.3808 0.9385
-14.4639 -6.0437 -2.3805 0.9385
-14.3845 -6.2206 -2.3799 0.9386
-14.3030 -6.3964 -2.3793 0.9386
-14.2614 -6.4840 -2.3791 0.9386
-14.2194 -6.5712 -2.3788 0.9386
-14.0899 -6.8314 -2.3779 0.9386
-13.9100 -7.1745 -2.3768 0.9386
-13.7697 -7.4287 -2.3759 0.9387
-13.7219 -7.5128 -2.3757 0.9387
-13.6736 -7.5966 -2.3754 0.9387
-13.6248 -7.6802 -2.3751 0.9387
-13.5754 -7.7634 -2.3748 0.9387
-13.4753 -7.9289 -2.3743 0.9387
-13.4245 -8.0112 -2.3740 0.9387
-13.3731 -8.0931 -2.3738 0.9387
-13.1629 -8.4176 -2.3727 0.9387
-13.0002 -8.6575 -2.3719 0.9388
-12.8331 -8.8942 -2.3711 0.9388
-12.7765 -8.9724 -2.3709 0.9388
-12.7194 -9.0503 -2.3706 0.9388
-12.6618 -9.1278 -2.3704 0.9388
-12.3067 -9.5851 -2.3689 0.9388
-12.2459 -9.6601 -2.3686 0.9388
-12.0609 -9.8825 -2.3679 0.9389
-11.9983 -9.9559 -2.3676 0.9389
-11.6789 -10.3169 -2.3664 0.9389
-11.6137 -10.3879 -2.3662 0.9389
-11.4821 -10.5287 -2.3657 0.9389
-11.4156 -10.5985 -2.3655 0.9389
-11.3488 -10.6678 -2.3653 0.9389
-11.2138 -10.8053 -2.3648 0.9389
-10.6579 -11.3383 -2.3631 0.9390
-10.5866 -11.4029 -2.3629 0.9390
-10.5149 -11.4672 -2.3627 0.9390
-10.4429 -11.5309 -2.3624 0.9390
-10.3705 -11.5943 -2.3622 0.9390
-10.2245 -11.7196 -2.3618 0.9390
-9.8531 -12.0250 -2.3608 0.9390
-9.7020 -12.1439 -2.3604 0.9390
-9.5495 -12.2610 -2.3600 0.9391
-9.4727 -12.3188 -2.3599 0.9391
-9.0838 -12.6008 -2.3589 0.9391
-9.0050 -12.6558 -2.3588 0.9391
-8.8464 -12.7643 -2.3584 0.9391
-8.6866 -12.8708 -2.3580 0.9391
-8.5255 -12.9754 -2.3577 0.9391
-8.4445 -13.0269 -2.3575 0.9391
-8.2815 -13.1285 -2.3572 0.9391
-8.1996 -13.1785 -2.3570 0.9391
-8.1174 -13.2280 -2.3569 0.9391
-7.8690 -13.3737 -2.3564 0.9392
-7.7020 -13.4682 -2.3561 0.9392
-7.4494 -13.6062 -2.3556 0.9392
-7.2796 -13.6955 -2.3553 0.9392
-7.1944 -13.7395 -2.3552 0.9392
-7.1088 -13.7828 -2.3550 0.9392
-6.8507 -13.9099 -2.3546 0.9392
-6.5903 -14.0322 -2.3542 0.9392
-6.4156 -14.1111 -2.3540 0.9392
-6.3278 -14.1497 -2.3538 0.9392
-6.2399 -14.1878 -2.3537 0.9392
-6.1517 -14.2254 -2.3536 0.9392
-5.9747 -14.2989 -2.3533 0.9392
-5.8858 -14.3349 -2.3532 0.9392
-5.6181 -14.4395 -2.3529 0.9392
-5.5284 -14.4732 -2.3528 0.9392
-5.3485 -14.5392 -2.3526 0.9392
-5.1678 -14.6029 -2.3524 0.9393
-4.8954 -14.6944 -2.3521 0.9393
-4.7129 -14.7526 -2.3519 0.9393
-4.6213 -14.7809 -2.3518 0.9393
-4.4378 -14.8358 -2.3516 0.9393
-4.3459 -14.8624 -2.3515 0.9393
-4.2537 -14.8885 -2.3514 0.9393
-4.1614 -14.9139 -2.3513 0.9393
-4.0690 -14.9389 -2.3512 0.9393
-3.9763 -14.9633 -2.3512 0.9393
-3.8836 -14.9871 -2.3511 0.9393
-3.7907 -15.0103 -2.3510 0.9393
-3.6046 -15.0551 -2.3509 0.9393
-3.5113 -15.0767 -2.3508 0.9393
-3.4179 -15.0977 -2.3507 0.9393
-3.2307 -15.1379 -2.3506 0.9393
-3.1370 -15.1572 -2.3505 0.9393
-2.9491 -15.1941 -2.3504 0.9393
-2.8550 -15.2116 -2.3504 0.9393
-2.7608 -15.2287 -2.3503 0.9393
-2.6665 -15.2451 -2.3502 0.9393
-2.5721 -15.2609 -2.3502 0.9393
-2.4777 -15.2762 -2.3501 0.9393
-2.2884 -15.3051 -2.3500 0.9393
-2.1937 -15.3187 -2.3500 0.9393
-2.0989 -15.3317 -2.3500 0.9393
-1.9090 -15.3559 -2.3499 0.9393
-1.8140 -15.3672 -2.3498 0.9393
-1.7189 -15.3779 -2.3498 0.9393
-1.1472 -15.4300 -2.3496 0.9393
-1.0517 -15.4366 -2.3496 0.9393
-0.8607 -15.4482 -2.3496 0.9393
-0.7652 -15.4531 -2.3496 0.9393
-0.6696 -15.4575 -2.3496 0.9393
-0.4783 -15.4644 -2.3495 0.9393
-0.3827 -15.4670 -2.3495 0.9393
-0.2870 -15.4690 -2.3495 0.9393
-0.0957 -15.4714 -2.3495 0.9393
-0.0000 -15.4717 -2.3495 0.9393
0.0957 -15.4714 -2.3495 0.9393
0.1914 -15.4705 -2.3495 0.9393
0.2870 -15.4691 -2.3495 0.9393
0.3827 -15.4670 -2.3495 0.9393
0.4783 -15.4644 -2.3495 0.9393
0.6696 -15.4575 -2.3496 0.9393
0.7651 -15.4531 -2.3496 0.9393
1.0517 -15.4367 -2.3496 0.9393
1.1472 -15.4300 -2.3497 0.9393
1.4333 -15.4066 -2.3497 0.9393
1.5285 -15.3976 -2.3498 0.9393
1.6238 -15.3881 -2.3498 0.9393
1.7189 -15.3780 -2.3498 0.9393
1.9090 -15.3560 -2.3499 0.9393
2.1937 -15.3187 -2.3500 0.9393
2.2884 -15.3052 -2.3501 0.9393
2.5721 -15.2611 -2.3502 0.9393
2.8550 -15.2118 -2.3504 0.9393
3.2307 -15.1381 -2.3506 0.9393
3.4179 -15.0978 -2.3508 0.9393
3.5113 -15.0768 -2.3508 0.9393
3.6046 -15.0553 -2.3509 0.9393
3.6977 -15.0332 -2.3510 0.9393
3.7908 -15.0105 -2.3510 0.9393
3.8836 -14.9873 -2.3511 0.9393
4.1614 -14.9142 -2.3514 0.9393
4.4379 -14.8360 -2.3516 0.9393
4.5297 -14.8088 -2.3517 0.9393
4.7129 -14.7529 -2.3519 0.9393
4.8954 -14.6946 -2.3521 0.9393
5.1679 -14.6032 -2.3524 0.9393
5.2583 -14.5716 -2.3525 0.9392
5.3485 -14.5394 -2.3526 0.9392
5.4386 -14.5068 -2.3527 0.9392
5.5285 -14.4735 -2.3528 0.9392
5.7076 -14.4054 -2.3530 0.9392
5.7969 -14.3705 -2.3532 0.9392
5.8859 -14.3351 -2.3533 0.9392
5.9748 -14.2991 -2.3534 0.9392
6.0634 -14.2627 -2.3535 0.9392
6.1518 -14.2257 -2.3536 0.9392
6.5032 -14.0721 -2.3541 0.9392
6.5904 -14.0325 -2.3543 0.9392
6.6775 -13.9922 -2.3544 0.9392
6.7642 -13.9514 -2.3545 0.9392
6.8508 -13.9102 -2.3547 0.9392
6.9371 -13.8684 -2.3548 0.9392
7.1089 -13.7831 -2.3551 0.9392
7.1945 -13.7397 -2.3552 0.9392
7.2797 -13.6958 -2.3554 0.9392
7.6182 -13.5150 -2.3560 0.9392
7.7858 -13.4215 -2.3563 0.9392
7.9523 -13.3260 -2.3566 0.9391
8.0351 -13.2774 -2.3568 0.9391
8.1998 -13.1789 -2.3571 0.9391
8.2817 -13.1288 -2.3573 0.9391
8.3634 -13.0783 -2.3574 0.9391
8.4447 -13.0272 -2.3576 0.9391
8.6868 -12.8711 -2.3581 0.9391
8.9261 -12.7106 -2.3586 0.9391
9.0840 -12.6012 -2.3590 0.9391
9.1625 -12.5457 -2.3592 0.9391
9.3959 -12.3765 -2.3597 0.9391
9.4730 -12.3192 -2.3599 0.9391
9.5498 -12.2613 -2.3601 0.9391
9.6262 -12.2030 -2.3603 0.9391
9.7780 -12.0850 -2.3607 0.9390
9.9284 -11.9652 -2.3611 0.9390
10.0773 -11.8435 -2.3615 0.9390
10.1512 -11.7820 -2.3617 0.9390
10.2248 -11.7200 -2.3619 0.9390
10.4432 -11.5313 -2.3625 0.9390
10.5869 -11.4033 -2.3629 0.9390
