ply
format ascii 1.0
element vertex 1532
property float32 x
property float32 y
property float32 z
property float32 I
end_header
0.7521 -24.3142 -0.4152 0.9073
0.9560 -25.7521 -0.4398 0.9020
1.1156 -25.7551 -0.4400 0.9020
1.2754 -25.7581 -0.4402 0.9020
1.4353 -25.7612 -0.4404 0.9019
1.5954 -25.7642 -0.4406 0.9019
1.7589 -25.8168 -0.4416 0.9017
1.9196 -25.8199 -0.4419 0.9016
2.0805 -25.8229 -0.4421 0.9015
2.4029 -25.8291 -0.4427 0.9014
2.8826 -25.7887 -0.4429 0.9014
3.2068 -25.7949 -0.4436 0.9012
3.3693 -25.7980 -0.4440 0.9011
3.6953 -25.8042 -0.4449 0.9010
4.0225 -25.8104 -0.4458 0.9008
4.3513 -25.8167 -0.4468 0.9006
4.5162 -25.8198 -0.4474 0.9004
4.8472 -25.8261 -0.4485 0.9002
5.5163 -25.8475 -0.4511 0.8997
5.6844 -25.8507 -0.4517 0.8995
6.1896 -25.8517 -0.4537 0.8991
6.5303 -25.8582 -0.4552 0.8988
5.7538 -21.1248 -0.3737 0.9161
6.8057 -24.3909 -0.4322 0.9037
7.3925 -25.8746 -0.4593 0.8979
7.5669 -25.8779 -0.4602 0.8978
7.2989 -24.4003 -0.4347 0.9031
8.0941 -25.8880 -0.4629 0.8972
8.2739 -25.8999 -0.4640 0.8969
8.6307 -25.9068 -0.4660 0.8965
8.8102 -25.9102 -0.4671 0.8963
8.9876 -25.9050 -0.4680 0.8961
9.1686 -25.9084 -0.4691 0.8959
9.3506 -25.9119 -0.4701 0.8956
9.5334 -25.9154 -0.4713 0.8954
9.8795 -25.8645 -0.4725 0.8951
10.0872 -25.9259 -0.4748 0.8947
10.2736 -25.9295 -0.4760 0.8944
10.4611 -25.9330 -0.4773 0.8942
10.6495 -25.9366 -0.4785 0.8939
11.2209 -25.9475 -0.4825 0.8931
11.4135 -25.9512 -0.4839 0.8928
11.5819 -25.8984 -0.4842 0.8927
12.0211 -26.0122 -0.4891 0.8917
12.3941 -25.9709 -0.4912 0.8913
12.5932 -25.9737 -0.4926 0.8909
13.1997 -25.9852 -0.4974 0.8899
13.4045 -25.9891 -0.4991 0.8896
24.6084 -46.9959 -0.9054 0.8088
25.3172 -46.9279 -0.9100 0.8079
26.1266 -47.0269 -0.9182 0.8064
26.9016 -47.0417 -0.9249 0.8051
27.2933 -47.0491 -0.9283 0.8044
27.6881 -47.0567 -0.9318 0.8038
28.0858 -47.0643 -0.9354 0.8031
28.4866 -47.0719 -0.9390 0.8024
28.8905 -47.0796 -0.9427 0.8017
29.2977 -47.0874 -0.9465 0.8010
29.7081 -47.0953 -0.9503 0.8003
30.1219 -47.1031 -0.9542 0.7996
30.4768 -47.0149 -0.9563 0.7992
17.9175 -26.5479 -0.5466 0.8797
18.0816 -26.4372 -0.5466 0.8797
18.2458 -26.3263 -0.5467 0.8797
18.4100 -26.2154 -0.5467 0.8797
18.7383 -25.9933 -0.5469 0.8797
18.9024 -25.8821 -0.5470 0.8797
23.0864 -30.4100 -0.6516 0.8583
20.1749 -26.2365 -0.5648 0.8760
20.1700 -25.2466 -0.5515 0.8787
21.1792 -25.2052 -0.5619 0.8766
21.4510 -25.2104 -0.5649 0.8760
23.0809 -26.4559 -0.5992 0.8690
23.7147 -26.1854 -0.6029 0.8682
24.3684 -26.2474 -0.6113 0.8665
23.2212 -24.7035 -0.5786 0.8732
25.5803 -26.2210 -0.6252 0.8637
25.9048 -26.2272 -0.6292 0.8629
26.2334 -26.2334 -0.6332 0.8621
27.5980 -26.2653 -0.6502 0.8586
28.3001 -26.2741 -0.6591 0.8569
28.6594 -26.2796 -0.6636 0.8559
29.6132 -26.4875 -0.6781 0.8530
29.7730 -26.3008 -0.6780 0.8531
30.1551 -26.3081 -0.6830 0.8521
31.7416 -26.3383 -0.7039 0.8479
32.5721 -26.3541 -0.7151 0.8457
32.9974 -26.3622 -0.7208 0.8445
33.4295 -26.3705 -0.7267 0.8434
33.8688 -26.3788 -0.7327 0.8422
34.3814 -26.4381 -0.7402 0.8407
35.7012 -26.4137 -0.7579 0.8372
38.4497 -28.0809 -0.8126 0.8266
38.4636 -27.3681 -0.8057 0.8279
38.4705 -27.0162 -0.8023 0.8286
38.4773 -26.6672 -0.7990 0.8292
29.1520 -19.6750 -0.6003 0.8687
38.4912 -25.6330 -0.7893 0.8311
38.5115 -24.6276 -0.7802 0.8329
38.5378 -23.3219 -0.7688 0.8351
38.5443 -23.0014 -0.7661 0.8356
38.5507 -22.6831 -0.7634 0.8362
38.5760 -21.4315 -0.7532 0.8382
38.5822 -21.1238 -0.7507 0.8386
39.2253 -20.8495 -0.7582 0.8372
40.4051 -20.8398 -0.7759 0.8337
41.0161 -20.8348 -0.7852 0.8319
42.9398 -20.8190 -0.8145 0.8262
44.3173 -20.8139 -0.8356 0.8221
45.0240 -20.8070 -0.8465 0.8200
45.7493 -20.7998 -0.8577 0.8179
46.4941 -20.7924 -0.8692 0.8157
47.2592 -20.7848 -0.8811 0.8134
48.8542 -20.7690 -0.9060 0.8087
49.6861 -20.7608 -0.9190 0.8062
50.5430 -20.7527 -0.9325 0.8037
51.4287 -20.7457 -0.9465 0.8010
55.2416 -20.7102 -1.0069 0.7898
56.2757 -20.7019 -1.0234 0.7867
58.4492 -20.6844 -1.0582 0.7803
57.3622 -19.9014 -1.0363 0.7843
61.9913 -20.6521 -1.1152 0.7700
64.5838 -20.6319 -1.1571 0.7624
65.9547 -20.6212 -1.1794 0.7585
59.6114 5.9178 -1.0224 0.7869
68.1445 7.6171 -1.1703 0.7601
65.0298 7.6764 -1.1176 0.7695
62.1834 7.7306 -1.0695 0.7783
59.8017 7.8104 -1.0293 0.7856
60.7094 8.6939 -1.0467 0.7824
60.7175 9.0786 -1.0478 0.7822
59.0566 9.5784 -1.0211 0.7871
61.0090 10.2827 -1.0559 0.7807
61.0164 10.6724 -1.0572 0.7805
61.0239 11.0631 -1.0585 0.7803
61.0313 11.4547 -1.0598 0.7800
61.0463 12.2411 -1.0626 0.7795
61.0538 12.6358 -1.0641 0.7792
61.0689 13.4287 -1.0672 0.7787
61.0765 13.8269 -1.0688 0.7784
61.0841 14.2262 -1.0704 0.7781
61.0994 15.0289 -1.0739 0.7775
61.1071 15.4321 -1.0757 0.7771
61.1148 15.8367 -1.0775 0.7768
64.3257 22.3174 -1.1620 0.7616
26.2859 9.8546 -0.4791 0.8938
25.3856 9.8770 -0.4649 0.8968
25.2496 10.0042 -0.4635 0.8970
25.0563 10.1074 -0.4611 0.8975
24.8890 10.2193 -0.4592 0.8980
24.8760 10.3942 -0.4601 0.8978
24.7414 10.5181 -0.4588 0.8980
16.5511 7.2793 -0.3086 0.9302
16.4407 7.3524 -0.3074 0.9305
16.4207 7.4656 -0.3079 0.9304
22.0281 10.1799 -0.4142 0.9075
21.8176 10.4120 -0.4126 0.9078
20.3498 10.4959 -0.3908 0.9125
20.2190 10.7471 -0.3908 0.9125
20.2217 10.9095 -0.3921 0.9122
18.2088 9.9694 -0.3543 0.9203
17.9275 9.9600 -0.3500 0.9212
17.4631 10.1304 -0.3446 0.9224
17.2059 10.2677 -0.3420 0.9230
16.9676 10.4122 -0.3398 0.9234
15.7367 10.2011 -0.3201 0.9277
15.2232 10.0025 -0.3109 0.9297
14.9665 9.9668 -0.3069 0.9306
14.6204 9.9996 -0.3023 0.9316
14.0174 10.2373 -0.2962 0.9329
13.9214 10.2998 -0.2956 0.9331
13.8465 10.3776 -0.2953 0.9331
13.7718 10.4552 -0.2951 0.9332
13.6227 10.6101 -0.2947 0.9333
13.5180 10.7998 -0.2953 0.9331
13.4700 10.8987 -0.2957 0.9330
12.5114 10.6456 -0.2804 0.9364
12.4465 10.7238 -0.2804 0.9364
12.4917 11.0349 -0.2845 0.9355
12.4328 11.5427 -0.2896 0.9344
12.3487 11.6077 -0.2893 0.9344
11.0761 10.6726 -0.2625 0.9403
10.8591 10.5938 -0.2589 0.9411
10.8108 10.6779 -0.2593 0.9410
10.7206 10.7206 -0.2588 0.9411
10.7358 11.4211 -0.2675 0.9392
10.6206 11.5824 -0.2681 0.9391
10.5718 11.6733 -0.2688 0.9389
9.3399 10.7056 -0.2425 0.9447
9.2039 10.8170 -0.2424 0.9448
9.2085 11.0976 -0.2461 0.9439
9.2109 11.2412 -0.2480 0.9435
9.2157 11.5353 -0.2520 0.9426
7.6463 10.3348 -0.2194 0.9499
7.4560 10.2091 -0.2158 0.9507
7.0374 10.1540 -0.2109 0.9518
6.7912 10.1978 -0.2091 0.9522
6.7100 10.2122 -0.2085 0.9523
6.5138 10.3261 -0.2084 0.9523
6.3803 10.3973 -0.2082 0.9524
6.3137 10.4329 -0.2081 0.9524
6.2471 10.4685 -0.2081 0.9524
5.9346 10.6821 -0.2086 0.9523
5.8797 10.7392 -0.2090 0.9522
5.7794 10.8730 -0.2102 0.9519
5.7380 10.9582 -0.2111 0.9517
5.6962 11.0441 -0.2121 0.9515
5.6116 11.2184 -0.2141 0.9511
5.5908 12.7119 -0.2370 0.9460
5.5565 13.0704 -0.2424 0.9448
5.5611 13.3091 -0.2462 0.9439
5.5756 14.0722 -0.2583 0.9412
5.6407 14.7672 -0.2698 0.9387
5.6520 15.3644 -0.2794 0.9366
5.6166 15.5644 -0.2824 0.9359
5.5647 16.0393 -0.2898 0.9343
5.5781 16.7439 -0.3012 0.9318
5.6004 17.9123 -0.3203 0.9277
5.6169 18.7773 -0.3345 0.9246
10.6740 36.5040 -0.6491 0.8589
9.9465 36.5178 -0.6460 0.8595
9.2257 36.5316 -0.6431 0.8601
8.9869 36.5361 -0.6421 0.8603
8.5112 36.5452 -0.6404 0.8606
7.8023 36.5587 -0.6380 0.8611
7.5671 36.5631 -0.6373 0.8612
7.0985 36.5721 -0.6358 0.8615
6.6318 36.5810 -0.6345 0.8618
6.3992 36.5854 -0.6339 0.8619
5.9352 36.5942 -0.6327 0.8622
5.7039 36.5986 -0.6322 0.8623
5.4729 36.6030 -0.6316 0.8624
5.4409 37.9941 -0.6551 0.8577
5.4797 40.0270 -0.6895 0.8508
1.1710 11.0973 -0.1905 0.9563
1.0042 10.7945 -0.1850 0.9576
0.8584 10.6541 -0.1824 0.9581
0.6500 10.4979 -0.1795 0.9588
0.5843 10.4869 -0.1793 0.9589
0.4515 10.4224 -0.1780 0.9591
0.3857 10.3904 -0.1775 0.9593
0.2555 10.3272 -0.1763 0.9595
0.1902 10.2521 -0.1750 0.9598
-0.0632 10.2169 -0.1744 0.9599
-0.3792 10.2146 -0.1745 0.9599
-0.4429 10.2259 -0.1747 0.9599
-0.5069 10.2373 -0.1749 0.9598
-0.6998 10.2716 -0.1757 0.9596
-0.8375 10.3951 -0.1780 0.9591
-0.9054 10.4313 -0.1787 0.9590
-1.1124 10.5418 -0.1809 0.9585
-1.2523 10.6089 -0.1823 0.9582
-1.4065 10.7690 -0.1854 0.9575
-1.4855 10.8511 -0.1869 0.9571
-1.9065 11.7546 -0.2032 0.9535
-2.0565 11.7574 -0.2037 0.9534
-2.2829 11.7617 -0.2045 0.9532
-2.3672 11.4381 -0.1993 0.9543
-2.4128 11.3053 -0.1973 0.9548
-2.4832 11.2929 -0.1973 0.9548
-2.9099 11.8300 -0.2079 0.9524
-2.9880 11.8315 -0.2083 0.9524
-3.0663 11.8330 -0.2086 0.9523
-3.1449 11.8345 -0.2090 0.9522
-3.2238 11.8360 -0.2094 0.9521
-3.3030 11.8375 -0.2097 0.9520
-3.4622 11.8405 -0.2105 0.9518
-3.5423 11.8421 -0.2110 0.9518
-3.7631 11.7796 -0.2111 0.9517
-3.8887 11.4362 -0.2062 0.9528
-3.8922 11.2187 -0.2027 0.9536
-4.0572 11.0290 -0.2006 0.9541
-4.0405 10.7775 -0.1964 0.9550
-1.8481 4.8383 -0.0884 0.9795
-1.8496 4.5852 -0.0844 0.9804
-1.8505 4.4288 -0.0819 0.9810
-1.8514 4.2813 -0.0796 0.9815
-1.8518 4.2106 -0.0785 0.9818
-1.8523 4.1419 -0.0774 0.9820
-1.8526 4.0749 -0.0764 0.9823
-1.8530 4.0097 -0.0754 0.9825
-1.8538 3.8845 -0.0735 0.9829
-1.8545 3.7654 -0.0716 0.9833
-1.8551 3.6521 -0.0699 0.9837
-1.8554 3.5974 -0.0691 0.9839
-1.8558 3.5440 -0.0683 0.9841
-1.8564 3.4410 -0.0667 0.9845
-1.8566 3.3911 -0.0660 0.9847
-1.8569 3.3424 -0.0653 0.9848
-1.8572 3.2947 -0.0645 0.9850
-1.8577 3.2024 -0.0632 0.9853
-1.8580 3.1577 -0.0625 0.9854
-1.8587 3.0289 -0.0607 0.9859
-1.8589 2.9877 -0.0601 0.9860
-1.8592 2.9473 -0.0595 0.9862
-1.8594 2.9076 -0.0589 0.9863
-1.8596 2.8687 -0.0583 0.9864
-1.8598 2.8305 -0.0578 0.9865
-1.8600 2.7931 -0.0573 0.9867
-1.8604 2.7201 -0.0562 0.9869
-1.8608 2.6497 -0.0553 0.9871
-1.8610 2.6155 -0.0548 0.9872
-1.8612 2.5818 -0.0543 0.9873
-1.8614 2.5487 -0.0539 0.9875
-1.8615 2.5161 -0.0534 0.9876
-1.8624 2.3609 -0.0513 0.9880
-1.8625 2.3313 -0.0509 0.9881
-1.8628 2.2735 -0.0502 0.9883
-1.8631 2.2173 -0.0494 0.9885
-1.8634 2.1628 -0.0487 0.9886
-1.8638 2.0838 -0.0477 0.9889
-1.8639 2.0581 -0.0474 0.9890
-1.8641 2.0329 -0.0471 0.9890
-1.8648 1.8880 -0.0453 0.9894
-1.8649 1.8649 -0.0450 0.9895
-1.8651 1.8196 -0.0445 0.9896
-1.8652 1.7973 -0.0442 0.9897
-1.8653 1.7753 -0.0439 0.9898
-1.8654 1.7535 -0.0437 0.9898
-1.8865 1.7298 -0.0437 0.9898
-1.9102 1.7300 -0.0440 0.9897
-1.9342 1.7301 -0.0443 0.9897
-1.9585 1.7302 -0.0446 0.9896
-1.9832 1.7303 -0.0449 0.9895
-2.0083 1.7304 -0.0452 0.9895
-2.0337 1.7305 -0.0456 0.9894
-2.1393 1.7309 -0.0470 0.9891
-2.1945 1.7311 -0.0477 0.9889
-2.2515 1.7313 -0.0485 0.9887
-2.3104 1.7316 -0.0493 0.9885
-2.4025 1.7319 -0.0505 0.9882
-2.5330 1.7325 -0.0524 0.9878
-2.6373 1.7329 -0.0539 0.9875
-2.6734 1.7330 -0.0544 0.9873
-2.7102 1.7332 -0.0549 0.9872
-2.7860 1.7335 -0.0560 0.9870
-2.8649 1.7338 -0.0572 0.9867
-2.9056 1.7339 -0.0577 0.9866
-2.9471 1.7341 -0.0584 0.9864
-3.0772 1.7346 -0.0603 0.9860
-3.1223 1.7347 -0.0610 0.9858
-3.2152 1.7346 -0.0624 0.9855
-3.3627 1.7344 -0.0646 0.9850
-3.4148 1.7346 -0.0654 0.9848
-3.6366 1.7355 -0.0688 0.9840
-3.6957 1.7357 -0.0697 0.9838
-3.7564 1.7360 -0.0706 0.9836
-3.8188 1.7362 -0.0716 0.9834
-3.9488 1.7367 -0.0736 0.9829
-4.0865 1.7373 -0.0758 0.9824
-4.3088 1.7381 -0.0793 0.9816
-4.5529 1.7391 -0.0832 0.9807
-4.8222 1.7402 -0.0875 0.9797
-4.9183 1.7405 -0.0890 0.9793
-5.0179 1.7409 -0.0906 0.9790
-5.2282 1.7417 -0.0941 0.9782
-5.4549 1.7426 -0.0977 0.9774
-5.7002 1.7436 -0.1017 0.9764
-5.9664 1.7446 -0.1061 0.9754
-6.1083 1.7452 -0.1084 0.9749
-6.2565 1.7457 -0.1109 0.9743
-6.4116 1.7463 -0.1134 0.9738
-6.5740 1.7470 -0.1161 0.9732
-6.7442 1.7476 -0.1189 0.9725
-7.3084 1.7498 -0.1283 0.9704
-7.7367 1.7515 -0.1354 0.9688
-8.4695 1.7529 -0.1476 0.9660
-9.3414 1.7533 -0.1622 0.9627
-10.4301 1.7579 -0.1805 0.9586
-10.8499 1.7597 -0.1876 0.9570
-55.8217 7.9939 -0.9624 0.7980
-55.7775 7.6359 -0.9608 0.7983
-55.7715 6.9335 -0.9592 0.7986
-55.7654 6.2333 -0.9577 0.7989
-55.7625 5.8841 -0.9570 0.7991
-55.7565 5.1871 -0.9557 0.7993
-55.7505 4.4917 -0.9546 0.7995
-55.7475 4.1447 -0.9541 0.7996
-55.7445 3.7979 -0.9536 0.7997
-50.6845 3.1385 -0.8667 0.8162
-55.7356 2.7597 -0.9524 0.7999
-55.7328 2.4142 -0.9521 0.8000
-55.7210 1.0339 -0.9512 0.8002
-55.0333 0.3403 -0.9393 0.8024
-54.6578 -0.3380 -1.3389 0.8036
-54.4721 -0.6738 -1.3344 0.8041
-51.6940 -1.9190 -1.2671 0.8130
-51.3497 -2.5426 -1.2593 0.8141
-51.1791 -2.8515 -1.2556 0.8146
-51.0095 -3.1586 -1.2519 0.8151
-50.6733 -3.7674 -1.2447 0.8160
-51.5945 -4.4782 -1.2685 0.8128
-52.1675 -4.8532 -1.2833 0.8109
-51.9971 -5.1619 -1.2799 0.8113
-51.9856 -5.4856 -1.2804 0.8113
-51.8164 -5.7920 -1.2771 0.8117
-51.6481 -6.0968 -1.2739 0.8121
-50.9831 -7.3010 -1.2616 0.8138
-50.8188 -7.5985 -1.2586 0.8142
-48.4166 -7.8527 -1.2015 0.8218
-47.9145 -8.9929 -1.1941 0.8228
-47.7613 -9.2703 -1.1917 0.8231
-47.3430 -9.7982 -1.1842 0.8241
-47.1920 -10.0717 -1.1820 0.8244
-43.3428 -9.5308 -1.0871 0.8373
-39.8658 -9.2846 -1.0026 0.8489
-40.3500 -9.6608 -1.0163 0.8470
-40.4407 -9.9473 -1.0201 0.8465
-40.4458 -10.2143 -1.0218 0.8463
-40.4560 -10.7508 -1.0254 0.8458
-40.4611 -11.0205 -1.0272 0.8455
-40.4767 -11.8356 -1.0330 0.8447
-40.4871 -12.3842 -1.0371 0.8442
-40.4976 -12.9373 -1.0414 0.8436
-40.5136 -13.7758 -1.0482 0.8426
-40.5189 -14.0578 -1.0505 0.8423
-40.5243 -14.3410 -1.0530 0.8420
-36.4456 -13.6636 -0.9534 0.8558
-40.5720 -16.3662 -1.0716 0.8394
-40.5776 -16.6610 -1.0745 0.8390
-40.5889 -17.2553 -1.0803 0.8382
-40.5946 -17.5549 -1.0834 0.8378
-40.6003 -17.8562 -1.0864 0.8374
-40.6061 -18.1593 -1.0896 0.8370
-40.6119 -18.4641 -1.0928 0.8365
-40.6236 -19.0792 -1.0993 0.8356
-40.5565 -20.2869 -1.1108 0.8341
-40.6547 -20.9686 -1.1205 0.8327
-40.6609 -21.2912 -1.1243 0.8322
-40.6670 -21.6159 -1.1281 0.8317
-40.6733 -21.9429 -1.1320 0.8312
-40.6795 -22.2721 -1.1360 0.8306
-40.6858 -22.6037 -1.1401 0.8301
-40.6922 -22.9377 -1.1442 0.8295
-40.6986 -23.2741 -1.1484 0.8290
-40.7050 -23.6131 -1.1527 0.8284
-40.7115 -23.9546 -1.1570 0.8278
-40.7181 -24.2987 -1.1615 0.8272
-40.7313 -24.9949 -1.1706 0.8260
-40.6427 -25.2878 -1.1725 0.8257
-36.9245 -24.2614 -1.0823 0.8380
-35.7479 -24.4497 -1.0609 0.8409
-34.8405 -24.4670 -1.0428 0.8434
-33.5354 -24.4918 -1.0172 0.8469
-33.1144 -24.4998 -1.0090 0.8480
-32.0793 -24.3537 -0.9865 0.8512
-28.5366 -24.5870 -0.9227 0.8601
-28.1898 -24.5936 -0.9164 0.8610
-27.5102 -24.6065 -0.9041 0.8627
-26.3490 -24.4628 -0.8807 0.8660
-25.8643 -24.9220 -0.8798 0.8661
-24.6356 -24.3328 -0.8482 0.8706
-24.0448 -24.3441 -0.8381 0.8721
-23.4349 -25.2419 -0.8437 0.8713
-23.4411 -25.5638 -0.8496 0.8704
-25.9491 -29.3748 -0.9601 0.8549
-25.9926 -30.5480 -0.9825 0.8517
-20.2082 -24.0497 -0.7695 0.8819
-19.5381 -24.4557 -0.7667 0.8823
-19.3712 -24.5567 -0.7661 0.8824
-19.0386 -24.7587 -0.7650 0.8825
-18.1561 -23.9156 -0.7355 0.8868
-33.9516 -45.8895 -1.3983 0.7958
-18.0657 -25.3899 -0.7633 0.8828
-17.8334 -25.3943 -0.7601 0.8832
-14.2785 -21.1562 -0.6252 0.9029
-16.7317 -25.4648 -0.7463 0.8852
-16.5099 -25.4690 -0.7435 0.8856
-16.2585 -25.4243 -0.7392 0.8863
-14.9186 -23.9773 -0.6918 0.8932
-15.3960 -25.4407 -0.7284 0.8878
-14.9740 -25.4487 -0.7233 0.8886
-14.7652 -25.4527 -0.7208 0.8889
-14.3518 -25.4606 -0.7159 0.8896
-14.1472 -25.4645 -0.7135 0.8900
-13.9440 -25.4684 -0.7112 0.8903
-13.3486 -25.4925 -0.7049 0.8912
-13.1502 -25.4962 -0.7027 0.8916
-12.9328 -25.4599 -0.6995 0.8920
-12.3628 -25.4985 -0.6941 0.8928
-12.0361 -25.6273 -0.6935 0.8929
-12.0443 -26.0626 -0.7033 0.8915
-10.3065 -25.5499 -0.6748 0.8956
-10.1246 -25.5533 -0.6733 0.8959
-8.6952 -24.0958 -0.6275 0.9026
-8.1530 -25.5212 -0.6563 0.8983
-7.8259 -25.5848 -0.6554 0.8985
-7.6542 -25.5881 -0.6542 0.8986
-7.4831 -25.5914 -0.6531 0.8988
-6.8172 -25.6536 -0.6502 0.8992
-6.6485 -25.6568 -0.6492 0.8994
-6.4537 -25.5550 -0.6456 0.8999
-5.9669 -25.6203 -0.6444 0.9001
-5.6351 -25.6266 -0.6427 0.9003
-5.5066 -25.8019 -0.6463 0.8998
-5.5608 -28.6498 -0.7149 0.8898
-8.1101 -46.3671 -1.1530 0.8283
-7.2291 -46.3848 -1.1499 0.8288
-6.9364 -46.3907 -1.1490 0.8289
-6.3525 -46.4025 -1.1472 0.8291
-5.7702 -46.4142 -1.1457 0.8293
-2.0660 -17.5015 -0.4317 0.9319
-1.7084 -17.2090 -0.4236 0.9331
-1.5970 -17.1659 -0.4223 0.9333
-1.4884 -17.1482 -0.4216 0.9334
-0.7402 -17.0892 -0.4190 0.9338
-0.5285 -17.0863 -0.4187 0.9339
-0.4227 -17.0850 -0.4186 0.9339
-0.3170 -17.0852 -0.4186 0.9339
-0.2113 -17.0839 -0.4185 0.9339
-0.1056 -17.0809 -0.4184 0.9339
0.0000 -17.0810 -0.4184 0.9339
0.1056 -17.0815 -0.4184 0.9339
0.3169 -17.0802 -0.4184 0.9339
0.4226 -17.0800 -0.4185 0.9339
0.6340 -17.0785 -0.4186 0.9339
0.7395 -17.0722 -0.4186 0.9339
0.8449 -17.0643 -0.4185 0.9339
1.0580 -17.0860 -0.4193 0.9338
2.4029 -25.8291 -0.6354 0.9014
2.5539 -25.7265 -0.6333 0.9017
2.7209 -25.7857 -0.6351 0.9015
2.8826 -25.7888 -0.6356 0.9014
3.0446 -25.7919 -0.6362 0.9013
3.2068 -25.7949 -0.6367 0.9012
3.5322 -25.8011 -0.6379 0.9010
3.6953 -25.8042 -0.6385 0.9010
3.8588 -25.8073 -0.6392 0.9009
4.5162 -25.8199 -0.6421 0.9004
4.6815 -25.8230 -0.6428 0.9003
4.8472 -25.8262 -0.6437 0.9002
5.1804 -25.8346 -0.6454 0.8999
5.3496 -25.8484 -0.6466 0.8998
6.0200 -25.8485 -0.6501 0.8993
6.1896 -25.8517 -0.6511 0.8991
5.6302 -21.1869 -0.5370 0.9160
7.3925 -25.8746 -0.6592 0.8979
7.9176 -25.8846 -0.6630 0.8974
8.6321 -25.9110 -0.6690 0.8965
9.1687 -25.9085 -0.6732 0.8959
9.7171 -25.9189 -0.6780 0.8952
9.8796 -25.8645 -0.6782 0.8951
10.0872 -25.9260 -0.6814 0.8947
10.2736 -25.9295 -0.6832 0.8944
10.4611 -25.9331 -0.6850 0.8941
10.2187 -24.4560 -0.6492 0.8994
11.0294 -25.9439 -0.6905 0.8933
11.2209 -25.9476 -0.6925 0.8930
11.5819 -25.8984 -0.6949 0.8927
11.8247 -26.0086 -0.6998 0.8920
12.2186 -26.0161 -0.7040 0.8914
12.3942 -25.9712 -0.7049 0.8912
13.1997 -25.9852 -0.7139 0.8899
13.4045 -25.9891 -0.7163 0.8896
25.3169 -46.9273 -1.3061 0.8079
13.4231 -24.5170 -0.6847 0.8942
26.1263 -47.0263 -1.3177 0.8063
27.2930 -47.0485 -1.3323 0.8044
27.6877 -47.0561 -1.3374 0.8038
28.0854 -47.0637 -1.3425 0.8031
28.8902 -47.0790 -1.3530 0.8017
29.7078 -47.0946 -1.3639 0.8003
30.1215 -47.1025 -1.3695 0.7995
30.9039 -47.0340 -1.3785 0.7984
31.3779 -47.1177 -1.3866 0.7973
17.6677 -25.8320 -0.7666 0.8823
17.8281 -25.7236 -0.7666 0.8823
17.9885 -25.6152 -0.7667 0.8823
18.3091 -25.3980 -0.7669 0.8823
18.4695 -25.2893 -0.7671 0.8822
22.9602 -30.2437 -0.9301 0.8590
20.1799 -25.9098 -0.8044 0.8769
19.9047 -25.2329 -0.7872 0.8793
19.9106 -24.9219 -0.7814 0.8802
21.0924 -24.4806 -0.7915 0.8787
21.3591 -24.4823 -0.7958 0.8781
23.1182 -26.1701 -0.8553 0.8696
23.1302 -25.5400 -0.8440 0.8712
23.1360 -25.2312 -0.8385 0.8720
23.2212 -24.7036 -0.8305 0.8731
23.8188 -24.7194 -0.8408 0.8717
24.1210 -24.7252 -0.8461 0.8709
24.4270 -24.7310 -0.8515 0.8702
24.7369 -24.7369 -0.8569 0.8694
25.0508 -24.7429 -0.8625 0.8686
26.0176 -24.7613 -0.8798 0.8661
28.2998 -26.2739 -0.9459 0.8568
29.0254 -26.2866 -0.9592 0.8550
29.1561 -25.7559 -0.9529 0.8559
29.1621 -25.4418 -0.9479 0.8565
29.1680 -25.1310 -0.9431 0.8572
29.7394 -24.9892 -0.9515 0.8561
32.5722 -26.3542 -1.0263 0.8457
33.4296 -26.3705 -1.0430 0.8434
34.3155 -26.3874 -1.0603 0.8410
35.2314 -26.4048 -1.0785 0.8385
35.7470 -25.1036 -1.0699 0.8396
38.4779 -26.6677 -1.1467 0.8292
29.0691 -19.8817 -0.8627 0.8686
26.1722 -17.1966 -0.7671 0.8822
26.2818 -17.0368 -0.7672 0.8822
38.5321 -23.6453 -1.1074 0.8345
38.5705 -21.7417 -1.0845 0.8376
40.4055 -20.8401 -1.1136 0.8337
43.6139 -20.8137 -1.1837 0.8242
44.3183 -20.8144 -1.1993 0.8221
45.7504 -20.8003 -1.2310 0.8178
46.4952 -20.7929 -1.2476 0.8156
47.2604 -20.7853 -1.2646 0.8134
48.0468 -20.7775 -1.2822 0.8110
48.8555 -20.7696 -1.3004 0.8086
51.4282 -20.7454 -1.3584 0.8010
53.2819 -20.7307 -1.4004 0.7955
57.3461 -20.6939 -1.4933 0.7835
60.7662 -20.6623 -1.5722 0.7735
61.9934 -20.6527 -1.6006 0.7699
63.2657 -20.6429 -1.6301 0.7662
64.5860 -20.6325 -1.6608 0.7624
65.9570 -20.6219 -1.6927 0.7584
59.6117 5.9178 -1.4674 0.7869
62.1828 7.7305 -1.5349 0.7782
60.0422 7.8418 -1.4832 0.7848
60.1221 8.6098 -1.4877 0.7843
59.0570 9.5785 -1.4655 0.7871
61.0168 10.6725 -1.5173 0.7805
61.0392 11.8474 -1.5231 0.7797
61.0467 12.2411 -1.5251 0.7795
61.0542 12.6359 -1.5272 0.7792
61.0693 13.4288 -1.5316 0.7787
61.0845 14.2263 -1.5363 0.7781
61.1074 15.4322 -1.5438 0.7771
61.1151 15.8368 -1.5465 0.7768
61.1229 16.2429 -1.5492 0.7764
66.4829 21.6926 -1.7130 0.7559
65.5640 22.2937 -1.6963 0.7580
64.3255 22.3173 -1.6678 0.7615
61.9689 22.3622 -1.6137 0.7683
60.8543 22.3862 -1.5883 0.7715
26.2856 9.8546 -0.6876 0.8938
26.1038 9.9710 -0.6845 0.8942
25.3856 9.8769 -0.6672 0.8967
25.2496 10.0043 -0.6653 0.8970
25.0564 10.1074 -0.6618 0.8975
24.8893 10.2195 -0.6591 0.8979
23.5524 9.8412 -0.6252 0.9029
23.5566 10.0145 -0.6270 0.9027
23.4132 10.1249 -0.6248 0.9030
16.5501 7.2788 -0.4429 0.9302
16.4402 7.3521 -0.4411 0.9305
20.3032 10.1559 -0.5561 0.9132
20.1718 10.2467 -0.5542 0.9134
20.1777 10.5656 -0.5579 0.9129
17.9638 10.1260 -0.5051 0.9208
17.5553 10.0393 -0.4954 0.9223
17.4631 10.1304 -0.4945 0.9224
16.9109 10.6676 -0.4898 0.9231
16.8740 10.7908 -0.4906 0.9230
15.3175 10.0645 -0.4489 0.9293
15.0591 10.0286 -0.4432 0.9302
14.5238 10.0659 -0.4328 0.9317
14.4146 10.1228 -0.4315 0.9319
14.1073 10.3029 -0.4279 0.9325
13.9607 10.3289 -0.4254 0.9329
13.8856 10.4068 -0.4250 0.9329
13.7359 10.5624 -0.4244 0.9330
13.4605 11.0293 -0.4263 0.9327
12.5719 10.5638 -0.4022 0.9364
12.4888 10.8956 -0.4060 0.9358
12.4918 11.0350 -0.4083 0.9355
12.4979 11.3187 -0.4130 0.9348
12.4327 11.5427 -0.4156 0.9344
12.3490 11.6080 -0.4151 0.9344
11.2118 10.6704 -0.3791 0.9399
11.0759 10.6724 -0.3768 0.9403
10.8591 10.5938 -0.3716 0.9411
10.8106 10.6778 -0.3722 0.9410
10.7630 10.8969 -0.3752 0.9406
10.7660 11.0357 -0.3776 0.9402
10.7690 11.1762 -0.3802 0.9398
10.7721 11.3187 -0.3827 0.9394
10.7752 11.4631 -0.3854 0.9390
10.6208 11.5825 -0.3850 0.9391
10.4436 11.6760 -0.3837 0.9392
9.4555 10.7038 -0.3498 0.9445
9.3397 10.7055 -0.3480 0.9447
9.2252 10.7071 -0.3462 0.9450
9.2433 10.8633 -0.3494 0.9445
9.2456 11.0031 -0.3520 0.9441
9.2479 11.1451 -0.3547 0.9437
9.2527 11.4358 -0.3603 0.9428
9.2552 11.5847 -0.3632 0.9424
7.9901 10.3907 -0.3211 0.9489
7.8285 10.3119 -0.3171 0.9495
7.5241 10.1697 -0.3099 0.9506
7.1004 10.1108 -0.3026 0.9518
6.9249 10.1248 -0.3005 0.9521
6.8432 10.1394 -0.2996 0.9522
6.5265 10.2058 -0.2967 0.9527
6.4602 10.2411 -0.2966 0.9527
6.3940 10.2765 -0.2965 0.9527
6.3278 10.3118 -0.2964 0.9527
6.2617 10.3471 -0.2962 0.9528
6.1957 10.3823 -0.2962 0.9528
6.1297 10.4176 -0.2961 0.9528
6.0188 10.5249 -0.2970 0.9526
5.9101 10.6379 -0.2981 0.9525
5.8554 10.6947 -0.2987 0.9524
5.7513 10.8201 -0.3002 0.9522
5.6685 10.9904 -0.3029 0.9517
5.6266 11.0767 -0.3043 0.9515
5.5464 11.2616 -0.3075 0.9510
5.5274 11.4005 -0.3103 0.9506
5.4892 12.0736 -0.3249 0.9483
5.4932 12.2834 -0.3296 0.9476
5.4973 12.4995 -0.3345 0.9468
5.6109 13.1982 -0.3513 0.9442
5.6155 13.4393 -0.3568 0.9434
5.6202 13.6879 -0.3624 0.9425
5.6251 13.9447 -0.3683 0.9416
5.6302 14.2099 -0.3744 0.9407
5.6354 14.4840 -0.3807 0.9397
5.6464 15.0609 -0.3940 0.9377
5.6522 15.3647 -0.4010 0.9366
5.6582 15.6796 -0.4083 0.9355
5.6708 16.3452 -0.4238 0.9331
5.6776 16.6973 -0.4320 0.9319
5.7072 18.2539 -0.4685 0.9263
10.9181 36.4993 -0.9332 0.8586
9.7055 36.5224 -0.9257 0.8597
9.4653 36.5269 -0.9243 0.8599
9.2257 36.5315 -0.9229 0.8601
8.9869 36.5361 -0.9216 0.8602
8.7487 36.5406 -0.9204 0.8604
8.5112 36.5451 -0.9191 0.8606
8.0380 36.5541 -0.9168 0.8609
7.8023 36.5586 -0.9157 0.8611
7.3325 36.5676 -0.9135 0.8614
6.3992 36.5853 -0.9098 0.8619
6.1670 36.5898 -0.9089 0.8620
5.4729 36.6030 -0.9066 0.8624
6.2926 50.6164 -1.2494 0.8154
1.1710 11.0971 -0.2733 0.9563
1.0858 10.9375 -0.2692 0.9570
0.4515 10.4224 -0.2555 0.9591
0.3204 10.3587 -0.2539 0.9594
0.0633 10.2344 -0.2507 0.9599
-0.0632 10.2169 -0.2503 0.9599
-0.3792 10.2146 -0.2504 0.9599
-0.7702 10.3592 -0.2544 0.9593
-0.9054 10.4313 -0.2565 0.9590
-0.9738 10.4678 -0.2575 0.9588
-1.0428 10.5047 -0.2586 0.9586
-1.1771 10.5308 -0.2596 0.9585
-1.2523 10.6089 -0.2617 0.9582
-1.4065 10.7691 -0.2660 0.9575
-1.6831 11.2570 -0.2788 0.9555
-1.8209 11.6837 -0.2896 0.9538
-1.9697 11.6865 -0.2903 0.9537
-2.0443 11.6879 -0.2906 0.9536
-2.2694 11.6922 -0.2917 0.9535
-2.3448 11.6937 -0.2921 0.9534
-2.4021 11.6067 -0.2903 0.9537
-2.4517 10.8298 -0.2720 0.9565
-2.5096 10.7759 -0.2710 0.9567
-2.5937 10.8332 -0.2729 0.9564
-3.0663 11.8330 -0.2994 0.9523
-3.4622 11.8405 -0.3022 0.9518
-3.5423 11.8421 -0.3028 0.9517
-3.7035 11.8451 -0.3040 0.9516
-3.7630 11.7795 -0.3029 0.9517
-3.9170 11.7576 -0.3036 0.9516
-3.9252 11.5438 -0.2987 0.9524
-3.9288 11.3241 -0.2936 0.9532
-3.9185 10.8587 -0.2828 0.9549
-3.9950 10.8598 -0.2834 0.9548
-1.8381 4.7244 -0.1242 0.9799
-1.8388 4.6410 -0.1223 0.9802
-1.8394 4.5600 -0.1204 0.9805
-1.8407 4.4052 -0.1169 0.9811
-1.8429 4.1210 -0.1106 0.9821
-1.8434 4.0546 -0.1091 0.9823
-1.8449 3.8659 -0.1049 0.9830
-1.8458 3.7478 -0.1023 0.9834
-1.8462 3.6909 -0.1011 0.9836
-1.8467 3.6354 -0.0999 0.9838
-1.8471 3.5812 -0.0987 0.9840
-1.8479 3.4765 -0.0964 0.9844
-1.8483 3.4260 -0.0954 0.9845
-1.8494 3.2809 -0.0923 0.9850
-1.8497 3.2346 -0.0913 0.9852
-1.8504 3.1448 -0.0894 0.9855
-1.8514 3.0170 -0.0867 0.9859
-1.8520 2.9358 -0.0850 0.9862
-1.8525 2.8578 -0.0834 0.9865
-1.8528 2.8199 -0.0826 0.9866
-1.8531 2.7826 -0.0819 0.9867
-1.8533 2.7461 -0.0812 0.9868
-1.8536 2.7102 -0.0804 0.9869
-1.8539 2.6749 -0.0797 0.9871
-1.8546 2.5727 -0.0777 0.9874
-1.8548 2.5397 -0.0770 0.9875
-1.8550 2.5073 -0.0764 0.9876
-1.8553 2.4755 -0.0758 0.9877
-1.8557 2.4133 -0.0746 0.9879
-1.8563 2.3236 -0.0728 0.9882
-1.8567 2.2660 -0.0718 0.9883
-1.8569 2.2379 -0.0712 0.9884
-1.8571 2.2101 -0.0707 0.9885
-1.8573 2.1828 -0.0702 0.9886
-1.8575 2.1559 -0.0697 0.9887
-1.8577 2.1293 -0.0692 0.9888
-1.8582 2.0518 -0.0678 0.9890
-1.8588 1.9531 -0.0660 0.9893
-1.8590 1.9293 -0.0656 0.9893
-1.8591 1.9057 -0.0652 0.9894
-1.8593 1.8824 -0.0648 0.9895
-1.8594 1.8594 -0.0644 0.9895
-1.8596 1.8367 -0.0640 0.9896
-1.8597 1.8143 -0.0636 0.9897
-1.8599 1.7921 -0.0633 0.9897
-1.8600 1.7702 -0.0629 0.9898
-1.8850 1.7285 -0.0626 0.9898
-1.9326 1.7286 -0.0635 0.9897
-2.0066 1.7289 -0.0649 0.9895
-2.0578 1.7291 -0.0658 0.9893
-2.0839 1.7292 -0.0663 0.9892
-2.1374 1.7294 -0.0673 0.9891
-2.1648 1.7295 -0.0679 0.9890
-2.3691 1.7302 -0.0719 0.9883
-2.4320 1.7304 -0.0731 0.9881
-2.4643 1.7305 -0.0738 0.9880
-2.4971 1.7307 -0.0744 0.9879
-2.5306 1.7308 -0.0751 0.9878
-2.7449 1.7315 -0.0795 0.9871
-2.8221 1.7318 -0.0811 0.9868
-2.9025 1.7321 -0.0828 0.9866
-2.9440 1.7322 -0.0837 0.9864
-2.9863 1.7324 -0.0846 0.9863
-3.2596 1.7326 -0.0904 0.9853
-3.3086 1.7325 -0.0915 0.9852
-3.3590 1.7325 -0.0926 0.9850
-3.6913 1.7337 -0.0999 0.9838
-3.8781 1.7343 -0.1041 0.9831
-3.9438 1.7345 -0.1055 0.9829
-4.0115 1.7348 -0.1071 0.9827
-4.0812 1.7350 -0.1086 0.9824
-4.3030 1.7358 -0.1137 0.9816
-4.3816 1.7361 -0.1154 0.9813
-4.4627 1.7363 -0.1173 0.9810
-5.5655 1.7401 -0.1428 0.9769
-5.6902 1.7405 -0.1458 0.9765
-6.0969 1.7419 -0.1553 0.9749
-6.3991 1.7429 -0.1625 0.9738
-6.7304 1.7441 -0.1703 0.9726
-6.9084 1.7447 -0.1745 0.9719
-7.0955 1.7453 -0.1790 0.9712
-7.4998 1.7467 -0.1886 0.9697
-7.7187 1.7474 -0.1939 0.9688
-7.9502 1.7482 -0.1994 0.9680
-8.1952 1.7490 -0.2053 0.9670
-8.7238 1.7493 -0.2179 0.9650
-9.3257 1.7503 -0.2324 0.9627
-9.6621 1.7517 -0.2405 0.9615
-10.0228 1.7531 -0.2492 0.9601
-10.4106 1.7547 -0.2586 0.9586
-55.7712 6.9334 -1.3766 0.7986
-55.7681 6.5831 -1.3755 0.7988
-55.7651 6.2333 -1.3745 0.7989
-55.7592 5.5353 -1.3725 0.7992
-55.7562 5.1870 -1.3716 0.7993
-55.7532 4.8392 -1.3708 0.7994
-55.7502 4.4917 -1.3700 0.7995
-50.6605 3.1370 -1.2433 0.8162
-55.7383 3.1055 -1.3674 0.7998
-55.7353 2.7597 -1.3669 0.7999
-55.7325 2.4142 -1.3664 0.8000
-55.7295 2.0688 -1.3660 0.8000
-55.7207 1.0339 -1.3651 0.8001
-55.7177 0.6892 -1.3649 0.8002
-55.0330 0.3403 -1.3481 0.8024
-52.7535 0.0000 -1.6842 0.8097
-52.5739 -0.3251 -1.6785 0.8103
-52.2184 -0.9689 -1.6674 0.8114
-51.6938 -1.9190 -1.6515 0.8130
-51.5211 -2.2317 -1.6464 0.8135
-51.1789 -2.8515 -1.6364 0.8145
-50.8407 -3.4638 -1.6269 0.8155
-50.9127 -4.1020 -1.6307 0.8151
-51.5940 -4.4782 -1.6534 0.8128
-51.9968 -5.1619 -1.6682 0.8113
-51.4908 -6.0782 -1.6553 0.8126
-51.3238 -6.3806 -1.6511 0.8130
-50.9924 -6.9808 -1.6431 0.8139
-48.4164 -7.8527 -1.5659 0.8218
-48.2610 -8.1341 -1.5625 0.8221
-47.3428 -9.7981 -1.5435 0.8241
-43.3431 -9.5309 -1.4168 0.8373
-42.6011 -9.6443 -1.3945 0.8396
-40.3782 -9.4039 -1.3236 0.8471
-40.4405 -9.9473 -1.3296 0.8465
-40.4456 -10.2142 -1.3318 0.8462
-40.4507 -10.4820 -1.3341 0.8460
-40.4558 -10.7508 -1.3364 0.8458
-40.4609 -11.0205 -1.3388 0.8455
-40.4712 -11.5629 -1.3438 0.8450
-40.4764 -11.8355 -1.3463 0.8447
-40.4816 -12.1093 -1.3490 0.8444
-40.4869 -12.3842 -1.3517 0.8441
-40.4921 -12.6602 -1.3544 0.8438
-40.5027 -13.2155 -1.3602 0.8432
-40.5187 -14.0577 -1.3692 0.8423
-40.4991 -14.6145 -1.3745 0.8417
-36.5101 -13.4308 -1.2420 0.8558
-36.4200 -13.6540 -1.2417 0.8558
-40.5606 -15.7812 -1.3895 0.8401
-40.5717 -16.3661 -1.3967 0.8394
-40.5774 -16.6608 -1.4004 0.8390
-40.5830 -16.9572 -1.4042 0.8386
-40.5887 -17.2552 -1.4080 0.8382
-40.6059 -18.1592 -1.4201 0.8369
-40.6117 -18.4640 -1.4243 0.8365
-40.6234 -19.0791 -1.4328 0.8356
-40.6293 -19.3894 -1.4372 0.8351
-40.6352 -19.7017 -1.4417 0.8347
-40.5502 -19.9712 -1.4431 0.8345
-40.5562 -20.2868 -1.4477 0.8340
-40.6484 -20.6481 -1.4555 0.8332
-40.6730 -21.9427 -1.4754 0.8311
-40.6983 -23.2740 -1.4968 0.8289
-40.7178 -24.2985 -1.5138 0.8272
-40.6424 -25.2876 -1.5282 0.8257
-40.7422 -26.0542 -1.5439 0.8240
-36.9246 -24.2615 -1.4105 0.8379
-36.6875 -24.4319 -1.4072 0.8383
-35.2904 -24.4585 -1.3708 0.8421
-34.8405 -24.4670 -1.3592 0.8433
-34.3982 -24.4754 -1.3478 0.8445
-33.5354 -24.4919 -1.3258 0.8469
-32.7002 -24.5078 -1.3046 0.8491
-32.0794 -24.3537 -1.2858 0.8511
-31.7524 -24.4165 -1.2788 0.8519
-31.2880 -24.3688 -1.2661 0.8532
-30.7233 -24.5454 -1.2554 0.8544
-30.3455 -24.5526 -1.2462 0.8554
-29.9733 -24.5597 -1.2371 0.8563
-29.6064 -24.5667 -1.2282 0.8573
-29.2448 -24.5736 -1.2195 0.8582
-28.5366 -24.5870 -1.2026 0.8601
-27.8478 -24.6001 -1.1863 0.8618
-26.8486 -24.6192 -1.1630 0.8643
-25.8641 -24.9218 -1.1467 0.8661
-24.9365 -24.3271 -1.1122 0.8699
-24.6357 -24.3329 -1.1055 0.8706
-23.7546 -24.3497 -1.0860 0.8727
-23.4677 -24.3551 -1.0798 0.8734
-23.4302 -24.9259 -1.0921 0.8721
-23.4363 -25.2434 -1.0997 0.8712
-25.9348 -28.6369 -1.2335 0.8567
-25.9418 -29.0031 -1.2423 0.8558
-25.9488 -29.3745 -1.2513 0.8548
-25.9560 -29.7514 -1.2605 0.8538
-25.9922 -30.5476 -1.2803 0.8517
-20.1826 -24.0192 -1.0016 0.8820
-19.8469 -24.2217 -0.9997 0.8822
-19.6795 -24.3226 -0.9988 0.8823
-19.5123 -24.4234 -0.9980 0.8824
-19.3455 -24.5241 -0.9972 0.8825
-17.9465 -23.9456 -0.9553 0.8871
-33.9512 -45.8890 -1.8224 0.7958
-17.4790 -23.9330 -0.9461 0.8882
-17.2561 -23.9373 -0.9421 0.8886
-17.0351 -23.9415 -0.9381 0.8891
-16.8160 -23.9456 -0.9342 0.8895
-16.3832 -23.9539 -0.9265 0.8903
-14.1274 -21.2140 -0.8137 0.9030
-15.3310 -23.9739 -0.9085 0.8924
-15.5744 -25.3799 -0.9507 0.8877
-14.7322 -25.3959 -0.9373 0.8891
-14.5578 -25.4567 -0.9362 0.8893
-14.3519 -25.4606 -0.9331 0.8896
-13.7456 -25.4788 -0.9242 0.8906
-13.1525 -25.5006 -0.9160 0.8915
-12.9327 -25.4596 -0.9117 0.8920
-12.0409 -24.0716 -0.8593 0.8979
-12.0531 -24.4730 -0.8709 0.8966
-12.0607 -24.8755 -0.8826 0.8953
-11.5129 -24.1245 -0.8534 0.8985
-11.5238 -24.9362 -0.8770 0.8959
-11.5320 -25.3646 -0.8895 0.8945
-11.2239 -25.5202 -0.8901 0.8944
-11.0376 -25.5237 -0.8878 0.8947
-10.8522 -25.5273 -0.8856 0.8949
-10.6709 -25.5382 -0.8836 0.8951
-10.4910 -25.5506 -0.8818 0.8954
-10.3082 -25.5541 -0.8797 0.8956
-9.9394 -25.5462 -0.8751 0.8961
-9.5793 -25.5515 -0.8712 0.8965
-9.4008 -25.5549 -0.8693 0.8968
-8.6952 -24.0958 -0.8178 0.9026
-8.6940 -25.5684 -0.8622 0.8976
-8.5191 -25.5717 -0.8605 0.8977
-8.1530 -25.5212 -0.8553 0.8983
-7.8259 -25.5849 -0.8542 0.8985
-7.6542 -25.5882 -0.8527 0.8986
-6.9865 -25.6504 -0.8487 0.8991
-6.3003 -25.6139 -0.8421 0.8998
-6.1334 -25.6171 -0.8409 0.8999
-5.9669 -25.6203 -0.8398 0.9001
-5.8008 -25.6235 -0.8387 0.9002
-5.6351 -25.6266 -0.8377 0.9003
-5.4873 -27.3656 -0.8910 0.8943
-5.5353 -29.4925 -0.9580 0.8868
-5.6036 -30.9095 -1.0029 0.8819
-8.1102 -46.3676 -1.5028 0.8283
-6.9365 -46.3912 -1.4975 0.8288
-2.2195 -16.9939 -0.5471 0.9337
-2.1119 -16.9875 -0.5465 0.9338
-2.0049 -16.9843 -0.5460 0.9338
-1.8980 -16.9804 -0.5455 0.9339
-1.7917 -16.9793 -0.5451 0.9340
-1.6855 -16.9790 -0.5447 0.9340
-1.5796 -16.9791 -0.5444 0.9340
-1.4737 -16.9788 -0.5441 0.9341
-1.2621 -16.9763 -0.5435 0.9341
-1.0513 -16.9772 -0.5430 0.9342
-0.9460 -16.9783 -0.5429 0.9342
-0.8407 -16.9792 -0.5427 0.9342
-0.7355 -16.9796 -0.5426 0.9342
-0.5252 -16.9798 -0.5423 0.9343
-0.4201 -16.9801 -0.5423 0.9343
-0.1050 -16.9803 -0.5421 0.9343
0.0000 -16.9809 -0.5421 0.9343
0.1050 -16.9812 -0.5421 0.9343
0.2100 -16.9814 -0.5422 0.9343
0.4202 -16.9818 -0.5423 0.9343
0.8410 -16.9843 -0.5429 0.9342
1.0531 -17.0071 -0.5440 0.9341
1.1627 -17.0654 -0.5461 0.9338
2.0805 -25.8230 -0.8271 0.9015
2.2416 -25.8261 -0.8276 0.9015
2.5539 -25.7265 -0.8254 0.9017
2.8826 -25.7888 -0.8284 0.9014
3.0446 -25.7919 -0.8291 0.9013
3.5322 -25.8012 -0.8314 0.9010
3.6953 -25.8043 -0.8322 0.9009
3.8588 -25.8074 -0.8331 0.9008
4.0226 -25.8105 -0.8340 0.9007
3.9472 -24.3366 -0.7871 0.9060
4.3513 -25.8168 -0.8358 0.9005
4.5162 -25.8199 -0.8368 0.9004
4.6815 -25.8230 -0.8379 0.9003
4.8472 -25.8262 -0.8389 0.9002
5.0134 -25.8294 -0.8400 0.9001
5.3505 -25.8524 -0.8428 0.8997
6.0200 -25.8486 -0.8473 0.8992
6.1896 -25.8518 -0.8487 0.8991
6.3597 -25.8550 -0.8500 0.8989
5.6300 -21.1860 -0.6998 0.9160
5.7534 -21.1232 -0.6989 0.9161
7.2802 -25.4816 -0.8461 0.8994
7.2907 -24.9333 -0.8293 0.9013
5.2856 -17.6699 -0.5888 0.9288
5.3735 -17.1864 -0.5749 0.9305
5.4187 -16.9622 -0.5685 0.9312
5.4645 -16.7476 -0.5624 0.9319
5.5166 -16.5590 -0.5572 0.9325
5.6096 -16.4975 -0.5563 0.9326
5.7176 -16.4799 -0.5569 0.9326
10.0647 -25.8681 -0.8862 0.8949
10.6257 -25.8788 -0.8931 0.8941
10.2080 -24.4303 -0.8453 0.8995
10.4002 -24.4639 -0.8487 0.8991
10.5808 -24.4673 -0.8510 0.8988
11.1287 -24.4778 -0.8584 0.8980
11.3136 -24.4813 -0.8610 0.8977
12.0642 -24.4956 -0.8717 0.8965
12.4467 -24.5029 -0.8774 0.8958
12.6398 -24.5065 -0.8803 0.8955
12.8342 -24.5102 -0.8833 0.8952
16.1134 -29.0034 -1.0593 0.8757
16.1227 -28.6022 -1.0482 0.8769
16.1319 -28.2092 -1.0375 0.8781
16.1497 -27.4468 -1.0167 0.8803
28.8898 -47.0784 -1.7634 0.8017
29.2969 -47.0862 -1.7705 0.8010
30.1212 -47.1019 -1.7849 0.7995
30.4776 -47.0162 -1.7888 0.7991
30.9035 -47.0334 -1.7967 0.7983
31.3783 -47.1184 -1.8073 0.7973
17.7676 -25.6363 -0.9958 0.8826
17.9277 -25.5287 -0.9959 0.8826
18.0879 -25.4210 -0.9961 0.8826
18.4084 -25.2056 -0.9965 0.8826
20.1725 -26.2333 -1.0565 0.8760
19.9049 -25.2331 -1.0261 0.8793
19.9166 -24.6157 -1.0109 0.8810
20.2705 -24.4289 -1.0134 0.8807
20.5311 -24.4339 -1.0189 0.8801
20.7945 -24.4389 -1.0244 0.8795
21.0608 -24.4440 -1.0301 0.8789
24.3217 -26.1971 -1.1412 0.8667
23.2213 -24.7036 -1.0824 0.8731
24.9433 -26.2089 -1.1551 0.8652
25.2599 -26.2150 -1.1622 0.8644
25.9049 -26.2273 -1.1769 0.8628
26.5664 -26.2399 -1.1921 0.8612
27.2454 -26.2528 -1.2079 0.8595
26.3439 -24.7631 -1.1543 0.8653
29.0254 -26.2867 -1.2502 0.8549
29.1563 -25.7561 -1.2420 0.8558
29.1682 -25.1312 -1.2292 0.8572
32.5723 -26.3543 -1.3376 0.8456
32.9975 -26.3623 -1.3484 0.8445
33.4297 -26.3706 -1.3593 0.8433
33.8690 -26.3789 -1.3705 0.8421
34.3155 -26.3875 -1.3820 0.8409
32.5969 -24.7466 -1.3066 0.8489
32.5545 -24.3985 -1.2988 0.8497
35.7014 -26.4138 -1.4178 0.8372
35.7232 -25.7524 -1.4059 0.8384
25.3025 -17.7688 -0.9871 0.8836
25.2697 -17.2831 -0.9774 0.8847
25.6053 -16.5983 -0.9742 0.8850
26.2376 -16.5509 -0.9904 0.8832
26.8592 -16.4822 -1.0061 0.8815
27.1845 -16.4512 -1.0144 0.8806
38.5522 -22.6840 -1.4281 0.8361
38.5586 -22.3679 -1.4231 0.8366
38.5712 -21.7421 -1.4136 0.8376
38.5837 -21.1246 -1.4043 0.8386
39.2260 -20.8499 -1.4182 0.8371
40.4059 -20.8402 -1.4514 0.8336
41.0169 -20.8353 -1.4687 0.8318
41.6426 -20.8301 -1.4865 0.8300
44.3194 -20.8149 -1.5632 0.8220
45.0261 -20.8079 -1.5835 0.8200
45.7514 -20.8007 -1.6045 0.8178
46.4963 -20.7934 -1.6261 0.8156
47.2615 -20.7858 -1.6483 0.8133
48.0480 -20.7780 -1.6712 0.8110
48.8566 -20.7701 -1.6949 0.8086
49.6885 -20.7618 -1.7192 0.8061
52.3404 -20.7380 -1.7974 0.7983
54.2521 -20.7228 -1.8541 0.7926
55.2449 -20.7115 -1.8836 0.7897
60.7682 -20.6629 -2.0491 0.7735
64.5881 -20.6332 -2.1647 0.7623
65.6703 -20.5323 -2.1966 0.7593
65.7955 -20.1256 -2.1966 0.7593
66.2727 -18.4919 -2.1966 0.7593
67.2154 -18.3077 -2.2240 0.7567
68.6757 5.5331 -2.1996 0.7590
59.6120 5.9178 -1.9125 0.7868
67.0337 7.0735 -2.1520 0.7636
65.3518 7.3049 -2.0994 0.7686
65.2525 7.7027 -2.0977 0.7688
62.1823 7.7305 -2.0005 0.7782
59.6069 8.1602 -1.9207 0.7860
59.6148 8.5371 -1.9226 0.7858
59.6227 8.9149 -1.9246 0.7856
59.6307 9.2934 -1.9267 0.7854
59.0573 9.5786 -1.9101 0.7871
61.0097 10.2829 -1.9752 0.7807
61.0171 10.6726 -1.9776 0.7804
61.0246 11.0632 -1.9800 0.7802
61.0320 11.4549 -1.9825 0.7800
61.0395 11.8475 -1.9851 0.7797
61.0470 12.2412 -1.9877 0.7794
61.0545 12.6360 -1.9905 0.7792
57.0932 12.1848 -1.8638 0.7917
61.0772 13.8270 -1.9993 0.7783
61.0924 14.6271 -2.0055 0.7777
61.1001 15.0290 -2.0088 0.7774
61.1078 15.4323 -2.0121 0.7771
61.1232 16.2430 -2.0191 0.7764
62.7780 17.5168 -2.0808 0.7704
62.6730 17.9060 -2.0809 0.7704
62.5654 18.2945 -2.0811 0.7704
62.4561 18.6826 -2.0812 0.7704
62.2294 19.4565 -2.0815 0.7703
61.6225 21.3795 -2.0824 0.7703
61.4941 21.7619 -2.0825 0.7702
61.3633 22.1436 -2.0827 0.7702
60.8541 22.3862 -2.0701 0.7714
59.8784 22.4486 -2.0416 0.7742
25.8015 9.8555 -0.8818 0.8954
25.4783 9.9130 -0.8728 0.8964
25.2497 10.0043 -0.8671 0.8970
23.5332 9.6626 -0.8122 0.9032
23.4883 9.8144 -0.8127 0.9031
23.4486 9.9686 -0.8134 0.9031
16.4194 7.4650 -0.5758 0.9304
21.7277 10.2046 -0.7664 0.9084
21.7311 10.3707 -0.7687 0.9081
20.2922 9.8386 -0.7200 0.9137
20.1691 10.0888 -0.7200 0.9137
20.2166 10.5860 -0.7286 0.9127
20.2194 10.7473 -0.7310 0.9124
20.2221 10.9096 -0.7336 0.9121
18.3711 10.0582 -0.6687 0.9196
18.2176 10.1212 -0.6653 0.9200
17.5554 10.0394 -0.6456 0.9223
17.3341 10.1994 -0.6421 0.9227
17.2060 10.2677 -0.6397 0.9229
17.0552 10.3213 -0.6364 0.9233
17.0871 10.4856 -0.6400 0.9229
17.0161 10.5874 -0.6398 0.9229
15.3174 10.0644 -0.5851 0.9293
15.2234 10.1379 -0.5839 0.9294
15.0847 10.1808 -0.5810 0.9298
14.7002 10.1881 -0.5710 0.9309
13.9244 10.5710 -0.5581 0.9324
13.8625 10.6598 -0.5583 0.9324
13.7955 10.7447 -0.5583 0.9324
13.7385 10.8374 -0.5586 0.9324
12.5777 10.1767 -0.5165 0.9373
13.4682 11.1756 -0.5587 0.9324
12.4888 10.8956 -0.5291 0.9358
12.4918 11.0350 -0.5321 0.9355
12.4948 11.1760 -0.5352 0.9351
12.4979 11.3186 -0.5383 0.9347
11.0515 10.2604 -0.4814 0.9414
12.3493 11.6083 -0.5411 0.9344
11.0834 10.5481 -0.4885 0.9406
10.8104 10.6776 -0.4851 0.9410
10.7207 10.7207 -0.4840 0.9411
10.7691 11.1763 -0.4955 0.9398
10.7721 11.3187 -0.4988 0.9394
10.7482 11.5770 -0.5043 0.9387
10.6209 11.5827 -0.5017 0.9390
9.3452 10.3189 -0.4445 0.9458
9.3472 10.5812 -0.4507 0.9451
9.2434 10.8634 -0.4554 0.9445
9.2457 11.0033 -0.4588 0.9441
9.2553 11.5848 -0.4734 0.9424
9.1835 11.6419 -0.4734 0.9424
8.1887 10.6490 -0.4289 0.9477
7.9423 10.4619 -0.4193 0.9488
7.8024 10.4105 -0.4153 0.9493
7.6461 10.3346 -0.4104 0.9499
7.4560 10.2091 -0.4036 0.9507
7.3489 10.1942 -0.4012 0.9510
7.2430 10.1795 -0.3989 0.9512
7.0373 10.1540 -0.3944 0.9518
6.7100 10.2122 -0.3901 0.9523
6.5138 10.3261 -0.3898 0.9523
6.3804 10.3974 -0.3895 0.9524
6.1805 10.5040 -0.3891 0.9524
5.9347 10.6822 -0.3901 0.9523
5.8798 10.7393 -0.3909 0.9522
5.8246 10.7965 -0.3916 0.9521
5.7794 10.8731 -0.3931 0.9519
5.6963 11.0442 -0.3967 0.9515
5.6542 11.1309 -0.3986 0.9513
5.6253 11.4218 -0.4065 0.9503
5.6022 12.7379 -0.4443 0.9458
5.6110 13.1984 -0.4579 0.9442
5.6156 13.4395 -0.4650 0.9434
5.6203 13.6882 -0.4724 0.9425
5.6252 13.9449 -0.4801 0.9416
5.6409 14.7678 -0.5047 0.9387
5.6465 15.0611 -0.5135 0.9377
5.6709 16.3455 -0.5523 0.9331
5.6846 17.0636 -0.5742 0.9306
5.6919 17.4444 -0.5858 0.9292
5.6994 17.8410 -0.5979 0.9278
5.7073 18.2543 -0.6106 0.9263
5.7155 18.6855 -0.6238 0.9248
10.4306 36.5085 -1.2122 0.8590
9.9464 36.5177 -1.2083 0.8594
8.7738 36.6452 -1.2030 0.8600
8.5356 36.6498 -1.2014 0.8602
8.2980 36.6543 -1.1998 0.8604
7.8142 36.6144 -1.1953 0.8609
7.5888 36.6678 -1.1954 0.8608
7.0984 36.5720 -1.1894 0.8615
6.1670 36.5897 -1.1846 0.8620
5.3816 37.5801 -1.2120 0.8590
5.4802 40.0309 -1.2899 0.8507
5.6071 42.9322 -1.3823 0.8409
6.2230 50.0567 -1.6104 0.8172
5.9074 50.0440 -1.6088 0.8174
5.5953 50.0567 -1.6080 0.8174
1.1710 11.0969 -0.3562 0.9563
1.0858 10.9373 -0.3509 0.9570
0.9973 10.7205 -0.3437 0.9578
0.9244 10.6503 -0.3413 0.9581
0.8525 10.5811 -0.3389 0.9584
0.7816 10.5128 -0.3366 0.9587
0.6443 10.4046 -0.3328 0.9591
0.5779 10.3723 -0.3317 0.9593
0.5120 10.3403 -0.3305 0.9594
0.4465 10.3085 -0.3294 0.9595
0.2527 10.2144 -0.3262 0.9599
0.1893 10.2031 -0.3258 0.9600
-0.0629 10.1680 -0.3246 0.9601
-0.1883 10.1506 -0.3241 0.9602
-0.3141 10.1538 -0.3243 0.9602
-0.5682 10.1990 -0.3261 0.9599
-0.6322 10.2104 -0.3266 0.9599
-0.9627 10.3483 -0.3318 0.9593
-1.0309 10.3847 -0.3332 0.9591
-1.1690 10.4585 -0.3360 0.9588
-1.3188 10.6082 -0.3413 0.9581
-1.6832 11.2571 -0.3634 0.9555
-1.8317 11.7528 -0.3797 0.9535
-1.9064 11.7540 -0.3802 0.9535
-2.0563 11.7565 -0.3810 0.9534
-2.4517 10.8297 -0.3545 0.9565
-3.0663 11.8330 -0.3902 0.9523
-3.3030 11.8375 -0.3923 0.9520
-3.5423 11.8421 -0.3946 0.9517
-3.6227 11.8436 -0.3954 0.9516
-3.7034 11.8451 -0.3962 0.9515
-3.7630 11.7793 -0.3948 0.9517
-3.9170 11.7575 -0.3956 0.9516
-3.9251 11.5435 -0.3893 0.9524
-3.9287 11.3239 -0.3827 0.9532
-3.9322 11.1116 -0.3763 0.9539
-1.8269 4.7829 -0.1635 0.9797
-1.8286 4.6152 -0.1585 0.9803
-1.8309 4.3818 -0.1516 0.9812
-1.8337 4.1003 -0.1434 0.9822
-1.8349 3.9706 -0.1396 0.9826
-1.8361 3.8475 -0.1361 0.9831
-1.8372 3.7304 -0.1328 0.9835
-1.8383 3.6189 -0.1296 0.9839
-1.8388 3.5652 -0.1281 0.9841
-1.8398 3.4613 -0.1251 0.9844
-1.8403 3.4111 -0.1237 0.9846
-1.8412 3.3141 -0.1210 0.9849
-1.8421 3.2211 -0.1185 0.9853
-1.8433 3.0889 -0.1148 0.9857
-1.8437 3.0465 -0.1137 0.9858
-1.8441 3.0051 -0.1126 0.9860
-1.8448 2.9245 -0.1104 0.9863
-1.8451 2.8854 -0.1093 0.9864
-1.8468 2.7003 -0.1044 0.9870
-1.8474 2.6307 -0.1026 0.9872
-1.8480 2.5636 -0.1009 0.9874
-1.8483 2.5308 -0.1001 0.9875
-1.8489 2.4669 -0.0984 0.9877
-1.8492 2.4358 -0.0976 0.9878
-1.8494 2.4051 -0.0969 0.9879
-1.8497 2.3749 -0.0961 0.9880
-1.8499 2.3452 -0.0954 0.9881
-1.8502 2.3159 -0.0946 0.9882
-1.8504 2.2870 -0.0939 0.9883
-1.8509 2.2306 -0.0925 0.9885
-1.8511 2.2030 -0.0919 0.9886
-1.8514 2.1759 -0.0912 0.9886
-1.8518 2.1226 -0.0899 0.9888
-1.8524 2.0455 -0.0881 0.9890
-1.8526 2.0204 -0.0875 0.9891
-1.8528 1.9957 -0.0869 0.9892
-1.8530 1.9713 -0.0864 0.9892
-1.8534 1.9235 -0.0853 0.9894
-1.8538 1.8769 -0.0842 0.9895
-1.8540 1.8540 -0.0837 0.9896
-1.8542 1.8314 -0.0832 0.9896
-1.8547 1.7651 -0.0817 0.9898
-1.8548 1.7436 -0.0813 0.9899
-1.8601 1.7270 -0.0810 0.9899
-1.8834 1.7271 -0.0816 0.9898
-1.9310 1.7272 -0.0827 0.9897
-2.0560 1.7276 -0.0857 0.9893
-2.0821 1.7277 -0.0864 0.9892
-2.1086 1.7278 -0.0870 0.9891
-2.1355 1.7279 -0.0877 0.9891
-2.1629 1.7280 -0.0884 0.9890
-2.1906 1.7280 -0.0891 0.9889
-2.2188 1.7281 -0.0898 0.9888
-2.2475 1.7282 -0.0905 0.9887
-2.2766 1.7283 -0.0913 0.9886
-2.3363 1.7285 -0.0928 0.9884
-2.3980 1.7287 -0.0944 0.9882
-2.4947 1.7290 -0.0969 0.9879
-2.5281 1.7291 -0.0978 0.9878
-2.5621 1.7292 -0.0987 0.9877
-2.7047 1.7296 -0.1025 0.9872
-2.8589 1.7301 -0.1067 0.9867
-2.9408 1.7304 -0.1089 0.9864
-3.0262 1.7306 -0.1113 0.9861
-3.1155 1.7309 -0.1138 0.9858
-3.1615 1.7309 -0.1151 0.9857
-3.3553 1.7306 -0.1205 0.9850
-3.4071 1.7307 -0.1220 0.9848
-3.4603 1.7309 -0.1235 0.9846
-3.5148 1.7311 -0.1251 0.9844
-3.5707 1.7312 -0.1267 0.9842
-3.6280 1.7314 -0.1283 0.9840
-3.6869 1.7316 -0.1300 0.9838
-3.7473 1.7318 -0.1318 0.9836
-3.8094 1.7320 -0.1336 0.9834
-3.8732 1.7321 -0.1355 0.9832
-3.9389 1.7323 -0.1374 0.9829
-4.2971 1.7334 -0.1479 0.9816
-4.4564 1.7339 -0.1527 0.9810
-4.7154 1.7347 -0.1604 0.9801
-4.8077 1.7349 -0.1632 0.9798
-5.2113 1.7361 -0.1754 0.9783
-5.5560 1.7371 -0.1858 0.9770
-5.8097 1.7379 -0.1936 0.9760
-6.2327 1.7391 -0.2066 0.9744
-7.2763 1.7421 -0.2389 0.9705
-7.4829 1.7427 -0.2453 0.9697
-7.7008 1.7434 -0.2521 0.9689
-7.9312 1.7440 -0.2593 0.9680
-8.7075 1.7460 -0.2835 0.9651
-8.9966 1.7462 -0.2926 0.9640
-9.3101 1.7474 -0.3024 0.9628
-9.6453 1.7486 -0.3130 0.9615
-10.0048 1.7499 -0.3243 0.9602
-11.2717 1.7567 -0.3642 0.9554
-55.7827 8.3407 -1.8007 0.7979
-55.7769 7.6358 -1.7973 0.7983
-55.7739 7.2843 -1.7957 0.7984
-55.7708 6.9334 -1.7942 0.7986
-55.7678 6.5830 -1.7928 0.7987
-55.7648 6.2333 -1.7914 0.7989
-55.7589 5.5353 -1.7889 0.7991
-55.7559 5.1870 -1.7877 0.7992
-55.7469 4.1446 -1.7846 0.7995
-50.5964 3.4472 -1.6191 0.8163
-50.5034 3.1273 -1.6154 0.8167
-55.7350 2.7596 -1.7815 0.7999
-55.7322 2.4141 -1.7809 0.7999
-55.7292 2.0688 -1.7804 0.8000
-53.4842 1.3233 -1.7080 0.8073
-52.9342 0.3273 -1.6900 0.8091
-52.7532 0.0000 -2.0763 0.8096
-52.5737 -0.3251 -2.0693 0.8102
-52.2182 -0.9689 -2.0556 0.8113
-52.0422 -1.2876 -2.0490 0.8119
-51.8673 -1.6043 -2.0424 0.8124
-51.6935 -1.9190 -2.0360 0.8130
-51.5208 -2.2317 -2.0297 0.8135
-51.3492 -2.5425 -2.0236 0.8140
-51.1786 -2.8515 -2.0175 0.8145
-51.0091 -3.1585 -2.0115 0.8150
-50.8405 -3.4638 -2.0057 0.8155
-51.5935 -4.4782 -2.0383 0.8128
-51.8271 -5.4689 -2.0512 0.8117
-51.6584 -5.7743 -2.0459 0.8121
-51.4906 -6.0782 -2.0407 0.8126
-48.2608 -8.1341 -1.9263 0.8221
-48.0679 -8.7143 -1.9228 0.8224
-47.3650 -8.8897 -1.8968 0.8245
-47.3426 -9.7981 -1.9029 0.8240
-47.1916 -10.0716 -1.8993 0.8243
-42.9702 -9.4489 -1.7317 0.8385
-39.9127 -9.0356 -1.6107 0.8489
-40.0595 -9.5913 -1.6213 0.8480
-39.9499 -9.8266 -1.6193 0.8482
-39.9518 -10.0895 -1.6218 0.8479
-40.4504 -10.4820 -1.6447 0.8460
-40.4555 -10.7507 -1.6476 0.8457
-40.4710 -11.5628 -1.6567 0.8449
-40.4762 -11.8354 -1.6598 0.8447
-40.5024 -13.2154 -1.6769 0.8432
-40.5078 -13.4949 -1.6805 0.8429
-40.5131 -13.7756 -1.6842 0.8426
-40.4992 -14.6146 -1.6946 0.8417
-36.4302 -13.4014 -1.5278 0.8561
-36.2969 -13.6078 -1.5257 0.8563
-40.5549 -15.4909 -1.7087 0.8405
-40.5604 -15.7811 -1.7130 0.8401
-40.5659 -16.0728 -1.7174 0.8397
-40.5715 -16.3660 -1.7219 0.8393
-40.5771 -16.6608 -1.7265 0.8390
-40.5828 -16.9571 -1.7311 0.8386
-40.5941 -17.5547 -1.7408 0.8377
-40.6173 -18.7705 -1.7611 0.8360
-40.6231 -19.0790 -1.7665 0.8356
-40.6542 -20.9683 -1.8004 0.8327
-40.6665 -21.6156 -1.8127 0.8316
-40.6728 -21.9426 -1.8190 0.8311
-40.6790 -22.2719 -1.8254 0.8306
-40.6853 -22.6034 -1.8319 0.8300
-40.6917 -22.9374 -1.8385 0.8295
-40.6981 -23.2739 -1.8453 0.8289
-40.7045 -23.6128 -1.8522 0.8283
-40.7176 -24.2983 -1.8663 0.8271
-40.7242 -24.6451 -1.8735 0.8265
-40.7420 -26.0540 -1.9034 0.8240
-36.9247 -24.2616 -1.7390 0.8379
-36.6876 -24.4319 -1.7349 0.8382
-35.7481 -24.4498 -1.7046 0.8408
-34.8406 -24.4671 -1.6757 0.8433
-34.3983 -24.4755 -1.6616 0.8445
-33.5355 -24.4919 -1.6345 0.8468
-32.7003 -24.5078 -1.6084 0.8491
-31.7523 -24.4164 -1.5765 0.8519
-31.2881 -24.3688 -1.5609 0.8532
-30.9433 -24.4092 -1.5512 0.8540
-30.3456 -24.5526 -1.5364 0.8553
-29.9733 -24.5597 -1.5252 0.8563
-29.2448 -24.5736 -1.5035 0.8582
-28.8883 -24.5804 -1.4929 0.8591
-28.5367 -24.5871 -1.4826 0.8600
-28.1899 -24.5937 -1.4724 0.8609
-27.8478 -24.6002 -1.4625 0.8618
-27.1773 -24.6129 -1.4432 0.8635
-25.8639 -24.9216 -1.4137 0.8661
-24.9365 -24.3272 -1.3712 0.8698
-24.6357 -24.3329 -1.3629 0.8706
-24.3385 -24.3386 -1.3547 0.8713
-23.7547 -24.3497 -1.3389 0.8727
-22.6441 -23.7930 -1.2928 0.8768
-22.8464 -24.3048 -1.3129 0.8750
-22.8550 -24.9247 -1.3310 0.8734
-22.2627 -24.5822 -1.3054 0.8757
-22.8683 -25.8874 -1.3595 0.8709
-22.8729 -26.2175 -1.3694 0.8700
-19.8469 -24.2217 -1.2325 0.8822
-19.5123 -24.4234 -1.2304 0.8824
-19.3455 -24.5240 -1.2294 0.8825
-19.1789 -24.6245 -1.2285 0.8825
-18.1561 -23.9157 -1.1818 0.8867
-17.5079 -23.9726 -1.1684 0.8880
-18.1355 -25.1572 -1.2206 0.8833
-17.8334 -25.3944 -1.2214 0.8832
-16.6124 -23.9696 -1.1479 0.8898
-17.3744 -25.4031 -1.2113 0.8841
-14.2770 -21.1540 -1.0045 0.9029
-15.6093 -25.4367 -1.1746 0.8874
-15.3960 -25.4408 -1.1704 0.8878
-14.7652 -25.4528 -1.1582 0.8889
-14.5579 -25.4568 -1.1542 0.8892
-14.1473 -25.4646 -1.1466 0.8899
-13.7461 -25.4798 -1.1395 0.8906
-13.5486 -25.4897 -1.1362 0.8909
