ply
format ascii 1.0
element vertex 1594
property float32 x
property float32 y
property float32 z
property float32 I
end_header
4.5001 1.6239 -1.6328 0.9800
4.3097 1.8008 -1.5941 0.9805
4.2935 1.8253 -1.5922 0.9805
4.2772 1.8497 -1.5904 0.9805
4.2610 1.8740 -1.5887 0.9805
4.2447 1.8983 -1.5870 0.9805
4.1792 2.0262 -1.5851 0.9806
4.1381 2.1996 -1.5994 0.9804
4.1221 2.2901 -1.6094 0.9803
4.1131 2.3521 -1.6171 0.9802
4.1101 2.3843 -1.6217 0.9801
4.1135 2.6665 -1.6731 0.9795
4.1196 2.8176 -1.7034 0.9791
4.1203 2.8557 -1.7110 0.9790
4.1197 2.9313 -1.7256 0.9789
4.1194 2.9696 -1.7332 0.9788
4.1191 3.0083 -1.7408 0.9787
4.1195 3.0874 -1.7570 0.9785
4.1211 3.2098 -1.7828 0.9782
4.1217 3.2514 -1.7917 0.9781
4.1221 3.3776 -1.8188 0.9777
4.1226 3.4641 -1.8378 0.9775
4.1229 3.5081 -1.8476 0.9774
4.1233 3.5526 -1.8575 0.9773
4.1238 3.6429 -1.8779 0.9770
4.1240 3.6888 -1.8884 0.9769
4.1243 3.7351 -1.8990 0.9768
4.1245 3.7821 -1.9099 0.9766
4.1252 3.8777 -1.9323 0.9764
4.1300 4.0291 -1.9692 0.9759
4.1318 4.0810 -1.9820 0.9758
4.1353 4.1868 -2.0084 0.9754
4.1367 4.2931 -2.0347 0.9751
4.4847 4.8305 -2.2496 0.9725
4.3944 4.9129 -2.2496 0.9725
4.3639 4.9401 -2.2496 0.9725
4.3333 4.9670 -2.2496 0.9725
4.3025 4.9937 -2.2497 0.9725
4.2716 5.0202 -2.2497 0.9725
4.2405 5.0465 -2.2497 0.9725
4.1777 5.0986 -2.2497 0.9725
4.1461 5.1244 -2.2497 0.9725
4.0825 5.1753 -2.2497 0.9725
4.0504 5.2005 -2.2497 0.9725
4.0182 5.2254 -2.2497 0.9725
3.9533 5.2748 -2.2497 0.9725
3.9206 5.2991 -2.2497 0.9725
3.7884 5.3946 -2.2498 0.9725
3.7214 5.4411 -2.2498 0.9725
3.5857 5.5315 -2.2498 0.9725
3.5514 5.5536 -2.2498 0.9725
3.5170 5.5754 -2.2498 0.9725
3.4478 5.6185 -2.2498 0.9725
3.3781 5.6608 -2.2498 0.9725
3.2371 5.7427 -2.2499 0.9725
3.2015 5.7626 -2.2499 0.9725
3.1300 5.8018 -2.2499 0.9725
3.0941 5.8210 -2.2499 0.9725
3.0580 5.8401 -2.2499 0.9725
2.9856 5.8775 -2.2499 0.9725
2.9127 5.9140 -2.2499 0.9725
2.8393 5.9496 -2.2499 0.9725
2.7284 6.0012 -2.2499 0.9725
2.6913 6.0180 -2.2499 0.9725
2.6167 6.0509 -2.2500 0.9725
2.5792 6.0670 -2.2500 0.9725
2.5416 6.0828 -2.2500 0.9725
2.5040 6.0984 -2.2500 0.9725
2.4662 6.1138 -2.2500 0.9725
2.4284 6.1289 -2.2500 0.9725
2.3904 6.1438 -2.2500 0.9725
2.3524 6.1585 -2.2500 0.9725
2.2760 6.1872 -2.2500 0.9725
2.1994 6.2149 -2.2500 0.9725
2.1609 6.2284 -2.2500 0.9725
2.0450 6.2674 -2.2500 0.9725
1.9673 6.2922 -2.2500 0.9725
1.8502 6.3277 -2.2500 0.9725
1.8111 6.3390 -2.2500 0.9725
1.6932 6.3715 -2.2500 0.9725
1.5747 6.4019 -2.2500 0.9725
1.5351 6.4115 -2.2500 0.9725
1.4954 6.4209 -2.2500 0.9725
1.2962 6.4640 -2.2501 0.9725
1.2562 6.4720 -2.2501 0.9725
1.2161 6.4796 -2.2501 0.9725
1.1760 6.4870 -2.2501 0.9725
1.0957 6.5011 -2.2501 0.9725
1.0555 6.5077 -2.2501 0.9725
0.9749 6.5203 -2.2501 0.9725
0.9346 6.5262 -2.2501 0.9725
0.8942 6.5319 -2.2501 0.9725
0.8538 6.5372 -2.2501 0.9725
0.7324 6.5520 -2.2501 0.9725
0.6918 6.5564 -2.2501 0.9725
0.6513 6.5605 -2.2501 0.9725
0.6107 6.5645 -2.2501 0.9725
0.5701 6.5681 -2.2501 0.9725
0.5295 6.5715 -2.2501 0.9725
0.4888 6.5746 -2.2501 0.9725
0.4075 6.5802 -2.2501 0.9725
0.3260 6.5847 -2.2501 0.9725
0.2038 6.5896 -2.2501 0.9725
0.0815 6.5923 -2.2501 0.9725
-0.0408 6.5927 -2.2501 0.9725
-0.1631 6.5907 -2.2501 0.9725
-0.2038 6.5896 -2.2501 0.9725
-0.2446 6.5882 -2.2501 0.9725
-0.2006 2.9441 -1.0071 0.9876
-0.1999 2.4816 -0.8497 0.9895
-0.1997 2.3006 -0.7881 0.9903
-0.1995 2.1441 -0.7349 0.9909
-0.1991 1.8869 -0.6475 0.9920
-0.1990 1.7799 -0.6112 0.9925
-0.2031 1.7207 -0.5913 0.9927
-0.2247 1.7208 -0.5923 0.9927
-0.2356 1.7209 -0.5928 0.9927
-0.2464 1.7209 -0.5933 0.9927
-0.2573 1.7210 -0.5939 0.9927
-0.2791 1.7211 -0.5951 0.9927
-0.2901 1.7211 -0.5957 0.9927
-0.3011 1.7212 -0.5963 0.9926
-0.3120 1.7212 -0.5970 0.9926
-0.3231 1.7213 -0.5977 0.9926
-0.3341 1.7214 -0.5985 0.9926
-0.3452 1.7214 -0.5992 0.9926
-0.3563 1.7215 -0.6000 0.9926
-0.3674 1.7215 -0.6008 0.9926
-0.3786 1.7216 -0.6016 0.9926
-0.3898 1.7217 -0.6025 0.9926
-0.4010 1.7217 -0.6033 0.9926
-0.4122 1.7218 -0.6042 0.9925
-0.4235 1.7219 -0.6052 0.9925
-0.4576 1.7221 -0.6081 0.9925
-0.4805 1.7222 -0.6102 0.9925
-0.4921 1.7223 -0.6113 0.9925
-0.5036 1.7223 -0.6124 0.9924
-0.5386 1.7225 -0.6160 0.9924
-0.5621 1.7227 -0.6185 0.9924
-0.5739 1.7228 -0.6197 0.9924
-0.5858 1.7229 -0.6211 0.9923
-0.5978 1.7229 -0.6224 0.9923
-0.6097 1.7230 -0.6238 0.9923
-0.6339 1.7232 -0.6266 0.9923
-0.6583 1.7233 -0.6296 0.9922
-0.6705 1.7234 -0.6311 0.9922
-0.7077 1.7237 -0.6359 0.9922
-0.7969 1.7243 -0.6483 0.9920
-0.8230 1.7245 -0.6521 0.9920
-0.8362 1.7246 -0.6541 0.9919
-0.8494 1.7247 -0.6561 0.9919
-0.8628 1.7248 -0.6582 0.9919
-0.8762 1.7249 -0.6603 0.9919
-0.8897 1.7250 -0.6624 0.9918
-0.9586 1.7255 -0.6737 0.9917
-1.0156 1.7260 -0.6835 0.9916
-1.0301 1.7261 -0.6860 0.9915
-1.0447 1.7262 -0.6886 0.9915
-1.0742 1.7265 -0.6940 0.9914
-1.0891 1.7266 -0.6967 0.9914
-1.1194 1.7268 -0.7023 0.9913
-1.1814 1.7273 -0.7142 0.9912
-1.1973 1.7275 -0.7173 0.9912
-1.2294 1.7278 -0.7237 0.9911
-1.2456 1.7279 -0.7270 0.9910
-1.2620 1.7280 -0.7303 0.9910
-1.2786 1.7282 -0.7337 0.9910
-1.2953 1.7283 -0.7371 0.9909
-1.3122 1.7285 -0.7407 0.9909
-1.3465 1.7288 -0.7479 0.9908
-1.3639 1.7289 -0.7516 0.9907
-1.3814 1.7291 -0.7553 0.9907
-1.4906 1.7301 -0.7794 0.9904
-1.5095 1.7303 -0.7837 0.9903
-1.5675 1.7308 -0.7970 0.9902
-1.5873 1.7310 -0.8015 0.9901
-1.6072 1.7312 -0.8062 0.9901
-1.6478 1.7315 -0.8158 0.9899
-1.6894 1.7317 -0.8257 0.9898
-1.7106 1.7319 -0.8308 0.9898
-1.7320 1.7320 -0.8360 0.9897
-1.7537 1.7322 -0.8413 0.9896
-1.7757 1.7323 -0.8467 0.9896
-1.7980 1.7325 -0.8521 0.9895
-1.8666 1.7329 -0.8693 0.9893
-2.0125 1.7340 -0.9066 0.9888
-2.0381 1.7342 -0.9133 0.9888
-2.1171 1.7348 -0.9342 0.9885
-2.1443 1.7350 -0.9414 0.9884
-2.3166 1.7363 -0.9881 0.9878
-2.3780 1.7367 -1.0050 0.9876
-2.4095 1.7370 -1.0137 0.9875
-2.4415 1.7372 -1.0227 0.9874
-2.5077 1.7380 -1.0413 0.9872
-2.5418 1.7385 -1.0510 0.9871
-2.6117 1.7393 -1.0709 0.9868
-2.6840 1.7399 -1.0917 0.9866
-2.9191 1.7420 -1.1602 0.9857
-3.0042 1.7428 -1.1854 0.9854
-3.1391 1.7440 -1.2256 0.9849
-3.2834 1.7452 -1.2691 0.9844
-3.4383 1.7466 -1.3162 0.9838
-3.4926 1.7470 -1.3328 0.9836
-3.6053 1.7480 -1.3675 0.9832
-3.6639 1.7485 -1.3856 0.9830
-3.7241 1.7491 -1.4042 0.9828
-3.8481 1.7496 -1.4427 0.9823
-3.9790 1.7500 -1.4836 0.9818
-4.0473 1.7503 -1.5050 0.9815
-4.1176 1.7505 -1.5270 0.9813
-4.2643 1.7509 -1.5733 0.9807
-4.3405 1.7509 -1.5974 0.9804
-4.4190 1.7509 -1.6223 0.9801
-4.5837 1.7509 -1.6746 0.9795
-4.6701 1.7508 -1.7022 0.9791
-4.7594 1.7508 -1.7308 0.9788
-4.8517 1.7508 -1.7604 0.9784
-4.9473 1.7508 -1.7911 0.9781
-6.6606 2.2648 -2.4010 0.9707
-6.6880 2.1822 -2.4010 0.9707
-6.7273 2.0578 -2.4010 0.9707
-6.7521 1.9743 -2.4010 0.9707
-6.7642 1.9326 -2.4009 0.9707
-6.7760 1.8906 -2.4009 0.9707
-6.7987 1.8067 -2.4009 0.9707
-6.8205 1.7225 -2.4009 0.9707
-6.8512 1.5956 -2.4008 0.9707
-6.8795 1.4682 -2.4008 0.9707
-6.8884 1.4256 -2.4008 0.9707
-6.8970 1.3830 -2.4008 0.9707
-6.9054 1.3403 -2.4008 0.9707
-6.9214 1.2548 -2.4007 0.9707
-6.9290 1.2120 -2.4007 0.9707
-6.9363 1.1691 -2.4007 0.9707
-6.9434 1.1262 -2.4007 0.9707
-6.9567 1.0402 -2.4007 0.9707
-6.9630 0.9971 -2.4006 0.9707
-6.9853 0.8246 -2.4006 0.9707
-6.9902 0.7813 -2.4006 0.9707
-6.9993 0.6948 -2.4006 0.9707
-7.0073 0.6082 -2.4005 0.9707
-7.0200 0.4347 -2.4005 0.9707
-7.0285 0.2609 -2.4004 0.9707
-6.8657 -0.0424 -2.4003 0.9713
-6.8646 -0.1274 -2.4003 0.9713
-6.8637 -0.1698 -2.4003 0.9713
-6.8610 -0.2547 -2.4003 0.9713
-6.8592 -0.2971 -2.4003 0.9713
-6.8572 -0.3395 -2.4002 0.9713
-6.8549 -0.3820 -2.4002 0.9713
-6.8466 -0.5090 -2.4002 0.9713
-6.8433 -0.5513 -2.4002 0.9713
-6.8358 -0.6359 -2.4002 0.9713
-6.8274 -0.7204 -2.4001 0.9713
-6.8179 -0.8048 -2.4001 0.9713
-6.8127 -0.8470 -2.4001 0.9713
-6.8073 -0.8891 -2.4001 0.9713
-6.8017 -0.9312 -2.4001 0.9713
-6.7957 -0.9732 -2.4001 0.9713
-6.7895 -1.0152 -2.4000 0.9713
-6.7831 -1.0572 -2.4000 0.9713
-6.7764 -1.0991 -2.4000 0.9713
-6.7694 -1.1409 -2.4000 0.9713
-6.7470 -1.2663 -2.4000 0.9713
-6.7308 -1.3496 -2.3999 0.9713
-6.7222 -1.3912 -2.3999 0.9713
-6.7135 -1.4328 -2.3999 0.9713
-6.7045 -1.4743 -2.3999 0.9713
-6.6952 -1.5157 -2.3999 0.9713
-6.6856 -1.5571 -2.3999 0.9713
-6.6758 -1.5984 -2.3999 0.9713
-6.6555 -1.6808 -2.3998 0.9713
-6.6231 -1.8039 -2.3998 0.9713
-6.6002 -1.8857 -2.3998 0.9713
-6.5763 -1.9672 -2.3998 0.9713
-6.5640 -2.0078 -2.3997 0.9713
-6.5385 -2.0888 -2.3997 0.9713
-6.5255 -2.1292 -2.3997 0.9713
-6.5122 -2.1695 -2.3997 0.9713
-6.4986 -2.2097 -2.3997 0.9713
-6.4848 -2.2498 -2.3997 0.9713
-6.4707 -2.2899 -2.3997 0.9713
-6.4564 -2.3299 -2.3996 0.9713
-6.4418 -2.3697 -2.3996 0.9713
-6.4119 -2.4492 -2.3996 0.9713
-6.3966 -2.4888 -2.3996 0.9713
-6.3811 -2.5283 -2.3996 0.9713
-6.3653 -2.5677 -2.3996 0.9713
-6.3330 -2.6462 -2.3995 0.9713
-6.3165 -2.6853 -2.3995 0.9713
-6.2827 -2.7632 -2.3995 0.9713
-6.2655 -2.8020 -2.3995 0.9713
-6.2303 -2.8792 -2.3995 0.9713
-6.2123 -2.9177 -2.3995 0.9713
-6.1942 -2.9560 -2.3995 0.9713
-6.1382 -3.0704 -2.3994 0.9713
-6.1190 -3.1082 -2.3994 0.9713
-6.0997 -3.1460 -2.3994 0.9713
-6.0801 -3.1837 -2.3994 0.9713
-6.0602 -3.2212 -2.3994 0.9713
-6.0199 -3.2959 -2.3994 0.9713
-5.9786 -3.3700 -2.3993 0.9713
-5.9150 -3.4804 -2.3993 0.9713
-5.8933 -3.5168 -2.3993 0.9713
-5.8714 -3.5532 -2.3993 0.9713
-5.8044 -3.6615 -2.3992 0.9713
-5.7354 -3.7685 -2.3992 0.9713
-5.6883 -3.8391 -2.3992 0.9713
-5.6644 -3.8742 -2.3992 0.9713
-5.6403 -3.9091 -2.3992 0.9713
-5.6160 -3.9439 -2.3992 0.9713
-5.5668 -4.0130 -2.3991 0.9713
-5.5418 -4.0474 -2.3991 0.9713
-5.5167 -4.0815 -2.3991 0.9713
-5.4913 -4.1156 -2.3991 0.9713
-5.4657 -4.1494 -2.3991 0.9713
-5.4139 -4.2167 -2.3991 0.9713
-5.3613 -4.2833 -2.3991 0.9713
-5.3079 -4.3492 -2.3990 0.9713
-5.2537 -4.4145 -2.3990 0.9713
-5.1986 -4.4791 -2.3990 0.9713
-5.1428 -4.5430 -2.3990 0.9713
-5.0862 -4.6062 -2.3990 0.9713
-4.9998 -4.6997 -2.3989 0.9713
-4.9706 -4.7306 -2.3989 0.9713
-4.9412 -4.7612 -2.3989 0.9713
-4.8819 -4.8219 -2.3989 0.9713
-4.8219 -4.8819 -2.3989 0.9713
-4.7916 -4.9116 -2.3989 0.9713
-4.7304 -4.9704 -2.3989 0.9713
-4.6060 -5.0859 -2.3988 0.9713
-4.5426 -5.1424 -2.3988 0.9713
-4.3158 -5.3341 -2.3988 0.9713
-4.2827 -5.3606 -2.3988 0.9713
-4.2161 -5.4131 -2.3987 0.9713
-4.1825 -5.4391 -2.3987 0.9713
-4.1149 -5.4904 -2.3987 0.9713
-4.0808 -5.5157 -2.3987 0.9713
-4.0466 -5.5408 -2.3987 0.9713
-3.9778 -5.5904 -2.3987 0.9713
-3.9431 -5.6149 -2.3987 0.9713
-3.9083 -5.6391 -2.3987 0.9713
-3.8382 -5.6870 -2.3987 0.9713
-3.8030 -5.7107 -2.3987 0.9713
-3.6964 -5.7802 -2.3986 0.9713
-3.6605 -5.8029 -2.3986 0.9713
-3.6246 -5.8254 -2.3986 0.9713
-3.5885 -5.8477 -2.3986 0.9713
-3.5522 -5.8698 -2.3986 0.9713
-3.4427 -5.9346 -2.3986 0.9713
-3.3320 -5.9974 -2.3986 0.9713
-3.2575 -6.0381 -2.3986 0.9713
-3.0312 -6.1548 -2.3985 0.9713
-2.9931 -6.1734 -2.3985 0.9713
-2.8781 -6.2278 -2.3985 0.9713
-2.7620 -6.2801 -2.3985 0.9713
-2.5665 -6.3624 -2.3985 0.9713
-2.4876 -6.3936 -2.3985 0.9713
-2.4480 -6.4089 -2.3985 0.9713
-2.4083 -6.4239 -2.3985 0.9713
-2.3686 -6.4387 -2.3985 0.9713
-2.2487 -6.4814 -2.3984 0.9713
-2.2086 -6.4952 -2.3984 0.9713
-2.0472 -6.5478 -2.3984 0.9713
-2.0067 -6.5604 -2.3984 0.9713
-1.9661 -6.5726 -2.3984 0.9713
-1.8846 -6.5965 -2.3984 0.9713
-1.8438 -6.6080 -2.3984 0.9713
-1.7619 -6.6302 -2.3984 0.9713
-1.7209 -6.6410 -2.3984 0.9713
-1.6386 -6.6618 -2.3984 0.9713
-1.5561 -6.6815 -2.3984 0.9713
-1.4733 -6.7002 -2.3984 0.9713
-1.3904 -6.7179 -2.3984 0.9713
-1.3072 -6.7346 -2.3984 0.9713
-1.2655 -6.7426 -2.3984 0.9713
-1.1820 -6.7577 -2.3984 0.9713
-1.1402 -6.7649 -2.3984 0.9713
-1.0983 -6.7718 -2.3984 0.9713
-1.0564 -6.7784 -2.3984 0.9713
-1.0145 -6.7848 -2.3984 0.9713
-0.9725 -6.7910 -2.3984 0.9713
-0.8042 -6.8129 -2.3984 0.9713
-0.7199 -6.8224 -2.3984 0.9713
-0.6777 -6.8267 -2.3984 0.9713
-0.5932 -6.8345 -2.3984 0.9713
-0.4663 -6.8443 -2.3984 0.9713
-0.2969 -6.8538 -2.3984 0.9713
-0.2121 -6.8569 -2.3984 0.9713
-0.1273 -6.8591 -2.3984 0.9713
-0.0849 -6.8597 -2.3984 0.9713
-0.0000 -6.8603 -2.3984 0.9713
0.1697 -6.8581 -2.3984 0.9713
0.2545 -6.8555 -2.3984 0.9713
0.3816 -6.8496 -2.3984 0.9713
0.4240 -6.8471 -2.3984 0.9713
0.4663 -6.8444 -2.3984 0.9713
0.5932 -6.8346 -2.3984 0.9713
0.6355 -6.8308 -2.3984 0.9713
0.6777 -6.8267 -2.3984 0.9713
0.7621 -6.8179 -2.3984 0.9713
0.8042 -6.8130 -2.3984 0.9713
0.9305 -6.7969 -2.3984 0.9713
1.0564 -6.7785 -2.3984 0.9713
1.0983 -6.7719 -2.3984 0.9713
1.1820 -6.7578 -2.3984 0.9713
1.2238 -6.7504 -2.3984 0.9713
1.3072 -6.7347 -2.3984 0.9713
1.3488 -6.7265 -2.3984 0.9713
1.3904 -6.7180 -2.3984 0.9713
1.4734 -6.7004 -2.3984 0.9713
1.5561 -6.6816 -2.3984 0.9713
1.5974 -6.6719 -2.3985 0.9713
1.6798 -6.6517 -2.3985 0.9713
1.7209 -6.6412 -2.3985 0.9713
1.7620 -6.6304 -2.3985 0.9713
1.8029 -6.6194 -2.3985 0.9713
1.8847 -6.5966 -2.3985 0.9713
1.9254 -6.5848 -2.3985 0.9713
2.0067 -6.5605 -2.3985 0.9713
2.0473 -6.5480 -2.3985 0.9713
2.1684 -6.5089 -2.3985 0.9713
2.2488 -6.4817 -2.3985 0.9713
2.2888 -6.4676 -2.3985 0.9713
2.3288 -6.4534 -2.3985 0.9713
2.4084 -6.4241 -2.3985 0.9713
2.4877 -6.3939 -2.3986 0.9713
2.5272 -6.3784 -2.3986 0.9713
2.6059 -6.3466 -2.3986 0.9713
2.7232 -6.2973 -2.3986 0.9713
2.8009 -6.2631 -2.3986 0.9713
2.8396 -6.2457 -2.3986 0.9713
2.8782 -6.2280 -2.3986 0.9713
3.0694 -6.1362 -2.3986 0.9713
3.1073 -6.1171 -2.3986 0.9713
3.3692 -5.9770 -2.3987 0.9713
3.4061 -5.9561 -2.3987 0.9713
3.5160 -5.8919 -2.3987 0.9713
3.5524 -5.8701 -2.3987 0.9713
3.5886 -5.8480 -2.3987 0.9713
3.6247 -5.8257 -2.3987 0.9713
3.6965 -5.7804 -2.3988 0.9713
3.7678 -5.7343 -2.3988 0.9713
3.8384 -5.6873 -2.3988 0.9713
3.9085 -5.6394 -2.3988 0.9713
3.9433 -5.6152 -2.3988 0.9713
3.9780 -5.5907 -2.3988 0.9713
4.0125 -5.5660 -2.3988 0.9713
4.1490 -5.4652 -2.3989 0.9713
4.2163 -5.4135 -2.3989 0.9713
4.2496 -5.3873 -2.3989 0.9713
4.3818 -5.2806 -2.3989 0.9713
4.4790 -5.1985 -2.3989 0.9713
4.5430 -5.1427 -2.3990 0.9713
4.5747 -5.1146 -2.3990 0.9713
4.6064 -5.0862 -2.3990 0.9713
4.6378 -5.0576 -2.3990 0.9713
4.6689 -5.0289 -2.3990 0.9713
4.6999 -4.9999 -2.3990 0.9713
4.7919 -4.9119 -2.3990 0.9713
4.8823 -4.8222 -2.3991 0.9713
4.9120 -4.7920 -2.3991 0.9713
5.0291 -4.6691 -2.3991 0.9713
5.0579 -4.6379 -2.3991 0.9713
5.1431 -4.5433 -2.3992 0.9713
5.2266 -4.4472 -2.3992 0.9713
5.2540 -4.4148 -2.3992 0.9713
5.3083 -4.3495 -2.3992 0.9713
5.3881 -4.2504 -2.3993 0.9713
5.4661 -4.1497 -2.3993 0.9713
5.5171 -4.0819 -2.3993 0.9713
5.5422 -4.0477 -2.3993 0.9713
5.5672 -4.0133 -2.3993 0.9713
5.6408 -3.9094 -2.3994 0.9713
5.6649 -3.8745 -2.3994 0.9713
5.6887 -3.8394 -2.3994 0.9713
5.7358 -3.7688 -2.3994 0.9713
5.7821 -3.6975 -2.3994 0.9713
5.8274 -3.6258 -2.3995 0.9713
5.8719 -3.5535 -2.3995 0.9713
5.8938 -3.5171 -2.3995 0.9713
5.9369 -3.4440 -2.3995 0.9713
5.9998 -3.3333 -2.3995 0.9713
6.0407 -3.2588 -2.3996 0.9713
6.1576 -3.0326 -2.3996 0.9713
6.1947 -2.9563 -2.3997 0.9713
6.2660 -2.8022 -2.3997 0.9713
6.2833 -2.7634 -2.3997 0.9713
6.3003 -2.7245 -2.3997 0.9713
6.3170 -2.6855 -2.3997 0.9713
6.3336 -2.6464 -2.3998 0.9713
6.3659 -2.5679 -2.3998 0.9713
6.3972 -2.4890 -2.3998 0.9713
6.4424 -2.3699 -2.3998 0.9713
6.4713 -2.2901 -2.3999 0.9713
6.5127 -2.1697 -2.3999 0.9713
6.5645 -2.0080 -2.4000 0.9713
6.5769 -1.9674 -2.4000 0.9713
6.6008 -1.8859 -2.4000 0.9713
6.6123 -1.8450 -2.4000 0.9713
6.6347 -1.7631 -2.4000 0.9713
6.6561 -1.6809 -2.4001 0.9713
6.6764 -1.5985 -2.4001 0.9713
6.6958 -1.5158 -2.4001 0.9713
6.7051 -1.4744 -2.4001 0.9713
6.7141 -1.4329 -2.4001 0.9713
6.7314 -1.3498 -2.4002 0.9713
6.7396 -1.3081 -2.4002 0.9713
6.7476 -1.2664 -2.4002 0.9713
6.7770 -1.0992 -2.4002 0.9713
6.7902 -1.0153 -2.4003 0.9713
6.8079 -0.8892 -2.4003 0.9713
6.8134 -0.8471 -2.4003 0.9713
6.8280 -0.7205 -2.4004 0.9713
6.8472 -0.5091 -2.4004 0.9713
6.8503 -0.4667 -2.4004 0.9713
6.8530 -0.4244 -2.4004 0.9713
6.8556 -0.3820 -2.4005 0.9713
6.8578 -0.3396 -2.4005 0.9713
6.8599 -0.2971 -2.4005 0.9713
6.8643 -0.1698 -2.4005 0.9713
6.8659 -0.0849 -2.4005 0.9713
6.8665 -0.0000 -2.4006 0.9713
6.8665 0.0425 -2.4006 0.9713
6.8655 0.1274 -2.4006 0.9713
6.8620 0.2547 -2.4007 0.9713
6.8604 0.2972 -2.4007 0.9713
6.8584 0.3396 -2.4007 0.9713
6.8562 0.3820 -2.4007 0.9713
6.8538 0.4244 -2.4007 0.9713
6.8511 0.4668 -2.4007 0.9713
6.8376 0.6361 -2.4008 0.9713
6.8293 0.7207 -2.4008 0.9713
6.8199 0.8051 -2.4008 0.9713
6.8095 0.8894 -2.4008 0.9713
6.8039 0.9314 -2.4009 0.9713
6.7919 1.0155 -2.4009 0.9713
6.7789 1.0995 -2.4009 0.9713
6.7337 1.3502 -2.4010 0.9713
6.7252 1.3919 -2.4010 0.9713
6.7165 1.4334 -2.4010 0.9713
6.6984 1.5164 -2.4010 0.9713
6.6792 1.5992 -2.4011 0.9713
6.6692 1.6404 -2.4011 0.9713
6.6589 1.6817 -2.4011 0.9713
6.6484 1.7228 -2.4011 0.9713
5.2723 1.4011 -1.9072 0.9771
5.0354 1.4050 -1.8276 0.9781
4.9426 1.4121 -1.7971 0.9785
4.7136 1.4418 -1.7233 0.9793
4.6408 1.4510 -1.6999 0.9796
4.6059 1.4714 -1.6904 0.9797
4.5801 1.4945 -1.6843 0.9798
4.5544 1.5173 -1.6783 0.9799
4.5034 1.5624 -1.6665 0.9800
4.4780 1.5847 -1.6607 0.9801
4.4528 1.6069 -1.6550 0.9801
4.4276 1.6288 -1.6493 0.9802
4.4025 1.6505 -1.6438 0.9803
4.3490 1.6921 -1.6315 0.9804
4.2845 1.7903 -1.6234 0.9805
4.2523 1.8389 -1.6197 0.9806
4.2201 1.8872 -1.6162 0.9806
4.2039 1.9113 -1.6145 0.9806
4.1532 2.0455 -1.6185 0.9806
4.1371 2.1338 -1.6274 0.9805
4.1316 2.1634 -1.6305 0.9804
4.1156 2.2533 -1.6404 0.9803
4.1053 2.3141 -1.6476 0.9802
4.1037 2.3806 -1.6586 0.9801
4.1046 2.4151 -1.6650 0.9800
4.1063 2.4850 -1.6780 0.9799
4.1072 2.5204 -1.6847 0.9798
4.1080 2.5560 -1.6915 0.9797
4.1094 2.6279 -1.7053 0.9795
4.1109 2.6649 -1.7127 0.9795
4.1139 2.7396 -1.7280 0.9793
4.1154 2.7775 -1.7358 0.9792
4.1179 2.8540 -1.7516 0.9790
4.1184 2.8922 -1.7594 0.9789
4.1189 2.9307 -1.7673 0.9788
4.1194 2.9697 -1.7754 0.9787
4.1200 3.0089 -1.7836 0.9786
4.1205 3.0486 -1.7920 0.9785
4.1227 3.2937 -1.8448 0.9779
4.1228 3.3358 -1.8540 0.9778
4.1234 3.4648 -1.8829 0.9774
4.1237 3.5088 -1.8929 0.9773
4.1245 3.6435 -1.9240 0.9770
4.1252 3.7360 -1.9457 0.9767
4.1256 3.7830 -1.9569 0.9766
4.1262 3.8309 -1.9684 0.9764
4.1280 3.8803 -1.9807 0.9763
4.1317 3.9811 -2.0059 0.9760
4.1334 4.0324 -2.0188 0.9758
4.1351 4.0843 -2.0319 0.9757
4.1366 4.1366 -2.0452 0.9755
4.1366 4.1881 -2.0580 0.9754
4.5655 4.7381 -2.3003 0.9725
4.5111 4.7401 -2.2877 0.9727
4.4574 4.7420 -2.2752 0.9728
4.3586 4.7534 -2.2547 0.9730
4.3194 4.7695 -2.2496 0.9731
4.2899 4.7961 -2.2496 0.9731
4.2601 4.8226 -2.2496 0.9731
4.1091 4.9520 -2.2496 0.9731
4.0784 4.9773 -2.2496 0.9731
4.0475 5.0025 -2.2497 0.9731
4.0165 5.0275 -2.2497 0.9731
3.9226 5.1012 -2.2497 0.9731
3.8910 5.1253 -2.2497 0.9731
3.8273 5.1731 -2.2497 0.9731
3.7953 5.1967 -2.2497 0.9731
3.6982 5.2662 -2.2497 0.9731
3.6656 5.2890 -2.2497 0.9731
3.6329 5.3116 -2.2497 0.9731
3.5999 5.3340 -2.2497 0.9731
3.5337 5.3781 -2.2498 0.9731
3.5004 5.3999 -2.2498 0.9731
3.4669 5.4214 -2.2498 0.9731
3.4334 5.4428 -2.2498 0.9731
3.3996 5.4639 -2.2498 0.9731
3.2977 5.5261 -2.2498 0.9731
3.2291 5.5665 -2.2498 0.9731
3.1601 5.6061 -2.2498 0.9731
3.0905 5.6447 -2.2498 0.9731
2.9852 5.7011 -2.2499 0.9731
2.9499 5.7195 -2.2499 0.9731
2.9145 5.7376 -2.2499 0.9731
2.8076 5.7908 -2.2499 0.9731
2.6997 5.8419 -2.2499 0.9731
2.6635 5.8585 -2.2499 0.9731
2.6273 5.8749 -2.2499 0.9731
2.5909 5.8910 -2.2499 0.9731
2.5178 5.9226 -2.2499 0.9731
2.3706 5.9831 -2.2499 0.9731
2.3335 5.9977 -2.2499 0.9731
2.2592 6.0261 -2.2499 0.9731
2.1845 6.0536 -2.2499 0.9731
2.1470 6.0670 -2.2499 0.9731
2.0341 6.1058 -2.2500 0.9731
1.9963 6.1183 -2.2500 0.9731
1.9584 6.1305 -2.2500 0.9731
1.8825 6.1543 -2.2500 0.9731
1.8444 6.1658 -2.2500 0.9731
1.6913 6.2096 -2.2500 0.9731
1.6529 6.2200 -2.2500 0.9731
1.5372 6.2496 -2.2500 0.9731
1.4598 6.2681 -2.2500 0.9731
1.3822 6.2857 -2.2500 0.9731
1.2653 6.3103 -2.2500 0.9731
1.1872 6.3255 -2.2500 0.9731
1.1089 6.3396 -2.2500 0.9731
1.0696 6.3464 -2.2500 0.9731
0.9517 6.3651 -2.2500 0.9731
0.9123 6.3709 -2.2500 0.9731
0.8729 6.3764 -2.2500 0.9731
0.7940 6.3867 -2.2500 0.9731
0.7149 6.3961 -2.2500 0.9731
0.6358 6.4045 -2.2500 0.9731
0.5962 6.4082 -2.2500 0.9731
0.5565 6.4118 -2.2500 0.9731
0.4375 6.4211 -2.2500 0.9731
0.3183 6.4280 -2.2500 0.9731
0.1990 6.4329 -2.2500 0.9731
0.1592 6.4340 -2.2500 0.9731
0.1194 6.4348 -2.2500 0.9731
0.0796 6.4354 -2.2500 0.9731
0.0398 6.4358 -2.2500 0.9731
-0.0398 6.4358 -2.2500 0.9731
-0.1990 6.4328 -2.2500 0.9731
-0.2388 6.4315 -2.2500 0.9731
-0.2032 4.6920 -1.6419 0.9803
-0.2024 4.0870 -1.4306 0.9828
-0.2007 2.9460 -1.0323 0.9876
-0.2000 2.4829 -0.8708 0.9895
-0.1990 1.7806 -0.6264 0.9924
-0.2032 1.7210 -0.6059 0.9927
-0.2140 1.7211 -0.6063 0.9927
-0.2356 1.7212 -0.6074 0.9927
-0.2465 1.7213 -0.6079 0.9927
-0.2683 1.7214 -0.6091 0.9926
-0.2792 1.7214 -0.6097 0.9926
-0.3011 1.7215 -0.6110 0.9926
-0.3121 1.7216 -0.6117 0.9926
-0.3452 1.7218 -0.6139 0.9926
-0.3898 1.7220 -0.6173 0.9925
-0.4011 1.7221 -0.6182 0.9925
-0.4349 1.7223 -0.6210 0.9925
-0.4463 1.7223 -0.6220 0.9925
-0.4577 1.7224 -0.6231 0.9925
-0.4806 1.7226 -0.6252 0.9925
-0.5037 1.7227 -0.6275 0.9924
-0.5270 1.7228 -0.6299 0.9924
-0.5741 1.7231 -0.6350 0.9923
-0.5859 1.7232 -0.6363 0.9923
-0.5979 1.7233 -0.6377 0.9923
-0.6099 1.7234 -0.6391 0.9923
-0.6340 1.7235 -0.6420 0.9922
-0.6462 1.7236 -0.6435 0.9922
-0.6954 1.7240 -0.6499 0.9922
-0.7079 1.7240 -0.6516 0.9921
-0.7204 1.7241 -0.6533 0.9921
-0.7330 1.7242 -0.6550 0.9921
-0.7457 1.7243 -0.6568 0.9921
-0.7970 1.7247 -0.6642 0.9920
-0.8101 1.7248 -0.6662 0.9920
-0.8232 1.7249 -0.6682 0.9919
-0.8496 1.7251 -0.6723 0.9919
-0.8764 1.7253 -0.6765 0.9918
-0.8899 1.7254 -0.6787 0.9918
-0.9310 1.7257 -0.6855 0.9917
-0.9589 1.7259 -0.6903 0.9917
-1.0014 1.7263 -0.6977 0.9916
-1.0158 1.7264 -0.7003 0.9915
-1.0449 1.7266 -0.7056 0.9915
-1.0744 1.7269 -0.7110 0.9914
-1.1197 1.7272 -0.7196 0.9913
-1.1350 1.7274 -0.7226 0.9913
-1.1504 1.7275 -0.7256 0.9912
-1.1660 1.7276 -0.7287 0.9912
-1.1817 1.7278 -0.7318 0.9912
-1.2135 1.7280 -0.7382 0.9911
-1.2297 1.7282 -0.7415 0.9911
-1.2459 1.7283 -0.7449 0.9910
-1.2789 1.7286 -0.7518 0.9909
-1.3296 1.7291 -0.7625 0.9908
-1.3468 1.7292 -0.7663 0.9908
-1.4174 1.7299 -0.7819 0.9906
-1.4355 1.7300 -0.7859 0.9905
-1.4910 1.7306 -0.7986 0.9904
-1.5099 1.7308 -0.8030 0.9903
-1.5679 1.7313 -0.8166 0.9902
-1.5877 1.7315 -0.8213 0.9901
-1.6077 1.7317 -0.8261 0.9900
-1.6279 1.7318 -0.8309 0.9900
-1.6899 1.7322 -0.8460 0.9898
-1.7110 1.7324 -0.8513 0.9897
-1.7762 1.7328 -0.8675 0.9895
-1.8211 1.7331 -0.8789 0.9894
-1.9144 1.7338 -0.9030 0.9891
-1.9631 1.7342 -0.9157 0.9890
-1.9879 1.7344 -0.9223 0.9889
-2.0132 1.7345 -0.9290 0.9888
-2.0910 1.7351 -0.9499 0.9886
-2.1178 1.7353 -0.9572 0.9885
-2.1726 1.7357 -0.9722 0.9883
-2.2006 1.7360 -0.9799 0.9882
-2.2291 1.7362 -0.9878 0.9881
-2.2581 1.7364 -0.9958 0.9880
-2.3174 1.7369 -1.0125 0.9878
-2.3792 1.7377 -1.0300 0.9876
-2.4433 1.7385 -1.0483 0.9874
-2.5093 1.7391 -1.0674 0.9871
-2.5432 1.7394 -1.0772 0.9870
-2.5777 1.7397 -1.0872 0.9869
-2.6129 1.7400 -1.0975 0.9868
-2.7605 1.7414 -1.1411 0.9863
-2.7993 1.7417 -1.1526 0.9861
-2.8389 1.7421 -1.1644 0.9860
-2.9205 1.7429 -1.1890 0.9857
-3.1876 1.7452 -1.2705 0.9847
-3.2357 1.7456 -1.2853 0.9845
-3.2849 1.7461 -1.3006 0.9844
-3.3354 1.7465 -1.3162 0.9842
-3.3870 1.7470 -1.3323 0.9840
-3.4400 1.7474 -1.3489 0.9838
-3.4943 1.7479 -1.3659 0.9836
-3.6654 1.7492 -1.4199 0.9829
-3.7860 1.7497 -1.4581 0.9825
-3.8489 1.7499 -1.4781 0.9822
-3.9134 1.7501 -1.4987 0.9820
-3.9798 1.7504 -1.5200 0.9817
-4.1904 1.7509 -1.5877 0.9809
-4.2643 1.7509 -1.6116 0.9807
-4.3405 1.7509 -1.6363 0.9804
-4.4190 1.7509 -1.6617 0.9801
-4.5000 1.7509 -1.6881 0.9797
-4.5837 1.7509 -1.7154 0.9794
-4.6701 1.7508 -1.7436 0.9791
-4.9472 1.7508 -1.8347 0.9780
-6.4885 2.2512 -2.4010 0.9713
-6.5548 2.0494 -2.4010 0.9713
-6.5673 2.0088 -2.4010 0.9713
-6.6033 1.8866 -2.4009 0.9713
-6.6371 1.7638 -2.4009 0.9713
-6.6479 1.7226 -2.4009 0.9713
-6.6583 1.6815 -2.4009 0.9713
-6.6786 1.5990 -2.4008 0.9713
-6.6883 1.5577 -2.4008 0.9713
-6.6977 1.5163 -2.4008 0.9713
-6.7070 1.4748 -2.4008 0.9713
-6.7568 1.2250 -2.4007 0.9713
-6.7643 1.1832 -2.4007 0.9713
-6.7783 1.0994 -2.4007 0.9713
-6.7913 1.0154 -2.4007 0.9713
-6.7974 0.9734 -2.4006 0.9713
-6.8089 0.8893 -2.4006 0.9713
-6.8142 0.8471 -2.4006 0.9713
-6.8193 0.8050 -2.4006 0.9713
-6.8329 0.6783 -2.4006 0.9713
-6.8442 0.5514 -2.4005 0.9713
-6.8475 0.5091 -2.4005 0.9713
-6.8504 0.4667 -2.4005 0.9713
-6.8556 0.3820 -2.4005 0.9713
-6.8578 0.3396 -2.4005 0.9713
-6.8597 0.2971 -2.4004 0.9713
-6.8614 0.2547 -2.4004 0.9713
-6.8628 0.2123 -2.4004 0.9713
-6.8640 0.1698 -2.4004 0.9713
-6.8648 0.1274 -2.4004 0.9713
-6.8655 0.0849 -2.4004 0.9713
-6.8658 0.0424 -2.4004 0.9713
-6.7057 0.0000 -2.4003 0.9719
-6.7055 -0.0414 -2.4003 0.9719
-6.7051 -0.0829 -2.4003 0.9719
-6.7023 -0.2073 -2.4003 0.9719
-6.6972 -0.3316 -2.4002 0.9719
-6.6950 -0.3730 -2.4002 0.9719
-6.6868 -0.4972 -2.4002 0.9719
-6.6801 -0.5798 -2.4002 0.9719
-6.6763 -0.6211 -2.4002 0.9719
-6.6681 -0.7036 -2.4001 0.9719
-6.6635 -0.7448 -2.4001 0.9719
-6.6588 -0.7860 -2.4001 0.9719
-6.6485 -0.8683 -2.4001 0.9719
-6.6311 -0.9915 -2.4000 0.9719
-6.6248 -1.0325 -2.4000 0.9719
-6.6115 -1.1143 -2.4000 0.9719
-6.5896 -1.2368 -2.4000 0.9719
-6.5818 -1.2775 -2.4000 0.9719
-6.5654 -1.3588 -2.3999 0.9719
-6.5480 -1.4399 -2.3999 0.9719
-6.5390 -1.4803 -2.3999 0.9719
-6.5296 -1.5207 -2.3999 0.9719
-6.5103 -1.6014 -2.3999 0.9719
-6.5002 -1.6416 -2.3999 0.9719
-6.4685 -1.7618 -2.3998 0.9719
-6.4575 -1.8018 -2.3998 0.9719
-6.4346 -1.8815 -2.3998 0.9719
-6.4108 -1.9610 -2.3998 0.9719
-6.3732 -2.0795 -2.3997 0.9719
-6.3470 -2.1581 -2.3997 0.9719
-6.3335 -2.1974 -2.3997 0.9719
-6.3197 -2.2365 -2.3997 0.9719
-6.3058 -2.2755 -2.3997 0.9719
-6.2915 -2.3145 -2.3997 0.9719
-6.2624 -2.3920 -2.3996 0.9719
-6.2474 -2.4307 -2.3996 0.9719
-6.2322 -2.4693 -2.3996 0.9719
-6.1853 -2.5844 -2.3996 0.9719
-6.1528 -2.6607 -2.3995 0.9719
-6.1193 -2.7366 -2.3995 0.9719
-6.0674 -2.8496 -2.3995 0.9719
-6.0134 -2.9616 -2.3995 0.9719
-5.9382 -3.1094 -2.3994 0.9719
-5.8993 -3.1826 -2.3994 0.9719
-5.8794 -3.2190 -2.3994 0.9719
-5.8594 -3.2553 -2.3994 0.9719
-5.8391 -3.2915 -2.3994 0.9719
-5.6910 -3.5409 -2.3993 0.9719
-5.6690 -3.5761 -2.3993 0.9719
-5.6468 -3.6111 -2.3993 0.9719
-5.6243 -3.6459 -2.3993 0.9719
-5.5323 -3.7838 -2.3992 0.9719
-5.5088 -3.8179 -2.3992 0.9719
-5.4850 -3.8519 -2.3992 0.9719
-5.4611 -3.8858 -2.3992 0.9719
-5.4369 -3.9194 -2.3992 0.9719
-5.4126 -3.9529 -2.3992 0.9719
-5.3632 -4.0196 -2.3991 0.9719
-5.3382 -4.0526 -2.3991 0.9719
-5.1311 -4.3115 -2.3991 0.9719
-5.1043 -4.3432 -2.3991 0.9719
-5.0774 -4.3746 -2.3990 0.9719
-5.0228 -4.4371 -2.3990 0.9719
-4.9953 -4.4680 -2.3990 0.9719
-4.9675 -4.4988 -2.3990 0.9719
-4.9396 -4.5294 -2.3990 0.9719
-4.9115 -4.5599 -2.3990 0.9719
-4.8832 -4.5901 -2.3990 0.9719
-4.8547 -4.6202 -2.3990 0.9719
-4.7971 -4.6799 -2.3990 0.9719
-4.7681 -4.7095 -2.3989 0.9719
-4.7388 -4.7388 -2.3989 0.9719
-4.7094 -4.7680 -2.3989 0.9719
-4.6798 -4.7971 -2.3989 0.9719
-4.6501 -4.8259 -2.3989 0.9719
-4.6201 -4.8545 -2.3989 0.9719
-4.5900 -4.8830 -2.3989 0.9719
-4.5597 -4.9113 -2.3989 0.9719
-4.4986 -4.9673 -2.3989 0.9719
-4.4368 -5.0225 -2.3989 0.9719
-4.4056 -5.0498 -2.3988 0.9719
-4.3743 -5.0770 -2.3988 0.9719
-4.3109 -5.1306 -2.3988 0.9719
-4.1504 -5.2614 -2.3988 0.9719
-4.1177 -5.2869 -2.3988 0.9719
-4.0520 -5.3374 -2.3988 0.9719
-3.9857 -5.3871 -2.3988 0.9719
-3.8512 -5.4839 -2.3987 0.9719
-3.7830 -5.5312 -2.3987 0.9719
-3.7487 -5.5544 -2.3987 0.9719
-3.7143 -5.5775 -2.3987 0.9719
-3.6450 -5.6229 -2.3987 0.9719
-3.6102 -5.6454 -2.3987 0.9719
-3.5752 -5.6676 -2.3987 0.9719
-3.5400 -5.6896 -2.3987 0.9719
-3.5048 -5.7113 -2.3987 0.9719
-3.4694 -5.7329 -2.3987 0.9719
-3.4338 -5.7542 -2.3986 0.9719
-3.3265 -5.8169 -2.3986 0.9719
-3.2904 -5.8373 -2.3986 0.9719
-3.2543 -5.8576 -2.3986 0.9719
-3.2180 -5.8776 -2.3986 0.9719
-2.9977 -5.9928 -2.3986 0.9719
-2.8860 -6.0473 -2.3986 0.9719
-2.7733 -6.0998 -2.3986 0.9719
-2.7355 -6.1168 -2.3985 0.9719
-2.6976 -6.1336 -2.3985 0.9719
-2.6596 -6.1502 -2.3985 0.9719
-2.6215 -6.1665 -2.3985 0.9719
-2.5067 -6.2141 -2.3985 0.9719
-2.4296 -6.2445 -2.3985 0.9719
-2.3909 -6.2594 -2.3985 0.9719
-2.3522 -6.2741 -2.3985 0.9719
-2.3133 -6.2885 -2.3985 0.9719
-2.2744 -6.3027 -2.3985 0.9719
-2.2354 -6.3166 -2.3985 0.9719
-2.1963 -6.3303 -2.3985 0.9719
-2.0784 -6.3699 -2.3985 0.9719
-2.0390 -6.3826 -2.3985 0.9719
-1.9202 -6.4194 -2.3985 0.9719
-1.8407 -6.4426 -2.3985 0.9719
-1.8008 -6.4539 -2.3985 0.9719
-1.6406 -6.4964 -2.3985 0.9719
-1.6004 -6.5064 -2.3984 0.9719
-1.5601 -6.5162 -2.3984 0.9719
-1.3579 -6.5613 -2.3984 0.9719
-1.3173 -6.5696 -2.3984 0.9719
-1.2360 -6.5853 -2.3984 0.9719
-1.1136 -6.6071 -2.3984 0.9719
-1.0318 -6.6204 -2.3984 0.9719
-0.9908 -6.6266 -2.3984 0.9719
-0.9498 -6.6326 -2.3984 0.9719
-0.9088 -6.6384 -2.3984 0.9719
-0.8266 -6.6491 -2.3984 0.9719
-0.7443 -6.6588 -2.3984 0.9719
-0.7031 -6.6633 -2.3984 0.9719
-0.5794 -6.6751 -2.3984 0.9719
-0.5381 -6.6786 -2.3984 0.9719
-0.4968 -6.6818 -2.3984 0.9719
-0.4141 -6.6874 -2.3984 0.9719
-0.3727 -6.6899 -2.3984 0.9719
-0.2486 -6.6956 -2.3984 0.9719
-0.2072 -6.6971 -2.3984 0.9719
-0.1657 -6.6982 -2.3984 0.9719
-0.0415 -6.7001 -2.3984 0.9719
0.0829 -6.6998 -2.3984 0.9719
0.2485 -6.6956 -2.3984 0.9719
0.3727 -6.6899 -2.3984 0.9719
0.4141 -6.6875 -2.3984 0.9719
0.4554 -6.6848 -2.3984 0.9719
0.4968 -6.6819 -2.3984 0.9719
0.5794 -6.6752 -2.3984 0.9719
0.6619 -6.6676 -2.3984 0.9719
0.7855 -6.6541 -2.3984 0.9719
0.8677 -6.6439 -2.3984 0.9719
0.9498 -6.6327 -2.3985 0.9719
0.9908 -6.6267 -2.3985 0.9719
1.0727 -6.6140 -2.3985 0.9719
1.1544 -6.6002 -2.3985 0.9719
1.1952 -6.5929 -2.3985 0.9719
1.3985 -6.5529 -2.3985 0.9719
1.4794 -6.5351 -2.3985 0.9719
1.5198 -6.5259 -2.3985 0.9719
1.5602 -6.5163 -2.3985 0.9719
1.6004 -6.5066 -2.3985 0.9719
1.6406 -6.4965 -2.3985 0.9719
1.7209 -6.4758 -2.3985 0.9719
1.7609 -6.4650 -2.3985 0.9719
1.8407 -6.4428 -2.3985 0.9719
1.9203 -6.4195 -2.3985 0.9719
2.0390 -6.3829 -2.3985 0.9719
2.0785 -6.3701 -2.3986 0.9719
2.1571 -6.3439 -2.3986 0.9719
2.1963 -6.3305 -2.3986 0.9719
2.2354 -6.3168 -2.3986 0.9719
2.2745 -6.3029 -2.3986 0.9719
2.3522 -6.2743 -2.3986 0.9719
2.3910 -6.2596 -2.3986 0.9719
2.4297 -6.2447 -2.3986 0.9719
2.4683 -6.2296 -2.3986 0.9719
2.5451 -6.1987 -2.3986 0.9719
2.5834 -6.1828 -2.3986 0.9719
2.6977 -6.1339 -2.3986 0.9719
2.7356 -6.1171 -2.3986 0.9719
2.7734 -6.1001 -2.3986 0.9719
2.8110 -6.0828 -2.3987 0.9719
3.0717 -5.9556 -2.3987 0.9719
3.1451 -5.9171 -2.3987 0.9719
3.1817 -5.8976 -2.3987 0.9719
3.2181 -5.8778 -2.3987 0.9719
3.2544 -5.8578 -2.3987 0.9719
3.3266 -5.8171 -2.3987 0.9719
3.5402 -5.6898 -2.3988 0.9719
3.5753 -5.6678 -2.3988 0.9719
3.6103 -5.6457 -2.3988 0.9719
3.6452 -5.6232 -2.3988 0.9719
3.6799 -5.6006 -2.3988 0.9719
3.7832 -5.5314 -2.3988 0.9719
3.8852 -5.4604 -2.3989 0.9719
3.9859 -5.3874 -2.3989 0.9719
4.0192 -5.3627 -2.3989 0.9719
4.0852 -5.3126 -2.3989 0.9719
4.1830 -5.2359 -2.3989 0.9719
4.2796 -5.1574 -2.3990 0.9719
4.3113 -5.1309 -2.3990 0.9719
4.3430 -5.1042 -2.3990 0.9719
4.3746 -5.0772 -2.3990 0.9719
4.4060 -5.0501 -2.3990 0.9719
4.4680 -4.9953 -2.3990 0.9719
4.4988 -4.9676 -2.3990 0.9719
4.6801 -4.7973 -2.3991 0.9719
4.7097 -4.7683 -2.3991 0.9719
4.7684 -4.7097 -2.3991 0.9719
4.8263 -4.6504 -2.3991 0.9719
4.8550 -4.6205 -2.3991 0.9719
4.9118 -4.5602 -2.3992 0.9719
4.9399 -4.5297 -2.3992 0.9719
4.9679 -4.4991 -2.3992 0.9719
4.9956 -4.4683 -2.3992 0.9719
5.1047 -4.3435 -2.3992 0.9719
5.1315 -4.3119 -2.3992 0.9719
5.2367 -4.1837 -2.3993 0.9719
5.3636 -4.0199 -2.3993 0.9719
5.3884 -3.9866 -2.3993 0.9719
5.4130 -3.9532 -2.3993 0.9719
5.4615 -3.8860 -2.3994 0.9719
5.4854 -3.8522 -2.3994 0.9719
5.6472 -3.6113 -2.3995 0.9719
5.6915 -3.5412 -2.3995 0.9719
5.7133 -3.5060 -2.3995 0.9719
5.8191 -3.3277 -2.3995 0.9719
5.8396 -3.2917 -2.3996 0.9719
5.8599 -3.2555 -2.3996 0.9719
5.8997 -3.1829 -2.3996 0.9719
5.9193 -3.1463 -2.3996 0.9719
5.9387 -3.1097 -2.3996 0.9719
5.9578 -3.0729 -2.3996 0.9719
5.9768 -3.0360 -2.3996 0.9719
6.0139 -2.9619 -2.3997 0.9719
6.0322 -2.9247 -2.3997 0.9719
6.0855 -2.8123 -2.3997 0.9719
6.1367 -2.6989 -2.3997 0.9719
6.1533 -2.6609 -2.3998 0.9719
6.2173 -2.5080 -2.3998 0.9719
6.3475 -2.1583 -2.3999 0.9719
6.3608 -2.1190 -2.3999 0.9719
6.4114 -1.9611 -2.4000 0.9719
6.4234 -1.9214 -2.4000 0.9719
6.4468 -1.8419 -2.4000 0.9719
6.4580 -1.8020 -2.4000 0.9719
6.4691 -1.7620 -2.4000 0.9719
6.4799 -1.7220 -2.4000 0.9719
6.5008 -1.6417 -2.4001 0.9719
6.5108 -1.6015 -2.4001 0.9719
6.5302 -1.5209 -2.4001 0.9719
6.5823 -1.2776 -2.4002 0.9719
6.5977 -1.1961 -2.4002 0.9719
6.6050 -1.1553 -2.4002 0.9719
6.6121 -1.1145 -2.4002 0.9719
6.6189 -1.0735 -2.4002 0.9719
6.6254 -1.0326 -2.4003 0.9719
6.6317 -0.9916 -2.4003 0.9719
6.6378 -0.9505 -2.4003 0.9719
6.6491 -0.8684 -2.4003 0.9719
6.6544 -0.8272 -2.4003 0.9719
6.6594 -0.7861 -2.4003 0.9719
6.6642 -0.7449 -2.4003 0.9719
6.6687 -0.7037 -2.4004 0.9719
6.6807 -0.5799 -2.4004 0.9719
6.6842 -0.5385 -2.4004 0.9719
6.6874 -0.4972 -2.4004 0.9719
6.6978 -0.3316 -2.4005 0.9719
6.6998 -0.2902 -2.4005 0.9719
6.7050 -0.1244 -2.4005 0.9719
6.7058 0.0829 -2.4006 0.9719
6.7052 0.1244 -2.4006 0.9719
6.7003 0.2903 -2.4007 0.9719
6.6938 0.4145 -2.4007 0.9719
6.6883 0.4973 -2.4007 0.9719
6.6851 0.5386 -2.4007 0.9719
6.6817 0.5800 -2.4007 0.9719
6.6780 0.6213 -2.4008 0.9719
6.6699 0.7038 -2.4008 0.9719
6.6654 0.7451 -2.4008 0.9719
6.6607 0.7862 -2.4008 0.9719
6.6505 0.8686 -2.4008 0.9719
6.6394 0.9508 -2.4009 0.9719
6.6334 0.9919 -2.4009 0.9719
6.6140 1.1147 -2.4009 0.9719
6.6070 1.1556 -2.4009 0.9719
6.5922 1.2373 -2.4009 0.9719
6.5765 1.3188 -2.4010 0.9719
6.5597 1.4000 -2.4010 0.9719
6.5420 1.4810 -2.4010 0.9719
6.5327 1.5214 -2.4010 0.9719
6.5232 1.5618 -2.4010 0.9719
6.5135 1.6021 -2.4011 0.9719
6.5035 1.6424 -2.4011 0.9719
5.2771 1.4023 -1.9545 0.9771
5.1214 1.3949 -1.9000 0.9777
5.0092 1.3977 -1.8616 0.9781
4.8460 1.4170 -1.8073 0.9788
4.7706 1.4271 -1.7824 0.9791
4.6963 1.4365 -1.7580 0.9794
4.6240 1.4457 -1.7342 0.9796
4.5512 1.4850 -1.7137 0.9799
4.5232 1.5069 -1.7066 0.9799
4.4954 1.5286 -1.6996 0.9800
4.4677 1.5501 -1.6928 0.9801
4.4403 1.5714 -1.6860 0.9802
4.4130 1.5925 -1.6794 0.9803
4.3859 1.6135 -1.6728 0.9803
4.3406 1.6580 -1.6633 0.9805
4.3254 1.6829 -1.6614 0.9805
4.3102 1.7078 -1.6596 0.9805
4.2041 1.8801 -1.6485 0.9806
4.1890 1.9045 -1.6472 0.9806
4.1634 1.9554 -1.6465 0.9806
4.1413 2.0396 -1.6525 0.9806
4.1360 2.0689 -1.6554 0.9805
4.1306 2.0982 -1.6584 0.9805
4.1496 2.3054 -1.6992 0.9800
4.1238 2.3245 -1.6945 0.9801
4.0979 2.3435 -1.6898 0.9801
4.0935 2.3747 -1.6940 0.9801
4.0943 2.4091 -1.7005 0.9800
4.0950 2.4437 -1.7070 0.9799
4.0958 2.4787 -1.7137 0.9799
4.1747 2.6335 -1.7669 0.9792
4.1098 2.6641 -1.7532 0.9794
4.1144 2.7769 -1.7768 0.9791
4.1194 2.8550 -1.7941 0.9789
4.1205 2.9319 -1.8102 0.9787
4.1216 3.0101 -1.8269 0.9786
4.1230 3.1300 -1.8530 0.9782
4.1231 3.1705 -1.8618 0.9781
4.1233 3.2526 -1.8799 0.9779
4.1236 3.3364 -1.8987 0.9777
4.1237 3.3789 -1.9083 0.9776
4.1239 3.4219 -1.9182 0.9775
4.1252 3.5989 -1.9596 0.9770
4.1256 3.6445 -1.9705 0.9769
4.1278 3.7850 -2.0047 0.9765
4.1295 3.8339 -2.0171 0.9763
4.1313 3.8834 -2.0296 0.9762
4.1332 3.9336 -2.0424 0.9761
4.7740 4.7154 -2.4020 0.9719
4.6665 4.7246 -2.3771 0.9722
4.5564 4.7287 -2.3506 0.9725
4.5023 4.7307 -2.3377 0.9726
4.2912 4.7383 -2.2883 0.9732
4.2398 4.7401 -2.2765 0.9733
4.1889 4.7419 -2.2648 0.9735
4.1440 4.7500 -2.2564 0.9736
4.0726 4.7864 -2.2496 0.9737
4.0131 4.8364 -2.2496 0.9737
3.9831 4.8611 -2.2496 0.9737
3.9530 4.8857 -2.2496 0.9737
3.8617 4.9582 -2.2496 0.9737
3.7691 5.0291 -2.2497 0.9737
3.7379 5.0523 -2.2497 0.9737
3.7066 5.0753 -2.2497 0.9737
3.6119 5.1432 -2.2497 0.9737
3.5800 5.1655 -2.2497 0.9737
3.5480 5.1875 -2.2497 0.9737
3.5159 5.2094 -2.2497 0.9737
3.4512 5.2525 -2.2497 0.9737
3.4186 5.2737 -2.2497 0.9737
3.3860 5.2948 -2.2497 0.9737
3.3202 5.3363 -2.2497 0.9737
3.2540 5.3770 -2.2498 0.9737
3.1873 5.4169 -2.2498 0.9737
3.1200 5.4559 -2.2498 0.9737
3.0523 5.4941 -2.2498 0.9737
3.0183 5.5129 -2.2498 0.9737
2.9499 5.5498 -2.2498 0.9737
2.8465 5.6037 -2.2498 0.9737
2.8118 5.6211 -2.2498 0.9737
2.7769 5.6385 -2.2498 0.9737
2.7420 5.6555 -2.2498 0.9737
2.5659 5.7376 -2.2499 0.9737
2.3873 5.8143 -2.2499 0.9736
2.2790 5.8576 -2.2499 0.9736
2.2428 5.8716 -2.2499 0.9736
2.2064 5.8853 -2.2499 0.9736
2.1700 5.8989 -2.2499 0.9736
2.0969 5.9253 -2.2499 0.9736
1.9866 5.9632 -2.2499 0.9736
1.9497 5.9754 -2.2499 0.9736
1.8756 5.9990 -2.2499 0.9736
1.8013 6.0218 -2.2499 0.9736
1.7267 6.0437 -2.2499 0.9736
1.6893 6.0542 -2.2499 0.9736
1.6518 6.0646 -2.2499 0.9736
1.6143 6.0747 -2.2499 0.9736
1.5390 6.0942 -2.2499 0.9736
1.4257 6.1217 -2.2500 0.9736
1.3499 6.1388 -2.2500 0.9736
1.2358 6.1629 -2.2500 0.9736
1.1595 6.1777 -2.2500 0.9736
1.1212 6.1848 -2.2500 0.9736
1.0447 6.1982 -2.2500 0.9736
1.0063 6.2045 -2.2500 0.9736
0.9679 6.2106 -2.2500 0.9736
0.9295 6.2165 -2.2500 0.9736
0.8525 6.2275 -2.2500 0.9736
0.8140 6.2327 -2.2500 0.9736
0.7754 6.2376 -2.2500 0.9736
0.7369 6.2422 -2.2500 0.9736
0.6596 6.2509 -2.2500 0.9736
0.6209 6.2548 -2.2500 0.9736
0.5822 6.2586 -2.2500 0.9736
0.4660 6.2683 -2.2500 0.9736
0.4273 6.2711 -2.2500 0.9736
0.3108 6.2779 -2.2500 0.9736
0.2720 6.2797 -2.2500 0.9736
0.0777 6.2851 -2.2500 0.9736
0.0389 6.2855 -2.2500 0.9736
0.0000 6.2856 -2.2500 0.9736
-0.1166 6.2845 -2.2500 0.9736
-0.1555 6.2837 -2.2500 0.9736
-0.2034 4.6969 -1.6829 0.9802
-0.2025 4.0907 -1.4661 0.9827
-0.2019 3.6229 -1.2988 0.9847
-0.2013 3.2509 -1.1659 0.9863
-0.2008 2.9479 -1.0577 0.9875
-0.2005 2.6964 -0.9679 0.9886
-0.2002 2.4843 -0.8922 0.9895
-0.1999 2.3029 -0.8275 0.9902
-0.1996 2.1461 -0.7715 0.9909
-0.1994 2.0091 -0.7227 0.9915
-0.2032 1.7214 -0.6205 0.9927
-0.2140 1.7215 -0.6210 0.9927
-0.2248 1.7215 -0.6215 0.9927
-0.2465 1.7216 -0.6226 0.9926
-0.2574 1.7217 -0.6231 0.9926
-0.2902 1.7218 -0.6250 0.9926
-0.3012 1.7219 -0.6257 0.9926
-0.3122 1.7220 -0.6264 0.9926
-0.3342 1.7221 -0.6279 0.9926
-0.3453 1.7221 -0.6287 0.9926
-0.3787 1.7223 -0.6312 0.9925
-0.3899 1.7224 -0.6321 0.9925
-0.4124 1.7225 -0.6340 0.9925
-0.4237 1.7226 -0.6350 0.9925
-0.4350 1.7226 -0.6360 0.9925
-0.4693 1.7229 -0.6392 0.9924
-0.4807 1.7229 -0.6403 0.9924
-0.5154 1.7231 -0.6438 0.9924
-0.5505 1.7234 -0.6476 0.9923
-0.5623 1.7234 -0.6489 0.9923
-0.5742 1.7235 -0.6503 0.9923
-0.5861 1.7236 -0.6517 0.9923
-0.6100 1.7237 -0.6545 0.9923
-0.6221 1.7238 -0.6560 0.9922
-0.6463 1.7240 -0.6591 0.9922
-0.6956 1.7244 -0.6656 0.9921
-0.7332 1.7246 -0.6708 0.9921
-0.7586 1.7248 -0.6745 0.9920
-0.7714 1.7249 -0.6764 0.9920
-0.7843 1.7250 -0.6783 0.9920
-0.7972 1.7251 -0.6803 0.9920
-0.8102 1.7252 -0.6823 0.9919
-0.8233 1.7253 -0.6843 0.9919
-0.8365 1.7254 -0.6864 0.9919
-0.8498 1.7255 -0.6885 0.9919
-0.8632 1.7256 -0.6907 0.9918
-0.9037 1.7259 -0.6974 0.9918
-0.9174 1.7260 -0.6997 0.9917
-0.9591 1.7263 -0.7069 0.9916
-1.0016 1.7267 -0.7145 0.9916
-1.0160 1.7268 -0.7172 0.9915
-1.0452 1.7271 -0.7226 0.9915
-1.0747 1.7273 -0.7282 0.9914
-1.0897 1.7274 -0.7311 0.9914
-1.1047 1.7275 -0.7340 0.9913
-1.1353 1.7278 -0.7400 0.9913
-1.1507 1.7279 -0.7431 0.9912
-1.1820 1.7282 -0.7495 0.9911
-1.2138 1.7285 -0.7561 0.9911
-1.2627 1.7289 -0.7664 0.9909
-1.2793 1.7291 -0.7699 0.9909
-1.2960 1.7292 -0.7735 0.9909
-1.3129 1.7294 -0.7772 0.9908
-1.3299 1.7295 -0.7810 0.9908
-1.3821 1.7300 -0.7926 0.9906
-1.4727 1.7309 -0.8135 0.9904
-1.4915 1.7310 -0.8179 0.9903
-1.5104 1.7312 -0.8224 0.9903
-1.5488 1.7316 -0.8316 0.9902
-1.5684 1.7318 -0.8363 0.9901
-1.6081 1.7321 -0.8460 0.9900
-1.6283 1.7323 -0.8510 0.9900
-1.6487 1.7324 -0.8561 0.9899
-1.7330 1.7330 -0.8773 0.9896
-1.7547 1.7332 -0.8828 0.9896
-1.7767 1.7333 -0.8885 0.9895
-1.7990 1.7335 -0.8943 0.9894
-1.8216 1.7337 -0.9002 0.9894
-1.8445 1.7338 -0.9061 0.9893
-1.8912 1.7342 -0.9185 0.9892
-1.9885 1.7349 -0.9446 0.9889
-2.0138 1.7351 -0.9515 0.9888
-2.2014 1.7366 -1.0037 0.9882
-2.2593 1.7373 -1.0202 0.9880
-2.3191 1.7381 -1.0374 0.9878
-2.3807 1.7387 -1.0553 0.9876
-2.4123 1.7390 -1.0645 0.9874
-2.4771 1.7396 -1.0835 0.9872
-2.5104 1.7399 -1.0933 0.9871
-2.5443 1.7402 -1.1034 0.9870
-2.5788 1.7405 -1.1137 0.9869
-2.6140 1.7408 -1.1242 0.9867
-2.6499 1.7412 -1.1350 0.9866
-2.8006 1.7426 -1.1807 0.9861
-2.8807 1.7433 -1.2053 0.9858
-2.9640 1.7440 -1.2310 0.9855
-3.0510 1.7448 -1.2581 0.9852
-3.0960 1.7452 -1.2722 0.9850
-3.1420 1.7456 -1.2866 0.9848
-3.2865 1.7469 -1.3323 0.9843
-3.3370 1.7474 -1.3484 0.9841
-3.3887 1.7478 -1.3649 0.9839
-3.4417 1.7483 -1.3818 0.9837
-3.4961 1.7488 -1.3993 0.9835
-3.5515 1.7491 -1.4171 0.9833
-3.6080 1.7494 -1.4353 0.9831
-3.7256 1.7498 -1.4734 0.9827
-3.8496 1.7502 -1.5137 0.9822
-3.9806 1.7507 -1.5566 0.9817
-4.0489 1.7510 -1.5791 0.9814
-4.1186 1.7510 -1.6020 0.9812
-4.1904 1.7509 -1.6257 0.9809
-4.3404 1.7509 -1.6753 0.9803
-4.5000 1.7509 -1.7284 0.9797
-4.6700 1.7508 -1.7853 0.9790
-4.8517 1.7508 -1.8463 0.9783
-6.3233 2.2377 -2.4010 0.9719
-6.3505 2.1593 -2.4010 0.9719
-6.3766 2.0806 -2.4010 0.9719
-6.4140 1.9619 -2.4010 0.9719
-6.4260 1.9222 -2.4009 0.9719
-6.4377 1.8824 -2.4009 0.9719
-6.4492 1.8426 -2.4009 0.9719
-6.4714 1.7626 -2.4009 0.9719
-6.4822 1.7226 -2.4009 0.9719
-6.4927 1.6825 -2.4009 0.9719
-6.5029 1.6422 -2.4009 0.9719
-6.5227 1.5617 -2.4008 0.9719
-6.5414 1.4809 -2.4008 0.9719
-6.5592 1.3999 -2.4008 0.9719
-6.5677 1.3593 -2.4008 0.9719
-6.5759 1.3186 -2.4008 0.9719
-6.5916 1.2372 -2.4007 0.9719
-6.6064 1.1555 -2.4007 0.9719
-6.6134 1.1146 -2.4007 0.9719
-6.6388 0.9507 -2.4006 0.9719
-6.6500 0.8685 -2.4006 0.9719
-6.6601 0.7862 -2.4006 0.9719
-6.6648 0.7450 -2.4006 0.9719
-6.6811 0.5799 -2.4005 0.9719
-6.6845 0.5386 -2.4005 0.9719
-6.6906 0.4558 -2.4005 0.9719
-6.6932 0.4145 -2.4005 0.9719
-6.6956 0.3730 -2.4005 0.9719
-6.6996 0.2902 -2.4004 0.9719
-6.7013 0.2488 -2.4004 0.9719
-6.7027 0.2073 -2.4004 0.9719
-6.7052 0.0830 -2.4004 0.9719
-6.7056 0.0415 -2.4004 0.9719
-6.5520 0.0000 -2.4004 0.9725
-6.5518 -0.0405 -2.4003 0.9725
-6.5514 -0.0810 -2.4003 0.9725
-6.5498 -0.1621 -2.4003 0.9725
-6.5487 -0.2026 -2.4003 0.9725
-6.5473 -0.2430 -2.4003 0.9725
-6.5415 -0.3645 -2.4002 0.9725
-6.5391 -0.4049 -2.4002 0.9725
-6.5304 -0.5261 -2.4002 0.9725
-6.5269 -0.5665 -2.4002 0.9725
-6.5194 -0.6472 -2.4002 0.9725
-6.5152 -0.6875 -2.4001 0.9725
-6.5108 -0.7278 -2.4001 0.9725
-6.5062 -0.7680 -2.4001 0.9725
-6.4850 -0.9287 -2.4001 0.9725
-6.4600 -1.0888 -2.4000 0.9725
-6.4385 -1.2084 -2.4000 0.9725
-6.4309 -1.2482 -2.4000 0.9725
-6.4149 -1.3276 -2.3999 0.9725
-6.3979 -1.4069 -2.3999 0.9725
-6.3891 -1.4464 -2.3999 0.9725
-6.3706 -1.5253 -2.3999 0.9725
-6.3611 -1.5646 -2.3999 0.9725
-6.3309 -1.6824 -2.3998 0.9725
-6.3095 -1.7605 -2.3998 0.9725
-6.2872 -1.8384 -2.3998 0.9725
-6.2757 -1.8772 -2.3998 0.9725
-6.2272 -2.0319 -2.3997 0.9725
-6.2145 -2.0703 -2.3997 0.9725
-6.1749 -2.1852 -2.3997 0.9725
-6.1612 -2.2233 -2.3997 0.9725
-6.0894 -2.4127 -2.3996 0.9725
-5.9791 -2.6739 -2.3995 0.9725
-5.9624 -2.7108 -2.3995 0.9725
-5.9455 -2.7476 -2.3995 0.9725
-5.9110 -2.8209 -2.3995 0.9725
-5.8934 -2.8574 -2.3995 0.9725
-5.8576 -2.9300 -2.3995 0.9725
-5.8394 -2.9662 -2.3995 0.9725
-5.8209 -3.0022 -2.3994 0.9725
-5.7447 -3.1453 -2.3994 0.9725
-5.6446 -3.3213 -2.3994 0.9725
-5.6239 -3.3561 -2.3993 0.9725
-5.5819 -3.4254 -2.3993 0.9725
-5.5391 -3.4941 -2.3993 0.9725
-5.4954 -3.5623 -2.3993 0.9725
-5.4283 -3.6636 -2.3993 0.9725
-5.4055 -3.6971 -2.3992 0.9725
-5.3826 -3.7304 -2.3992 0.9725
-5.3360 -3.7967 -2.3992 0.9725
-5.3124 -3.8296 -2.3992 0.9725
-5.2403 -3.9275 -2.3992 0.9725
-5.1163 -4.0875 -2.3991 0.9725
-5.0909 -4.1191 -2.3991 0.9725
-5.0395 -4.1817 -2.3991 0.9725
-4.9345 -4.3050 -2.3991 0.9725
-4.9078 -4.3354 -2.3991 0.9725
-4.8537 -4.3957 -2.3990 0.9725
-4.7990 -4.4554 -2.3990 0.9725
-4.7713 -4.4850 -2.3990 0.9725
-4.7435 -4.5144 -2.3990 0.9725
-4.6872 -4.5727 -2.3990 0.9725
-4.6015 -4.6588 -2.3990 0.9725
-4.4848 -4.7711 -2.3989 0.9725
-4.3351 -4.9074 -2.3989 0.9725
-4.3047 -4.9341 -2.3989 0.9725
-4.2741 -4.9606 -2.3989 0.9725
-4.2433 -4.9869 -2.3989 0.9725
-4.2123 -5.0131 -2.3989 0.9725
-4.1500 -5.0648 -2.3988 0.9725
-4.1186 -5.0903 -2.3988 0.9725
-4.0552 -5.1408 -2.3988 0.9725
-4.0233 -5.1658 -2.3988 0.9725
-3.9592 -5.2152 -2.3988 0.9725
-3.9269 -5.2395 -2.3988 0.9725
-3.8944 -5.2637 -2.3988 0.9725
-3.8289 -5.3114 -2.3988 0.9725
-3.7961 -5.3350 -2.3988 0.9725
-3.7629 -5.3583 -2.3988 0.9725
-3.6628 -5.4272 -2.3987 0.9725
-3.6290 -5.4497 -2.3987 0.9725
-3.5615 -5.4941 -2.3987 0.9725
-3.5275 -5.5161 -2.3987 0.9725
-3.4590 -5.5592 -2.3987 0.9725
-3.4245 -5.5805 -2.3987 0.9725
-3.3899 -5.6016 -2.3987 0.9725
-3.3204 -5.6430 -2.3987 0.9725
-3.2854 -5.6634 -2.3987 0.9725
-3.1443 -5.7429 -2.3987 0.9725
-2.7466 -5.9432 -2.3986 0.9725
-2.7097 -5.9601 -2.3986 0.9725
-2.5987 -6.0093 -2.3986 0.9725
-2.5615 -6.0253 -2.3986 0.9725
-2.5242 -6.0410 -2.3986 0.9725
-2.4867 -6.0564 -2.3986 0.9725
-2.4116 -6.0867 -2.3986 0.9725
-2.3740 -6.1015 -2.3986 0.9725
-2.3362 -6.1161 -2.3986 0.9725
-2.1077 -6.1985 -2.3985 0.9725
-2.0693 -6.2114 -2.3985 0.9725
-1.9537 -6.2487 -2.3985 0.9725
-1.9150 -6.2606 -2.3985 0.9725
-1.6814 -6.3273 -2.3985 0.9725
-1.6423 -6.3376 -2.3985 0.9725
-1.5637 -6.3574 -2.3985 0.9725
-1.5244 -6.3669 -2.3985 0.9725
-1.4850 -6.3762 -2.3985 0.9725
-1.4455 -6.3853 -2.3985 0.9725
-1.4060 -6.3941 -2.3985 0.9725
-1.3665 -6.4027 -2.3985 0.9725
-1.3268 -6.4110 -2.3985 0.9725
-1.2474 -6.4269 -2.3985 0.9725
-1.2077 -6.4345 -2.3985 0.9725
-1.1679 -6.4418 -2.3985 0.9725
-1.1280 -6.4489 -2.3985 0.9725
-1.0481 -6.4624 -2.3985 0.9725
-1.0081 -6.4687 -2.3985 0.9725
-0.9681 -6.4748 -2.3985 0.9725
-0.8478 -6.4917 -2.3985 0.9725
-0.8077 -6.4968 -2.3985 0.9725
-0.7273 -6.5063 -2.3985 0.9725
-0.6870 -6.5107 -2.3985 0.9725
-0.6467 -6.5148 -2.3985 0.9725
-0.6064 -6.5186 -2.3985 0.9725
-0.5661 -6.5223 -2.3985 0.9725
-0.5258 -6.5256 -2.3985 0.9725
-0.4450 -6.5316 -2.3985 0.9725
-0.2024 -6.5436 -2.3985 0.9725
-0.1619 -6.5448 -2.3985 0.9725
-0.1215 -6.5456 -2.3985 0.9725
-0.0810 -6.5463 -2.3985 0.9725
-0.0000 -6.5468 -2.3985 0.9725
0.0405 -6.5466 -2.3985 0.9725
0.0810 -6.5463 -2.3985 0.9725
0.1619 -6.5448 -2.3985 0.9725
0.2024 -6.5437 -2.3985 0.9725
0.2833 -6.5407 -2.3985 0.9725
0.3238 -6.5388 -2.3985 0.9725
0.3642 -6.5367 -2.3985 0.9725
0.4450 -6.5317 -2.3985 0.9725
0.4854 -6.5288 -2.3985 0.9725
0.5258 -6.5257 -2.3985 0.9725
0.5661 -6.5223 -2.3985 0.9725
0.6064 -6.5187 -2.3985 0.9725
0.6870 -6.5107 -2.3985 0.9725
0.7273 -6.5063 -2.3985 0.9725
0.7675 -6.5017 -2.3985 0.9725
0.9681 -6.4749 -2.3985 0.9725
1.0081 -6.4688 -2.3985 0.9725
1.0481 -6.4625 -2.3985 0.9725
1.1280 -6.4490 -2.3985 0.9725
1.1679 -6.4419 -2.3985 0.9725
1.2872 -6.4192 -2.3985 0.9725
1.4850 -6.3763 -2.3985 0.9725
1.6031 -6.3478 -2.3985 0.9725
1.6815 -6.3275 -2.3986 0.9725
1.7206 -6.3170 -2.3986 0.9725
1.7986 -6.2952 -2.3986 0.9725
1.8375 -6.2840 -2.3986 0.9725
1.8763 -6.2725 -2.3986 0.9725
1.9150 -6.2608 -2.3986 0.9725
1.9537 -6.2488 -2.3986 0.9725
1.9923 -6.2366 -2.3986 0.9725
2.0309 -6.2242 -2.3986 0.9725
2.1842 -6.1721 -2.3986 0.9725
2.2224 -6.1585 -2.3986 0.9725
2.4868 -6.0567 -2.3987 0.9725
2.5988 -6.0095 -2.3987 0.9725
2.6359 -5.9933 -2.3987 0.9725
2.7098 -5.9603 -2.3987 0.9725
2.7834 -5.9264 -2.3987 0.9725
2.8928 -5.8738 -2.3987 0.9725
2.9653 -5.8375 -2.3987 0.9725
3.0013 -5.8191 -2.3987 0.9725
3.0373 -5.8005 -2.3987 0.9725
3.0731 -5.7816 -2.3987 0.9725
3.1444 -5.7431 -2.3988 0.9725
3.2152 -5.7038 -2.3988 0.9725
3.3205 -5.6433 -2.3988 0.9725
3.3553 -5.6227 -2.3988 0.9725
3.5617 -5.4944 -2.3988 0.9725
3.6630 -5.4275 -2.3989 0.9725
3.6968 -5.4047 -2.3989 0.9725
3.7632 -5.3586 -2.3989 0.9725
3.8619 -5.2879 -2.3989 0.9725
3.8944 -5.2640 -2.3989 0.9725
4.0555 -5.1411 -2.3990 0.9725
4.0873 -5.1160 -2.3990 0.9725
4.1504 -5.0650 -2.3990 0.9725
4.1814 -5.0393 -2.3990 0.9725
4.2435 -4.9872 -2.3990 0.9725
4.3354 -4.9077 -2.3990 0.9725
4.3958 -4.8538 -2.3991 0.9725
4.4555 -4.7990 -2.3991 0.9725
4.5729 -4.6875 -2.3991 0.9725
4.6018 -4.6591 -2.3991 0.9725
4.6875 -4.5730 -2.3991 0.9725
4.7157 -4.5439 -2.3992 0.9725
4.7438 -4.5147 -2.3992 0.9725
4.7716 -4.4853 -2.3992 0.9725
4.8267 -4.4259 -2.3992 0.9725
4.9081 -4.3357 -2.3992 0.9725
4.9877 -4.2439 -2.3992 0.9725
5.0399 -4.1820 -2.3993 0.9725
5.0913 -4.1194 -2.3993 0.9725
5.1167 -4.0878 -2.3993 0.9725
5.1917 -3.9922 -2.3993 0.9725
5.2163 -3.9600 -2.3993 0.9725
5.2407 -3.9277 -2.3993 0.9725
5.2889 -3.8627 -2.3994 0.9725
5.3127 -3.8299 -2.3994 0.9725
