ply
format ascii 1.0
element vertex 1540
property float32 x
property float32 y
property float32 z
property float32 I
end_header
-20.1888 -13.9921 -2.2492 0.9060
-20.0392 -14.0727 -2.2422 0.9063
-19.8906 -14.1528 -2.2353 0.9066
-19.7428 -14.2324 -2.2285 0.9069
-19.5959 -14.3115 -2.2219 0.9071
-19.1525 -14.5401 -2.2018 0.9079
-19.0056 -14.6147 -2.1953 0.9082
-18.5689 -14.8351 -2.1763 0.9089
-18.4220 -14.9053 -2.1698 0.9092
-18.1307 -15.0445 -2.1573 0.9097
-17.9864 -15.1134 -2.1512 0.9100
-17.6992 -15.2496 -2.1392 0.9104
-17.4098 -15.3794 -2.1271 0.9109
-16.7032 -15.7009 -2.0991 0.9120
-16.4534 -15.8539 -2.0922 0.9123
-16.3476 -15.9481 -2.0912 0.9123
-16.1346 -16.1346 -2.0893 0.9124
-16.0273 -16.2269 -2.0884 0.9125
-15.9196 -16.3184 -2.0875 0.9125
-15.8115 -16.4093 -2.0865 0.9125
-15.7028 -16.4996 -2.0856 0.9126
-15.2637 -16.8539 -2.0821 0.9127
-15.1528 -16.9409 -2.0812 0.9127
-15.0414 -17.0272 -2.0803 0.9128
-14.8173 -17.1976 -2.0786 0.9129
-14.4781 -17.4483 -2.0761 0.9130
-14.2498 -17.6119 -2.0744 0.9130
-14.1351 -17.6927 -2.0736 0.9131
-13.4381 -18.1631 -2.0688 0.9132
-13.3205 -18.2391 -2.0680 0.9133
-13.2026 -18.3143 -2.0673 0.9133
-12.9656 -18.4628 -2.0658 0.9134
-12.7272 -18.6084 -2.0643 0.9134
-12.6074 -18.6802 -2.0636 0.9135
-12.4873 -18.7512 -2.0629 0.9135
-12.3668 -18.8216 -2.0621 0.9135
-12.2460 -18.8912 -2.0614 0.9135
-12.1248 -18.9601 -2.0607 0.9136
-11.7592 -19.1627 -2.0587 0.9136
-11.6366 -19.2287 -2.0580 0.9137
-11.5138 -19.2941 -2.0573 0.9137
-10.8947 -19.6101 -2.0541 0.9138
-10.6449 -19.7315 -2.0529 0.9139
-10.5196 -19.7911 -2.0523 0.9139
-10.2680 -19.9081 -2.0511 0.9140
-9.8886 -20.0781 -2.0493 0.9140
-9.7615 -20.1334 -2.0488 0.9140
-9.6342 -20.1878 -2.0482 0.9141
-9.3788 -20.2946 -2.0471 0.9141
-8.9937 -20.4492 -2.0455 0.9142
-8.7357 -20.5487 -2.0445 0.9142
-8.2169 -20.7387 -2.0426 0.9143
-8.0867 -20.7843 -2.0421 0.9143
-7.5634 -20.9594 -2.0403 0.9144
-7.3005 -21.0425 -2.0394 0.9144
-7.1688 -21.0830 -2.0390 0.9144
-7.0369 -21.1226 -2.0386 0.9145
-6.9048 -21.1615 -2.0382 0.9145
-6.7724 -21.1997 -2.0378 0.9145
-6.3744 -21.3098 -2.0367 0.9145
-5.7076 -21.4781 -2.0349 0.9146
-5.5738 -21.5096 -2.0346 0.9146
-5.4398 -21.5402 -2.0343 0.9146
-4.9025 -21.6554 -2.0331 0.9147
-4.6330 -21.7083 -2.0325 0.9147
-4.4980 -21.7337 -2.0322 0.9147
-4.0925 -21.8053 -2.0315 0.9147
-3.8216 -21.8491 -2.0310 0.9148
-3.5504 -21.8901 -2.0306 0.9148
-3.4146 -21.9093 -2.0304 0.9148
-2.7343 -21.9944 -2.0294 0.9148
-2.3253 -22.0363 -2.0290 0.9148
-2.1888 -22.0487 -2.0288 0.9148
-2.0523 -22.0604 -2.0287 0.9149
-1.6424 -22.0908 -2.0283 0.9149
-1.5057 -22.0995 -2.0282 0.9149
-1.3689 -22.1073 -2.0282 0.9149
-1.0953 -22.1208 -2.0280 0.9149
-0.9584 -22.1264 -2.0279 0.9149
-0.6847 -22.1352 -2.0278 0.9149
-0.1370 -22.1437 -2.0276 0.9149
-0.0000 -22.1440 -2.0276 0.9149
0.2739 -22.1421 -2.0276 0.9149
0.6846 -22.1336 -2.0277 0.9149
0.9583 -22.1242 -2.0277 0.9149
1.0952 -22.1183 -2.0278 0.9149
1.3687 -22.1042 -2.0279 0.9149
1.7787 -22.0774 -2.0281 0.9149
1.9153 -22.0669 -2.0282 0.9149
2.1883 -22.0437 -2.0284 0.9149
2.3247 -22.0310 -2.0285 0.9149
2.4611 -22.0175 -2.0286 0.9149
2.7335 -21.9881 -2.0289 0.9148
3.2776 -21.9205 -2.0295 0.9148
3.9555 -21.8187 -2.0304 0.9148
4.2260 -21.7726 -2.0308 0.9148
4.4959 -21.7236 -2.0313 0.9147
4.9000 -21.6444 -2.0320 0.9147
5.0344 -21.6164 -2.0323 0.9147
5.7043 -21.4655 -2.0337 0.9147
6.1043 -21.3659 -2.0347 0.9146
6.5029 -21.2596 -2.0357 0.9146
6.8998 -21.1465 -2.0368 0.9145
7.2950 -21.0266 -2.0379 0.9145
7.4264 -20.9853 -2.0383 0.9145
7.6885 -20.9002 -2.0391 0.9144
7.9496 -20.8121 -2.0400 0.9144
8.2100 -20.7211 -2.0408 0.9144
8.4694 -20.6271 -2.0417 0.9143
8.5987 -20.5790 -2.0422 0.9143
8.7278 -20.5302 -2.0427 0.9143
8.8567 -20.4806 -2.0432 0.9143
8.9853 -20.4303 -2.0436 0.9143
9.2418 -20.3274 -2.0446 0.9142
9.3697 -20.2749 -2.0451 0.9142
9.6246 -20.1678 -2.0462 0.9142
9.6236 -19.8488 -2.0198 0.9152
8.2318 -16.7142 -1.7060 0.9279
8.1310 -16.2551 -1.6642 0.9296
8.1279 -16.0008 -1.6433 0.9304
8.3245 -15.4303 -1.6054 0.9320
8.6618 -15.3663 -1.6152 0.9316
8.7904 -15.3714 -1.6214 0.9313
9.0391 -15.3623 -1.6321 0.9309
9.5101 -15.2847 -1.6483 0.9302
9.6207 -15.2514 -1.6511 0.9301
9.9584 -15.1562 -1.6606 0.9297
10.0721 -15.1245 -1.6639 0.9296
10.1859 -15.0923 -1.6672 0.9295
10.3013 -15.0615 -1.6708 0.9293
10.4200 -15.0347 -1.6750 0.9292
10.6880 -14.8261 -1.6735 0.9292
10.7948 -14.7807 -1.6759 0.9291
10.8850 -14.7123 -1.6758 0.9291
11.1135 -14.6389 -1.6829 0.9288
11.2844 -14.6748 -1.6951 0.9283
11.3471 -14.5690 -1.6909 0.9285
14.1144 -17.6669 -2.0706 0.9132
14.2289 -17.5860 -2.0713 0.9131
14.6824 -17.2556 -2.0746 0.9130
14.7947 -17.1714 -2.0754 0.9130
14.9066 -17.0864 -2.0762 0.9129
15.0180 -17.0007 -2.0771 0.9129
15.1291 -16.9144 -2.0779 0.9129
15.4594 -16.6515 -2.0805 0.9128
15.5686 -16.5625 -2.0814 0.9127
15.7857 -16.3825 -2.0831 0.9127
16.0008 -16.2000 -2.0849 0.9126
16.4255 -15.8271 -2.0886 0.9125
16.5304 -15.7321 -2.0895 0.9124
16.7388 -15.5405 -2.0914 0.9123
16.8422 -15.4437 -2.0924 0.9123
16.9452 -15.3463 -2.0933 0.9123
17.1495 -15.1495 -2.0953 0.9122
17.2996 -15.0927 -2.1022 0.9119
17.4513 -15.0360 -2.1092 0.9116
17.7656 -14.9279 -2.1248 0.9110
18.5767 -14.6540 -2.1665 0.9093
18.9102 -14.5413 -2.1843 0.9086
19.5940 -14.3101 -2.2217 0.9071
19.9447 -14.1913 -2.2414 0.9064
20.5598 -13.6914 -2.2618 0.9055
20.7491 -13.4503 -2.2642 0.9055
20.8429 -13.3288 -2.2654 0.9054
21.1204 -12.9606 -2.2690 0.9053
20.3134 -12.1221 -2.1660 0.9094
20.4960 -12.0598 -2.1775 0.9089
21.6573 -12.2080 -2.2764 0.9050
21.7444 -12.0806 -2.2777 0.9049
21.8309 -11.9525 -2.2789 0.9049
21.9165 -11.8238 -2.2802 0.9048
22.2524 -11.3035 -2.2854 0.9046
22.4160 -11.0400 -2.2880 0.9045
22.4967 -10.9074 -2.2893 0.9045
22.5767 -10.7742 -2.2906 0.9044
22.8893 -10.2363 -2.2959 0.9042
22.9656 -10.1004 -2.2973 0.9041
23.1159 -9.8271 -2.3000 0.9040
23.2632 -9.5518 -2.3027 0.9039
23.3357 -9.4133 -2.3041 0.9039
23.4075 -9.2744 -2.3054 0.9038
23.4784 -9.1349 -2.3068 0.9038
23.6180 -8.8545 -2.3096 0.9036
23.6866 -8.7135 -2.3110 0.9036
23.7544 -8.5720 -2.3124 0.9035
24.0177 -8.0013 -2.3180 0.9033
24.0815 -7.8575 -2.3195 0.9033
24.2680 -7.4232 -2.3238 0.9031
24.3286 -7.2775 -2.3252 0.9030
24.5052 -6.8376 -2.3296 0.9029
24.6188 -6.5423 -2.3325 0.9027
24.7290 -6.2451 -2.3354 0.9026
24.7829 -6.0960 -2.3369 0.9026
24.8880 -5.7963 -2.3399 0.9024
24.9392 -5.6459 -2.3414 0.9024
25.0392 -5.3438 -2.3444 0.9023
25.0878 -5.1922 -2.3459 0.9022
25.1356 -5.0402 -2.3474 0.9022
25.1825 -4.8878 -2.3489 0.9021
25.2736 -4.5819 -2.3519 0.9020
25.3178 -4.4284 -2.3534 0.9019
25.3611 -4.2745 -2.3550 0.9019
25.4452 -3.9656 -2.3580 0.9017
25.6023 -3.3438 -2.3642 0.9015
25.6754 -3.0308 -2.3673 0.9014
25.8105 -2.4012 -2.3736 0.9011
25.9304 -1.7668 -2.3799 0.9009
25.9583 -1.6074 -2.3814 0.9008
25.9851 -1.4478 -2.3830 0.9007
26.0357 -1.1278 -2.3862 0.9006
26.0596 -0.9674 -2.3878 0.9006
26.0825 -0.8068 -2.3894 0.9005
26.1254 -0.4848 -2.3926 0.9004
26.2308 0.4867 -2.4023 0.9000
26.2450 0.6493 -2.4039 0.8999
26.2703 0.9752 -2.4071 0.8998
26.2815 1.1384 -2.4087 0.8997
26.2917 1.3018 -2.4104 0.8997
26.3090 1.6291 -2.4136 0.8995
26.3163 1.7929 -2.4153 0.8995
26.3224 1.9570 -2.4169 0.8994
26.3349 2.4499 -2.4218 0.8992
26.3371 2.6145 -2.4234 0.8991
26.3382 2.7792 -2.4251 0.8991
26.3383 2.9441 -2.4267 0.8990
26.3374 3.1089 -2.4284 0.8990
26.3325 3.4391 -2.4316 0.8988
26.3285 3.6043 -2.4333 0.8988
26.3236 3.7696 -2.4349 0.8987
26.3176 3.9350 -2.4366 0.8986
26.3105 4.1004 -2.4382 0.8986
26.2933 4.4316 -2.4415 0.8984
26.2718 4.7628 -2.4448 0.8983
26.2597 4.9286 -2.4465 0.8982
26.2464 5.0943 -2.4481 0.8982
26.2321 5.2601 -2.4498 0.8981
26.2167 5.4259 -2.4514 0.8980
26.1829 5.7574 -2.4547 0.8979
26.1644 5.9232 -2.4564 0.8978
26.1242 6.2547 -2.4597 0.8977
26.0798 6.5862 -2.4630 0.8976
26.0561 6.7519 -2.4646 0.8975
26.0313 6.9175 -2.4663 0.8975
25.9504 7.4142 -2.4713 0.8973
25.8279 8.0752 -2.4778 0.8970
25.7602 8.4052 -2.4811 0.8969
25.6121 9.0638 -2.4877 0.8966
25.5724 9.2280 -2.4893 0.8966
25.4898 9.5562 -2.4926 0.8964
14.6706 5.6038 -1.4380 0.9389
13.7082 5.3336 -1.3469 0.9426
10.9011 4.3974 -1.0763 0.9539
10.0608 4.1309 -0.9959 0.9573
7.2311 3.2338 -0.7253 0.9687
6.4854 2.9971 -0.6542 0.9717
6.1596 2.8929 -0.6231 0.9730
5.4752 2.6965 -0.5588 0.9758
5.4635 2.7329 -0.5594 0.9758
5.4401 2.8059 -0.5605 0.9757
5.4284 2.8425 -0.5611 0.9757
5.4167 2.8792 -0.5617 0.9757
5.4049 2.9159 -0.5623 0.9756
5.3931 2.9528 -0.5630 0.9756
5.3813 2.9897 -0.5637 0.9756
5.3575 3.0638 -0.5651 0.9755
5.3337 3.1383 -0.5666 0.9754
5.2976 3.2509 -0.5691 0.9753
5.2855 3.2887 -0.5700 0.9753
5.2734 3.3265 -0.5709 0.9753
5.2367 3.4409 -0.5738 0.9751
5.2245 3.4792 -0.5748 0.9751
5.2121 3.5177 -0.5758 0.9751
5.1997 3.5564 -0.5768 0.9750
5.1873 3.5952 -0.5779 0.9750
5.1623 3.6732 -0.5801 0.9749
5.1498 3.7124 -0.5813 0.9748
5.1371 3.7518 -0.5825 0.9748
5.1117 3.8311 -0.5849 0.9747
5.0732 3.9513 -0.5888 0.9745
4.9812 4.2384 -0.5989 0.9741
4.9678 4.2803 -0.6004 0.9740
4.9544 4.3223 -0.6020 0.9739
4.8997 4.4929 -0.6087 0.9737
4.8859 4.5361 -0.6105 0.9736
4.8719 4.5796 -0.6122 0.9735
4.8438 4.6673 -0.6159 0.9733
4.8296 4.7116 -0.6178 0.9733
4.8010 4.8010 -0.6217 0.9731
4.7865 4.8461 -0.6237 0.9730
4.7426 4.9833 -0.6299 0.9727
4.7278 5.0296 -0.6321 0.9727
4.6978 5.1232 -0.6365 0.9725
4.6826 5.1705 -0.6387 0.9724
4.6520 5.2661 -0.6434 0.9722
4.6365 5.3145 -0.6458 0.9721
4.6209 5.3632 -0.6482 0.9720
4.5893 5.4617 -0.6532 0.9718
4.5572 5.5618 -0.6584 0.9715
7.6778 9.7331 -1.1351 0.9514
6.5423 8.5079 -0.9827 0.9578
6.5412 8.6163 -0.9906 0.9575
6.4145 9.0150 -1.0131 0.9565
6.3640 9.1824 -1.0230 0.9561
8.2220 12.6837 -1.3841 0.9411
8.1864 12.8015 -1.3914 0.9408
8.1504 12.9205 -1.3988 0.9405
8.1139 13.0408 -1.4064 0.9402
8.0023 13.4097 -1.4299 0.9392
7.8471 13.9211 -1.4633 0.9378
6.9326 12.4784 -1.3071 0.9443
6.7447 12.3191 -1.2860 0.9451
6.5130 12.0725 -1.2560 0.9464
6.2568 11.9490 -1.2350 0.9473
6.1403 11.9051 -1.2266 0.9476
6.0405 11.8916 -1.2213 0.9478
5.7462 11.8516 -1.2060 0.9485
5.6793 11.9005 -1.2074 0.9484
5.5962 11.9156 -1.2054 0.9485
5.2667 11.9751 -1.1979 0.9488
5.0283 12.0340 -1.1942 0.9490
4.9569 12.0724 -1.1950 0.9489
4.6873 12.2712 -1.2028 0.9486
4.6249 12.3363 -1.2064 0.9485
4.3850 11.9200 -1.1630 0.9503
4.0919 11.5628 -1.1231 0.9519
3.9717 11.4478 -1.1095 0.9525
3.7637 11.2975 -1.0904 0.9533
3.5809 11.2095 -1.0775 0.9538
3.3288 11.1283 -1.0636 0.9544
3.2509 11.1177 -1.0606 0.9545
3.1734 11.1071 -1.0577 0.9547
3.0963 11.0967 -1.0549 0.9548
2.9464 11.0876 -1.0505 0.9550
2.8764 11.1003 -1.0500 0.9550
2.8065 11.1129 -1.0495 0.9550
2.5970 11.1508 -1.0484 0.9551
2.5272 11.1634 -1.0480 0.9551
2.4621 11.1966 -1.0497 0.9550
2.3317 11.2666 -1.0535 0.9548
2.1344 11.3725 -1.0595 0.9546
2.0714 11.4262 -1.0633 0.9544
1.9476 11.5554 -1.0730 0.9540
1.8848 11.6209 -1.0780 0.9538
1.7609 11.7772 -1.0904 0.9533
1.7036 11.8960 -1.1004 0.9529
1.3360 10.2293 -0.9446 0.9594
1.2238 10.3671 -0.9559 0.9589
1.0636 10.7140 -0.9859 0.9577
1.0126 10.8842 -1.0009 0.9570
0.9056 11.2405 -1.0326 0.9557
0.8496 11.4272 -1.0492 0.9550
0.7319 11.8200 -1.0844 0.9535
0.6579 11.8085 -1.0829 0.9536
0.5835 11.7850 -1.0805 0.9537
0.5139 11.8647 -1.0874 0.9534
0.4396 11.8424 -1.0851 0.9535
0.2919 11.7979 -1.0806 0.9537
0.1454 11.7538 -1.0763 0.9539
0.0726 11.7319 -1.0743 0.9540
0.0000 11.7101 -1.0722 0.9541
-0.0620 10.0201 -0.9175 0.9606
-0.1217 9.8362 -0.9007 0.9613
-0.1853 9.9856 -0.9145 0.9607
-0.3626 9.7692 -0.8951 0.9615
-0.4902 9.9010 -0.9077 0.9610
-0.7277 10.6808 -0.9803 0.9579
-0.8159 10.9743 -1.0076 0.9568
-0.9822 11.3159 -1.0400 0.9554
-1.0505 11.2914 -1.0384 0.9555
-1.1288 11.3704 -1.0463 0.9551
-1.1976 11.3497 -1.0450 0.9552
-1.6077 11.2263 -1.0384 0.9555
-1.6755 11.2059 -1.0375 0.9555
-1.8109 11.1651 -1.0357 0.9556
-1.8784 11.1448 -1.0349 0.9556
-2.4027 10.9269 -1.0244 0.9561
-2.4692 10.9069 -1.0240 0.9561
-2.5355 10.8869 -1.0235 0.9561
-2.6018 10.8670 -1.0232 0.9561
-2.7344 10.8274 -1.0225 0.9561
-2.8006 10.8077 -1.0223 0.9561
-2.9991 10.7484 -1.0218 0.9562
-2.9967 10.2485 -0.9777 0.9580
-3.0480 9.9647 -0.9542 0.9590
-3.0728 9.8279 -0.9429 0.9595
-3.1144 9.7489 -0.9371 0.9597
-3.1967 9.5956 -0.9261 0.9602
-3.3707 9.3409 -0.9093 0.9609
-3.4191 9.2945 -0.9068 0.9610
-3.6102 9.1117 -0.8974 0.9614
-3.6420 9.0285 -0.8914 0.9617
-3.7506 8.9761 -0.8908 0.9617
-3.8591 8.9238 -0.8902 0.9617
-3.9132 8.8977 -0.8900 0.9617
-4.0215 8.8454 -0.8897 0.9617
-4.2065 8.8145 -0.8943 0.9615
-4.2695 8.8059 -0.8961 0.9615
-4.3327 8.7973 -0.8979 0.9614
-4.8659 8.8875 -0.9278 0.9601
-4.9456 8.9019 -0.9325 0.9599
-5.2536 9.0563 -0.9587 0.9588
-5.3633 9.1151 -0.9684 0.9584
-5.5456 9.2929 -0.9909 0.9575
-10.6198 17.5484 -1.8782 0.9209
-11.6725 19.0213 -2.0435 0.9143
-10.9950 17.1935 -1.8687 0.9213
-11.5660 17.3679 -1.9107 0.9196
-15.3811 22.1929 -2.4725 0.8972
-15.5115 22.0881 -2.4714 0.8973
-15.7695 21.8751 -2.4692 0.8973
-15.8973 21.7673 -2.4681 0.8974
-16.0500 21.4152 -2.4505 0.8981
-15.7964 20.8074 -2.3921 0.9004
-15.6233 20.3173 -2.3468 0.9022
-15.5126 19.9172 -2.3116 0.9036
-6.6546 8.4359 -0.9838 0.9578
-6.6805 8.3619 -0.9800 0.9579
-6.7273 8.3146 -0.9793 0.9579
-6.7941 8.2918 -0.9816 0.9579
-6.9033 8.3195 -0.9899 0.9575
-14.3570 16.6633 -2.0140 0.9154
-14.3196 16.4135 -1.9945 0.9162
-14.2593 16.1419 -1.9721 0.9171
-14.4499 15.3723 -1.9318 0.9187
-14.6422 15.3851 -1.9448 0.9182
-14.7761 15.3348 -1.9499 0.9180
-19.8704 20.3681 -2.6055 0.8920
-19.9859 20.2347 -2.6042 0.8920
-20.1004 20.1004 -2.6029 0.8921
-20.2141 19.9656 -2.6015 0.8921
-20.7676 19.2809 -2.5948 0.8924
-20.8754 19.1420 -2.5934 0.8925
-20.9823 19.0024 -2.5921 0.8925
-21.1930 18.7214 -2.5893 0.8926
-21.2969 18.5800 -2.5879 0.8927
-21.3998 18.4379 -2.5865 0.8927
-21.5017 18.2952 -2.5851 0.8928
-21.6025 18.1520 -2.5837 0.8928
-21.7025 18.0081 -2.5822 0.8929
-21.8014 17.8637 -2.5808 0.8930
-22.0921 17.4270 -2.5765 0.8931
-22.1869 17.2803 -2.5750 0.8932
-22.2807 17.1331 -2.5736 0.8932
-22.3736 16.9854 -2.5721 0.8933
-22.4654 16.8371 -2.5707 0.8934
-22.7346 16.3891 -2.5662 0.8935
-22.8223 16.2388 -2.5648 0.8936
-23.1627 15.6328 -2.5588 0.8938
-23.4865 15.0194 -2.5527 0.8941
-23.9406 14.0866 -2.5435 0.8944
-24.0126 13.9298 -2.5419 0.8945
-24.2222 13.4571 -2.5372 0.8947
-24.3567 13.1402 -2.5341 0.8948
-24.4222 12.9812 -2.5325 0.8949
-24.5503 12.6623 -2.5294 0.8950
-24.6127 12.5025 -2.5278 0.8950
-24.6740 12.3422 -2.5262 0.8951
-24.7935 12.0210 -2.5230 0.8952
-24.9087 11.6985 -2.5198 0.8954
-25.0196 11.3751 -2.5166 0.8955
-25.0734 11.2129 -2.5150 0.8955
-25.1779 10.8880 -2.5118 0.8957
-25.3265 10.3989 -2.5069 0.8959
-25.3740 10.2355 -2.5053 0.8959
-25.4203 10.0718 -2.5037 0.8960
-25.6757 9.0863 -2.4939 0.8964
-25.7523 8.7565 -2.4906 0.8965
-25.8591 8.2609 -2.4857 0.8967
-25.9250 7.9299 -2.4824 0.8968
-25.9563 7.7644 -2.4808 0.8969
-25.9866 7.5986 -2.4791 0.8970
-26.0710 7.1010 -2.4742 0.8971
-26.0970 6.9350 -2.4725 0.8972
-26.1458 6.6029 -2.4692 0.8973
-26.1687 6.4367 -2.4676 0.8974
-26.2111 6.1045 -2.4643 0.8975
-26.2669 5.6058 -2.4593 0.8977
-26.2834 5.4396 -2.4577 0.8978
-26.2988 5.2734 -2.4560 0.8979
-26.3266 4.9411 -2.4527 0.8980
-26.3389 4.7750 -2.4511 0.8981
-26.3603 4.4429 -2.4477 0.8982
-26.3695 4.2769 -2.4461 0.8983
-26.3908 3.7793 -2.4411 0.8984
-26.4028 3.2824 -2.4362 0.8986
-26.4055 2.7863 -2.4313 0.8988
-26.4022 2.4562 -2.4280 0.8990
-26.3762 1.6332 -2.4198 0.8993
-26.3587 1.3051 -2.4165 0.8994
-26.3484 1.1413 -2.4149 0.8995
-26.2976 0.4879 -2.4084 0.8997
-24.2459 -0.1500 -2.4018 0.9071
-24.2294 -0.2997 -2.4003 0.9072
-24.2120 -0.4492 -2.3988 0.9072
-24.1746 -0.7478 -2.3958 0.9074
-24.0889 -1.3421 -2.3899 0.9076
-23.9619 -2.0798 -2.3825 0.9078
-23.9339 -2.2266 -2.3811 0.9079
-23.9050 -2.3731 -2.3796 0.9080
-23.8752 -2.5193 -2.3782 0.9080
-23.8131 -2.8110 -2.3752 0.9081
-23.7474 -3.1015 -2.3723 0.9082
-23.7133 -3.2463 -2.3709 0.9083
-23.6784 -3.3909 -2.3695 0.9083
-23.6060 -3.6790 -2.3666 0.9084
-23.5685 -3.8226 -2.3651 0.9085
-23.4910 -4.1088 -2.3623 0.9086
-23.3685 -4.5357 -2.3580 0.9088
-23.3260 -4.6773 -2.3566 0.9088
-23.2385 -4.9596 -2.3538 0.9089
-23.1935 -5.1001 -2.3524 0.9090
-23.1477 -5.2403 -2.3510 0.9090
-23.1011 -5.3802 -2.3496 0.9091
-22.9067 -5.9358 -2.3440 0.9093
-22.8561 -6.0738 -2.3427 0.9093
-22.8047 -6.2114 -2.3413 0.9094
-22.7525 -6.3485 -2.3399 0.9094
-22.6458 -6.6218 -2.3372 0.9095
-22.5913 -6.7578 -2.3358 0.9096
-22.5360 -6.8933 -2.3345 0.9096
-22.4799 -7.0285 -2.3331 0.9097
-22.4230 -7.1632 -2.3318 0.9097
-22.3654 -7.2976 -2.3304 0.9098
-21.8128 -8.4869 -2.3185 0.9102
-21.7477 -8.6168 -2.3172 0.9103
-21.6819 -8.7462 -2.3159 0.9103
-21.3419 -9.3863 -2.3095 0.9105
-21.0571 -9.8896 -2.3045 0.9107
-20.9841 -10.0142 -2.3032 0.9108
-20.9105 -10.1384 -2.3020 0.9108
-20.7612 -10.3850 -2.2995 0.9109
-20.6855 -10.5076 -2.2983 0.9110
-20.6092 -10.6296 -2.2970 0.9110
-20.2970 -11.1127 -2.2922 0.9112
-20.2173 -11.2321 -2.2910 0.9112
-19.9744 -11.5872 -2.2874 0.9114
-19.8921 -11.7045 -2.2863 0.9114
-19.8092 -11.8212 -2.2851 0.9114
-19.2985 -12.5100 -2.2782 0.9117
-19.2112 -12.6228 -2.2770 0.9117
-19.1233 -12.7351 -2.2759 0.9118
-18.8559 -13.0684 -2.2726 0.9119
-18.1171 -13.9314 -2.2639 0.9122
-18.0222 -14.0367 -2.2628 0.9123
-17.5392 -14.5536 -2.2576 0.9125
-17.4410 -14.6552 -2.2566 0.9125
-17.2429 -14.8564 -2.2546 0.9126
-17.1430 -14.9561 -2.2536 0.9126
-17.0427 -15.0551 -2.2526 0.9126
-16.6360 -15.4451 -2.2487 0.9128
-16.4296 -15.6362 -2.2467 0.9129
-16.2212 -15.8249 -2.2448 0.9129
-15.9688 -15.9688 -2.2370 0.9132
-15.8281 -16.0251 -2.2312 0.9134
-15.4080 -16.1898 -2.2139 0.9141
-15.2694 -16.2442 -2.2084 0.9143
-15.1314 -16.2982 -2.2030 0.9145
-14.5783 -16.5029 -2.1812 0.9153
-14.4412 -16.5529 -2.1760 0.9155
-14.3047 -16.6026 -2.1709 0.9157
-14.1688 -16.6520 -2.1658 0.9159
-14.0325 -16.6999 -2.1607 0.9161
-13.8955 -16.7462 -2.1555 0.9162
-13.7592 -16.7921 -2.1505 0.9164
-13.4884 -16.8833 -2.1406 0.9168
-13.3539 -16.9286 -2.1359 0.9170
-13.2200 -16.9737 -2.1312 0.9172
-12.9505 -17.0587 -2.1216 0.9175
-12.8162 -17.1004 -2.1169 0.9177
-12.5493 -17.1831 -2.1077 0.9180
-12.2847 -17.2652 -2.0990 0.9184
-12.1520 -17.3041 -2.0946 0.9185
-12.0199 -17.3431 -2.0902 0.9187
-11.7590 -17.4232 -2.0822 0.9190
-11.6293 -17.4629 -2.0783 0.9191
-11.5034 -17.5076 -2.0751 0.9192
-11.3913 -17.5727 -2.0745 0.9193
-11.2788 -17.6373 -2.0738 0.9193
-10.9395 -17.8269 -2.0719 0.9194
-10.4827 -18.0704 -2.0694 0.9195
-10.3677 -18.1296 -2.0688 0.9195
-9.4375 -18.5789 -2.0642 0.9197
-9.0841 -18.7362 -2.0626 0.9197
-8.8472 -18.8376 -2.0616 0.9197
-8.6094 -18.9363 -2.0606 0.9198
-8.3705 -19.0323 -2.0596 0.9198
-8.2507 -19.0792 -2.0591 0.9198
-8.0104 -19.1710 -2.0582 0.9199
-7.8899 -19.2159 -2.0577 0.9199
-7.2843 -19.4299 -2.0555 0.9200
-6.7961 -19.5885 -2.0539 0.9200
-6.6735 -19.6264 -2.0535 0.9201
-6.4279 -19.7001 -2.0527 0.9201
-5.8107 -19.8721 -2.0509 0.9201
-5.5627 -19.9360 -2.0503 0.9202
-5.3140 -19.9971 -2.0496 0.9202
-5.0648 -20.0553 -2.0490 0.9202
-4.9400 -20.0834 -2.0487 0.9202
-4.8150 -20.1107 -2.0484 0.9202
-4.1882 -20.2368 -2.0471 0.9203
-3.9367 -20.2823 -2.0466 0.9203
-3.5586 -20.3452 -2.0459 0.9203
-3.4323 -20.3647 -2.0457 0.9203
-3.3060 -20.3836 -2.0455 0.9203
-3.1796 -20.4017 -2.0453 0.9204
-2.9265 -20.4357 -2.0450 0.9204
-2.7998 -20.4517 -2.0448 0.9204
-2.5462 -20.4816 -2.0445 0.9204
-2.2924 -20.5085 -2.0442 0.9204
-1.5295 -20.5721 -2.0435 0.9204
-1.4022 -20.5802 -2.0434 0.9204
-1.2748 -20.5876 -2.0433 0.9204
-1.1474 -20.5943 -2.0432 0.9204
-0.8926 -20.6055 -2.0430 0.9204
-0.5101 -20.6169 -2.0429 0.9204
-0.3826 -20.6193 -2.0429 0.9204
-0.2551 -20.6209 -2.0428 0.9204
-0.1275 -20.6219 -2.0428 0.9204
-0.0000 -20.6221 -2.0428 0.9205
0.1275 -20.6216 -2.0428 0.9205
0.2550 -20.6204 -2.0428 0.9205
0.7650 -20.6084 -2.0428 0.9204
1.1473 -20.5919 -2.0429 0.9204
1.2746 -20.5849 -2.0430 0.9204
1.4020 -20.5773 -2.0431 0.9204
1.9108 -20.5395 -2.0434 0.9204
2.0379 -20.5283 -2.0435 0.9204
2.1649 -20.5162 -2.0436 0.9204
2.4187 -20.4902 -2.0438 0.9204
2.6723 -20.4613 -2.0441 0.9204
2.7990 -20.4458 -2.0442 0.9204
2.9256 -20.4296 -2.0444 0.9204
3.0521 -20.4127 -2.0445 0.9204
3.3049 -20.3766 -2.0448 0.9204
3.8093 -20.2961 -2.0456 0.9203
3.9351 -20.2741 -2.0458 0.9203
4.0608 -20.2515 -2.0460 0.9203
4.3119 -20.2041 -2.0464 0.9203
4.4373 -20.1793 -2.0467 0.9203
4.5625 -20.1538 -2.0469 0.9203
4.6876 -20.1277 -2.0472 0.9203
4.8126 -20.1007 -2.0474 0.9203
4.9374 -20.0731 -2.0477 0.9203
5.0622 -20.0448 -2.0479 0.9203
5.3111 -19.9862 -2.0485 0.9202
5.5595 -19.9246 -2.0491 0.9202
5.8072 -19.8602 -2.0497 0.9202
5.9309 -19.8270 -2.0500 0.9202
6.3007 -19.7231 -2.0510 0.9201
6.4236 -19.6871 -2.0513 0.9201
6.5464 -19.6503 -2.0517 0.9201
6.9135 -19.5359 -2.0528 0.9201
7.2788 -19.4153 -2.0539 0.9200
7.4002 -19.3736 -2.0543 0.9200
7.5214 -19.3314 -2.0548 0.9200
7.6423 -19.2884 -2.0552 0.9200
7.7630 -19.2446 -2.0556 0.9200
8.0038 -19.1552 -2.0565 0.9199
8.2437 -19.0630 -2.0573 0.9199
8.3633 -19.0159 -2.0578 0.9199
8.6017 -18.9195 -2.0587 0.9199
8.7206 -18.8703 -2.0592 0.9198
9.0756 -18.7186 -2.0607 0.9198
8.2256 -16.7016 -1.8442 0.9279
7.9989 -15.7468 -1.7496 0.9315
8.1253 -15.5173 -1.7351 0.9320
8.3691 -15.5129 -1.7460 0.9316
8.4299 -15.3970 -1.7388 0.9319
8.5372 -15.3666 -1.7413 0.9318
9.0143 -15.3200 -1.7608 0.9310
9.1897 -15.3995 -1.7764 0.9305
9.2991 -15.3661 -1.7792 0.9303
9.5188 -15.2987 -1.7849 0.9301
10.1973 -15.1091 -1.8057 0.9294
10.3125 -15.0779 -1.8095 0.9292
10.4302 -15.0495 -1.8138 0.9290
10.5502 -15.0232 -1.8185 0.9289
10.6840 -14.8206 -1.8098 0.9292
10.7672 -14.7429 -1.8084 0.9292
10.8912 -14.7207 -1.8139 0.9290
11.0080 -14.6878 -1.8182 0.9289
11.1144 -14.6401 -1.8208 0.9288
11.3567 -14.5813 -1.8308 0.9284
13.2793 -16.4124 -2.0913 0.9186
13.4095 -16.3654 -2.0958 0.9185
13.6745 -16.2740 -2.1056 0.9181
13.8088 -16.2289 -2.1108 0.9179
14.0794 -16.1382 -2.1215 0.9175
14.2157 -16.0924 -2.1270 0.9173
14.3527 -16.0465 -2.1326 0.9171
15.1905 -15.7649 -2.1686 0.9158
15.3329 -15.7170 -2.1750 0.9155
15.6202 -15.6202 -2.1882 0.9150
15.9110 -15.5223 -2.2019 0.9145
16.0578 -15.4728 -2.2089 0.9143
16.2055 -15.4230 -2.2161 0.9140
16.3542 -15.3729 -2.2234 0.9137
16.5038 -15.3224 -2.2308 0.9135
16.6545 -15.2716 -2.2383 0.9132
16.8062 -15.2204 -2.2460 0.9129
16.9141 -15.1288 -2.2479 0.9128
17.0147 -15.0303 -2.2489 0.9128
17.1147 -14.9313 -2.2498 0.9127
17.2143 -14.8316 -2.2508 0.9127
17.4117 -14.6304 -2.2528 0.9126
17.7999 -14.2207 -2.2568 0.9125
17.9908 -14.0122 -2.2589 0.9124
18.1794 -13.8013 -2.2610 0.9123
18.2729 -13.6950 -2.2620 0.9123
18.3658 -13.5881 -2.2631 0.9123
18.5499 -13.3724 -2.2652 0.9122
18.6410 -13.2637 -2.2663 0.9121
18.7316 -13.1545 -2.2673 0.9121
18.8216 -13.0446 -2.2684 0.9121
19.2625 -12.4867 -2.2739 0.9119
19.3489 -12.3734 -2.2750 0.9118
19.5197 -12.1451 -2.2773 0.9117
19.6042 -12.0301 -2.2784 0.9117
19.6880 -11.9146 -2.2796 0.9116
19.7713 -11.7986 -2.2807 0.9116
20.0172 -11.4472 -2.2842 0.9115
20.0979 -11.3289 -2.2854 0.9114
20.1779 -11.2102 -2.2865 0.9114
20.3360 -10.9711 -2.2889 0.9113
20.4140 -10.8508 -2.2901 0.9113
20.4914 -10.7298 -2.2913 0.9112
20.6442 -10.4866 -2.2937 0.9111
20.8683 -10.1179 -2.2973 0.9110
20.9416 -9.9940 -2.2985 0.9109
21.0862 -9.7446 -2.3010 0.9109
21.3670 -9.2401 -2.3060 0.9107
21.4355 -9.1127 -2.3073 0.9106
21.5032 -8.9849 -2.3085 0.9106
21.5702 -8.8567 -2.3098 0.9105
21.6365 -8.7279 -2.3111 0.9105
21.7669 -8.4690 -2.3136 0.9104
21.8310 -8.3389 -2.3149 0.9103
21.8943 -8.2083 -2.3162 0.9103
21.9570 -8.0772 -2.3175 0.9102
22.0189 -7.9457 -2.3188 0.9102
22.0800 -7.8138 -2.3201 0.9101
22.1404 -7.6815 -2.3214 0.9101
22.2001 -7.5487 -2.3227 0.9101
22.4869 -6.8784 -2.3294 0.9098
22.7026 -6.3347 -2.3348 0.9096
22.8561 -5.9227 -2.3389 0.9095
22.9056 -5.7846 -2.3402 0.9094
22.9544 -5.6462 -2.3416 0.9094
23.0024 -5.5074 -2.3430 0.9093
23.0496 -5.3682 -2.3443 0.9093
23.0960 -5.2286 -2.3457 0.9092
23.1416 -5.0887 -2.3471 0.9092
23.1863 -4.9484 -2.3485 0.9091
23.2303 -4.8078 -2.3499 0.9091
23.3157 -4.5255 -2.3527 0.9089
23.3572 -4.3838 -2.3541 0.9089
23.3979 -4.2418 -2.3555 0.9088
23.5149 -3.8139 -2.3598 0.9087
23.6243 -3.3831 -2.3640 0.9085
23.6590 -3.2389 -2.3655 0.9085
23.7897 -2.6592 -2.3712 0.9083
23.8498 -2.3676 -2.3741 0.9082
23.9597 -1.7814 -2.3799 0.9079
23.9850 -1.6341 -2.3814 0.9079
24.0329 -1.3390 -2.3843 0.9078
24.0773 -1.0430 -2.3873 0.9077
24.0982 -0.8946 -2.3888 0.9076
24.1373 -0.5972 -2.3917 0.9075
24.2045 -0.0000 -2.3977 0.9073
24.2456 0.4499 -2.4021 0.9071
24.2574 0.6001 -2.4036 0.9071
24.2683 0.7506 -2.4051 0.9070
24.2783 0.9013 -2.4066 0.9070
24.2955 1.2030 -2.4096 0.9069
24.3026 1.3540 -2.4111 0.9068
24.3190 1.8080 -2.4156 0.9066
24.3225 1.9596 -2.4171 0.9066
24.3268 2.2631 -2.4202 0.9065
24.3241 2.8713 -2.4262 0.9062
24.3210 3.0236 -2.4277 0.9062
24.3121 3.3283 -2.4308 0.9061
24.3062 3.4807 -2.4323 0.9060
24.2829 3.9384 -2.4368 0.9058
24.2732 4.0911 -2.4384 0.9058
24.2626 4.2438 -2.4399 0.9057
24.2510 4.3965 -2.4414 0.9057
24.2384 4.5492 -2.4429 0.9056
24.2105 4.8547 -2.4460 0.9055
24.1950 5.0074 -2.4475 0.9055
24.1613 5.3129 -2.4505 0.9053
24.1429 5.4656 -2.4521 0.9053
24.1236 5.6183 -2.4536 0.9052
24.1034 5.7709 -2.4551 0.9052
24.0821 5.9235 -2.4566 0.9051
24.0599 6.0761 -2.4582 0.9051
24.0126 6.3811 -2.4612 0.9050
23.9614 6.6859 -2.4642 0.9048
23.9343 6.8381 -2.4658 0.9048
23.8773 7.1424 -2.4688 0.9047
23.8163 7.4463 -2.4718 0.9046
23.7844 7.5981 -2.4733 0.9045
23.7515 7.7498 -2.4748 0.9045
23.7176 7.9014 -2.4764 0.9044
23.6469 8.2041 -2.4794 0.9043
23.5334 8.6571 -2.4839 0.9041
14.6997 5.6149 -1.5587 0.9387
13.6924 5.3274 -1.4554 0.9427
10.9174 4.4039 -1.1661 0.9538
9.3527 3.9079 -1.0041 0.9601
6.1562 2.8913 -0.6737 0.9730
5.8602 2.7967 -0.6432 0.9742
5.4750 2.6965 -0.6046 0.9758
5.4400 2.8058 -0.6063 0.9757
5.4283 2.8424 -0.6070 0.9757
5.3811 2.9896 -0.6098 0.9756
5.3455 3.1010 -0.6122 0.9755
5.3335 3.1382 -0.6130 0.9754
5.3095 3.2132 -0.6148 0.9754
5.2366 3.4408 -0.6207 0.9751
5.2243 3.4791 -0.6218 0.9751
5.2120 3.5177 -0.6229 0.9750
5.1747 3.6340 -0.6264 0.9749
5.1622 3.6731 -0.6276 0.9749
5.1370 3.7517 -0.6301 0.9748
5.1243 3.7913 -0.6314 0.9747
5.1116 3.8310 -0.6328 0.9747
5.0988 3.8709 -0.6341 0.9746
5.0860 3.9110 -0.6355 0.9745
5.0601 3.9917 -0.6384 0.9744
5.0471 4.0323 -0.6399 0.9744
5.0341 4.0731 -0.6414 0.9743
4.9945 4.1967 -0.6462 0.9741
4.9677 4.2802 -0.6496 0.9740
4.9407 4.3645 -0.6530 0.9738
4.9271 4.4070 -0.6548 0.9738
4.8857 4.5360 -0.6604 0.9736
4.8718 4.5795 -0.6623 0.9735
4.8437 4.6672 -0.6663 0.9733
4.8152 4.7561 -0.6704 0.9732
4.7719 4.8914 -0.6769 0.9729
4.7572 4.9371 -0.6792 0.9728
4.7276 5.0295 -0.6838 0.9726
4.7127 5.0761 -0.6861 0.9725
4.6825 5.1704 -0.6910 0.9724
4.6672 5.2180 -0.6935 0.9723
4.6364 5.3144 -0.6986 0.9720
4.6208 5.3630 -0.7012 0.9719
4.5409 5.6123 -0.7151 0.9714
7.8059 9.7706 -1.2388 0.9510
7.6769 9.7319 -1.2278 0.9514
6.5123 8.6893 -1.0757 0.9573
6.4882 8.7695 -1.0806 0.9571
6.4638 8.8505 -1.0856 0.9569
6.4143 9.0148 -1.0960 0.9565
6.3638 9.1822 -1.1067 0.9561
6.2951 9.3274 -1.1147 0.9558
8.2571 12.5669 -1.4895 0.9413
8.2218 12.6834 -1.4973 0.9411
8.1501 12.9201 -1.5132 0.9404
8.1137 13.0404 -1.5214 0.9401
8.0396 13.2849 -1.5382 0.9395
8.0020 13.4093 -1.5468 0.9392
7.9255 13.6623 -1.5646 0.9385
7.8864 13.7907 -1.5737 0.9381
6.7435 12.3169 -1.3910 0.9451
6.4597 12.1531 -1.3633 0.9462
6.3648 12.1553 -1.3592 0.9463
6.0299 12.0547 -1.3352 0.9473
5.5130 11.9296 -1.3018 0.9485
5.1507 12.1157 -1.3041 0.9485
5.0837 12.1667 -1.3062 0.9484
5.0165 12.2177 -1.3083 0.9483
4.8663 12.2821 -1.3087 0.9483
4.7455 12.4237 -1.3174 0.9479
4.6771 12.4756 -1.3198 0.9479
4.3574 11.8452 -1.2502 0.9505
3.9713 11.4465 -1.2002 0.9525
3.4069 11.1380 -1.1538 0.9543
3.2506 11.1168 -1.1473 0.9545
3.0960 11.0958 -1.1411 0.9548
2.9462 11.0868 -1.1364 0.9549
2.8762 11.0995 -1.1358 0.9550
2.8063 11.1121 -1.1353 0.9550
2.6666 11.1374 -1.1344 0.9550
2.5270 11.1626 -1.1337 0.9550
2.3968 11.2308 -1.1375 0.9549
2.3316 11.2658 -1.1396 0.9548
2.2661 11.3010 -1.1417 0.9547
2.2003 11.3363 -1.1439 0.9546
2.0713 11.4254 -1.1502 0.9544
2.0097 11.4897 -1.1554 0.9542
1.8743 11.5562 -1.1597 0.9540
1.8113 11.6220 -1.1651 0.9538
1.3262 10.1541 -1.0144 0.9597
1.2805 10.3005 -1.0282 0.9591
1.2139 10.2834 -1.0257 0.9592
1.1502 10.2901 -1.0257 0.9592
1.1131 10.5484 -1.0507 0.9583
1.0635 10.7135 -1.0665 0.9576
0.9056 11.2399 -1.1170 0.9557
0.7917 11.6196 -1.1537 0.9543
0.7240 11.6922 -1.1604 0.9540
0.3620 11.7043 -1.1600 0.9540
0.2896 11.7052 -1.1598 0.9540
0.1448 11.7100 -1.1601 0.9540
0.0000 11.7092 -1.1599 0.9540
-0.1838 9.9083 -0.9817 0.9609
-0.6441 10.4013 -1.0323 0.9590
-0.7276 10.6798 -1.0604 0.9579
-0.8159 10.9739 -1.0901 0.9567
-1.1287 11.3696 -1.1318 0.9551
-1.1975 11.3489 -1.1304 0.9552
-1.2662 11.3282 -1.1291 0.9552
-1.3348 11.3076 -1.1279 0.9553
-1.4032 11.2870 -1.1267 0.9553
-1.4714 11.2664 -1.1255 0.9554
-1.5395 11.2459 -1.1244 0.9554
-1.6754 11.2050 -1.1223 0.9555
-1.7431 11.1846 -1.1213 0.9555
-1.7176 9.4741 -0.9538 0.9620
-1.7750 9.4572 -0.9532 0.9621
-2.1952 10.2861 -1.0419 0.9586
-2.4026 10.9262 -1.1082 0.9560
-2.4690 10.9062 -1.1077 0.9560
-2.6016 10.8662 -1.1068 0.9561
-2.7342 10.8267 -1.1061 0.9561
-2.8666 10.7871 -1.1056 0.9561
-2.9327 10.7674 -1.1054 0.9561
-3.0374 10.6314 -1.0953 0.9565
-2.9966 10.2481 -1.0577 0.9580
-3.0479 9.9644 -1.0322 0.9590
-3.0727 9.8276 -1.0200 0.9595
-3.1556 9.6713 -1.0077 0.9599
-3.2370 9.5199 -0.9960 0.9604
-3.2770 9.4454 -0.9904 0.9606
-3.5626 9.1565 -0.9733 0.9613
-3.6611 9.0760 -0.9694 0.9614
-3.7158 9.0497 -0.9691 0.9614
-3.7703 9.0234 -0.9687 0.9615
-3.9883 8.9182 -0.9677 0.9615
-4.2929 8.8542 -0.9747 0.9612
-4.3565 8.8456 -0.9767 0.9611
-4.4203 8.8369 -0.9788 0.9611
-4.4844 8.8281 -0.9808 0.9610
-4.5547 8.8308 -0.9843 0.9608
-4.7086 8.8585 -0.9938 0.9605
-4.7866 8.8725 -0.9986 0.9603
-4.9451 8.9011 -1.0087 0.9599
-5.0399 8.9409 -1.0167 0.9596
-5.1453 8.9975 -1.0267 0.9592
-5.3626 9.1140 -1.0475 0.9584
-13.3747 20.9148 -2.4592 0.9050
-13.6224 20.7325 -2.4574 0.9051
-11.6117 17.4365 -2.0752 0.9192
-13.8674 20.5471 -2.4555 0.9052
-13.9889 20.4532 -2.4546 0.9052
-14.2299 20.2631 -2.4527 0.9053
-14.4682 20.0699 -2.4508 0.9053
-14.5862 19.9721 -2.4498 0.9054
-14.7036 19.8736 -2.4489 0.9054
-14.8202 19.7743 -2.4479 0.9054
-14.9360 19.6741 -2.4469 0.9055
-6.6542 8.4354 -1.0643 0.9577
-6.6799 8.3612 -1.0601 0.9579
-14.5796 17.3511 -2.2450 0.9129
-14.4811 17.0191 -2.2136 0.9141
-14.3559 16.6620 -2.1786 0.9154
-14.2134 16.2919 -2.1417 0.9168
-13.9808 15.6306 -2.0773 0.9192
-13.8539 15.2974 -2.0444 0.9204
-14.1757 15.4594 -2.0777 0.9191
-14.3826 15.3008 -2.0802 0.9191
-14.5577 15.2964 -2.0918 0.9186
-14.9585 15.3332 -2.1219 0.9175
-17.1910 17.4049 -2.4233 0.9063
-17.2902 17.2902 -2.4222 0.9064
-17.3887 17.1749 -2.4210 0.9064
-18.7752 18.0911 -2.5827 0.9005
-19.0801 17.7142 -2.5790 0.9006
-19.1799 17.5873 -2.5778 0.9007
-19.2789 17.4598 -2.5765 0.9007
-19.3770 17.3317 -2.5752 0.9008
-19.4742 17.2031 -2.5740 0.9008
-19.5706 17.0739 -2.5727 0.9009
-19.6660 16.9441 -2.5714 0.9009
-19.8541 16.6828 -2.5688 0.9010
-19.9468 16.5513 -2.5675 0.9011
-20.0386 16.4193 -2.5662 0.9011
-20.4839 15.7514 -2.5596 0.9013
-20.5701 15.6163 -2.5583 0.9014
-20.7399 15.3445 -2.5556 0.9015
-20.8234 15.2079 -2.5543 0.9015
-20.9060 15.0709 -2.5529 0.9016
-21.1480 14.6569 -2.5488 0.9017
-21.2268 14.5180 -2.5474 0.9018
-21.3046 14.3787 -2.5461 0.9018
-21.3815 14.2389 -2.5447 0.9019
-21.5325 13.9581 -2.5419 0.9020
-21.6065 13.8171 -2.5405 0.9020
-21.6796 13.6757 -2.5391 0.9021
-21.9624 13.1061 -2.5335 0.9023
-22.0306 12.9628 -2.5321 0.9024
-22.2941 12.3859 -2.5263 0.9026
-22.3576 12.2408 -2.5249 0.9026
-22.4200 12.0954 -2.5235 0.9027
-22.6017 11.6573 -2.5191 0.9028
-22.7179 11.3638 -2.5162 0.9029
-22.7745 11.2165 -2.5148 0.9030
-22.8848 10.9213 -2.5118 0.9031
-23.0430 10.4765 -2.5074 0.9033
-23.2401 9.8799 -2.5015 0.9035
-23.2868 9.7303 -2.5000 0.9035
-23.3327 9.5803 -2.4985 0.9036
-23.4215 9.2799 -2.4956 0.9037
-23.5063 8.9788 -2.4926 0.9038
-23.5872 8.6769 -2.4896 0.9039
-23.6261 8.5257 -2.4881 0.9040
-23.6641 8.3744 -2.4866 0.9040
-23.7011 8.2229 -2.4851 0.9041
-23.8714 7.4635 -2.4775 0.9044
-23.9024 7.3113 -2.4760 0.9044
-23.9326 7.1590 -2.4745 0.9045
-23.9899 6.8540 -2.4715 0.9046
-24.0433 6.5487 -2.4684 0.9047
-24.1384 5.9374 -2.4624 0.9049
-24.1994 5.4784 -2.4578 0.9051
-24.2179 5.3253 -2.4563 0.9051
-24.2518 5.0192 -2.4532 0.9052
-24.3080 4.4068 -2.4472 0.9055
-24.3304 4.1007 -2.4441 0.9056
-24.3401 3.9477 -2.4426 0.9056
-24.3489 3.7947 -2.4411 0.9057
-24.3744 3.1834 -2.4350 0.9059
-24.3815 2.8781 -2.4319 0.9060
-24.3835 2.7256 -2.4304 0.9061
-24.3847 2.5731 -2.4289 0.9061
-24.3849 2.4207 -2.4274 0.9062
-24.3799 1.9642 -2.4228 0.9064
-24.3528 1.2058 -2.4153 0.9066
-24.3446 1.0545 -2.4138 0.9067
-24.3144 0.6016 -2.4093 0.9069
-24.2897 0.3004 -2.4063 0.9070
-22.5378 -0.1394 -2.4017 0.9133
-22.5235 -0.2786 -2.4003 0.9134
-22.5083 -0.4176 -2.3989 0.9134
-22.4923 -0.5565 -2.3975 0.9135
-22.4755 -0.6952 -2.3962 0.9135
-22.4393 -0.9720 -2.3934 0.9136
-22.4200 -1.1101 -2.3920 0.9137
-22.3787 -1.3857 -2.3893 0.9138
-22.3569 -1.5232 -2.3879 0.9138
-22.2086 -2.3435 -2.3797 0.9141
-22.1813 -2.4796 -2.3784 0.9141
-22.1528 -2.6150 -2.3770 0.9142
-22.0312 -3.1550 -2.3716 0.9144
-21.9988 -3.2893 -2.3703 0.9144
-21.9656 -3.4233 -2.3689 0.9145
-21.9317 -3.5571 -2.3676 0.9145
-21.8969 -3.6906 -2.3663 0.9145
-21.8614 -3.8238 -2.3649 0.9146
-21.8251 -3.9567 -2.3636 0.9146
-21.7880 -4.0893 -2.3623 0.9147
-21.7501 -4.2216 -2.3610 0.9147
-21.5909 -4.7477 -2.3557 0.9149
-21.5492 -4.8784 -2.3544 0.9150
-21.5066 -5.0088 -2.3531 0.9150
-21.4634 -5.1389 -2.3518 0.9150
-21.4194 -5.2686 -2.3505 0.9151
-21.3746 -5.3980 -2.3492 0.9151
-21.3291 -5.5270 -2.3479 0.9152
-21.2829 -5.6557 -2.3466 0.9152
-21.1881 -5.9121 -2.3441 0.9153
-21.0904 -6.1670 -2.3415 0.9154
-20.8862 -6.6723 -2.3365 0.9156
-20.8334 -6.7977 -2.3352 0.9156
-20.7798 -6.9227 -2.3340 0.9157
-20.6706 -7.1715 -2.3315 0.9157
-20.5013 -7.5417 -2.3278 0.9159
-20.3850 -7.7865 -2.3253 0.9160
-20.3258 -7.9083 -2.3241 0.9160
-20.2659 -8.0296 -2.3229 0.9160
-20.1441 -8.2711 -2.3205 0.9161
-20.0195 -8.5108 -2.3181 0.9162
-19.9562 -8.6300 -2.3169 0.9163
-19.8922 -8.7487 -2.3157 0.9163
-19.8276 -8.8670 -2.3145 0.9163
-19.6963 -9.1023 -2.3121 0.9164
-19.6297 -9.2193 -2.3110 0.9165
-19.3567 -9.6825 -2.3063 0.9166
-19.2163 -9.9113 -2.3040 0.9167
-19.0734 -10.1382 -2.3018 0.9168
-19.0010 -10.2509 -2.3006 0.9168
-18.8544 -10.4749 -2.2984 0.9169
-18.7801 -10.5862 -2.2973 0.9169
-18.7052 -10.6969 -2.2962 0.9170
-18.5536 -10.9169 -2.2939 0.9170
-18.4769 -11.0262 -2.2929 0.9171
-18.3217 -11.2431 -2.2907 0.9172
-18.2432 -11.3509 -2.2896 0.9172
-18.1641 -11.4581 -2.2885 0.9172
-18.0042 -11.6710 -2.2864 0.9173
-17.9233 -11.7766 -2.2853 0.9173
-17.7600 -11.9863 -2.2832 0.9174
-17.6774 -12.0904 -2.2822 0.9175
-16.9092 -13.0026 -2.2730 0.9178
-16.7325 -13.1993 -2.2710 0.9178
-16.5537 -13.3937 -2.2691 0.9179
-16.4635 -13.4900 -2.2681 0.9179
-16.3728 -13.5858 -2.2671 0.9180
-16.1899 -13.7756 -2.2652 0.9180
-16.0977 -13.8698 -2.2643 0.9181
-16.0050 -13.9632 -2.2633 0.9181
-15.8180 -14.1484 -2.2615 0.9182
-15.7237 -14.2401 -2.2605 0.9182
-15.6290 -14.3312 -2.2596 0.9182
-15.5338 -14.4218 -2.2587 0.9183
-15.4381 -14.5118 -2.2578 0.9183
-15.3420 -14.6011 -2.2569 0.9183
-15.2454 -14.6899 -2.2560 0.9184
-14.9526 -14.9526 -2.2534 0.9185
-14.6557 -15.2099 -2.2508 0.9185
-14.4556 -15.3784 -2.2491 0.9186
-14.3548 -15.4617 -2.2482 0.9186
-14.2537 -15.5444 -2.2474 0.9187
-14.0500 -15.7079 -2.2457 0.9187
-13.8446 -15.8690 -2.2441 0.9188
-13.6375 -16.0276 -2.2425 0.9188
-13.4288 -16.1836 -2.2409 0.9189
-13.2184 -16.3372 -2.2394 0.9189
-13.1126 -16.4130 -2.2386 0.9190
-12.8999 -16.5627 -2.2371 0.9190
-12.5779 -16.7824 -2.2349 0.9191
-12.4698 -16.8544 -2.2341 0.9191
-12.3613 -16.9257 -2.2334 0.9191
-11.7029 -17.3400 -2.2292 0.9193
-11.5919 -17.4067 -2.2285 0.9193
-11.4771 -17.4675 -2.2272 0.9194
-11.3470 -17.5044 -2.2229 0.9195
-11.2164 -17.5397 -2.2185 0.9197
-10.9551 -17.6071 -2.2098 0.9200
-10.4384 -17.7404 -2.1934 0.9205
-10.3100 -17.7727 -2.1895 0.9207
-10.0521 -17.8327 -2.1814 0.9210
-9.9238 -17.8624 -2.1775 0.9211
-9.7960 -17.8921 -2.1737 0.9212
-9.4150 -17.9804 -2.1628 0.9216
-9.2878 -18.0075 -2.1591 0.9217
-8.9075 -18.0861 -2.1483 0.9221
-8.6560 -18.1380 -2.1416 0.9223
-8.5308 -18.1638 -2.1384 0.9224
-8.2800 -18.2119 -2.1318 0.9227
-8.1546 -18.2346 -2.1285 0.9228
-8.0296 -18.2573 -2.1254 0.9229
-7.9050 -18.2799 -2.1223 0.9230
-7.7808 -18.3024 -2.1192 0.9231
-7.6568 -18.3248 -2.1163 0.9232
-7.2854 -18.3876 -2.1076 0.9235
-7.1617 -18.4069 -2.1047 0.9236
-6.9152 -18.4454 -2.0991 0.9238
-6.7925 -18.4646 -2.0965 0.9239
-6.5478 -18.5027 -2.0915 0.9241
-6.4254 -18.5200 -2.0889 0.9242
-5.9368 -18.5841 -2.0789 0.9245
-5.4538 -18.6515 -2.0707 0.9248
-5.3330 -18.6660 -2.0686 0.9249
-5.2123 -18.6803 -2.0666 0.9250
-4.8543 -18.7331 -2.0621 0.9251
-4.7377 -18.7602 -2.0619 0.9251
-4.5041 -18.8123 -2.0613 0.9251
-4.1528 -18.8856 -2.0605 0.9252
-4.0355 -18.9087 -2.0603 0.9252
-3.8025 -18.9635 -2.0610 0.9251
-3.5650 -18.9944 -2.0594 0.9252
-3.4471 -19.0141 -2.0592 0.9252
-3.2110 -19.0516 -2.0588 0.9252
-3.0929 -19.0693 -2.0586 0.9252
-2.8563 -19.1028 -2.0582 0.9252
-2.7378 -19.1185 -2.0581 0.9252
-2.6194 -19.1335 -2.0579 0.9253
-2.0259 -19.1987 -2.0572 0.9253
-1.9070 -19.2097 -2.0571 0.9253
-1.7880 -19.2200 -2.0569 0.9253
-1.6691 -19.2297 -2.0568 0.9253
-1.5500 -19.2387 -2.0567 0.9253
-1.0735 -19.2679 -2.0564 0.9253
-0.9543 -19.2735 -2.0563 0.9253
-0.8351 -19.2784 -2.0563 0.9253
-0.7158 -19.2827 -2.0562 0.9253
-0.3579 -19.2914 -2.0561 0.9253
-0.1193 -19.2939 -2.0560 0.9253
-0.0000 -19.2941 -2.0560 0.9253
0.1193 -19.2937 -2.0560 0.9253
0.3579 -19.2907 -2.0560 0.9253
0.7158 -19.2812 -2.0560 0.9253
0.8350 -19.2768 -2.0561 0.9253
0.9542 -19.2716 -2.0561 0.9253
1.0734 -19.2657 -2.0562 0.9253
1.3117 -19.2520 -2.0563 0.9253
1.5498 -19.2356 -2.0564 0.9253
1.7877 -19.2164 -2.0566 0.9253
2.0254 -19.1946 -2.0568 0.9253
2.1442 -19.1827 -2.0569 0.9253
2.2629 -19.1701 -2.0570 0.9253
2.5001 -19.1429 -2.0572 0.9253
2.6187 -19.1283 -2.0573 0.9253
2.8554 -19.0971 -2.0576 0.9253
3.0919 -19.0632 -2.0579 0.9253
3.4458 -19.0073 -2.0585 0.9252
3.5636 -18.9874 -2.0586 0.9252
3.6813 -18.9667 -2.0588 0.9252
4.0338 -18.9008 -2.0594 0.9252
4.1510 -18.8775 -2.0597 0.9252
4.2682 -18.8535 -2.0599 0.9252
4.5020 -18.8036 -2.0604 0.9252
5.2005 -18.6378 -2.0619 0.9251
5.4321 -18.5772 -2.0625 0.9251
5.5477 -18.5460 -2.0628 0.9251
5.7783 -18.4815 -2.0634 0.9251
5.8934 -18.4483 -2.0637 0.9251
6.1231 -18.3797 -2.0644 0.9250
6.2377 -18.3445 -2.0647 0.9250
6.4662 -18.2721 -2.0654 0.9250
6.5803 -18.2349 -2.0658 0.9250
6.8183 -18.1868 -2.0697 0.9248
6.9376 -18.1626 -2.0718 0.9248
7.1766 -18.1129 -2.0761 0.9246
7.5342 -18.0313 -2.0824 0.9244
7.6543 -18.0049 -2.0848 0.9243
7.8957 -17.9528 -2.0899 0.9241
8.0169 -17.9266 -2.0926 0.9240
8.1379 -17.8993 -2.0952 0.9240
8.6217 -17.7825 -2.1059 0.9236
8.0933 -16.1796 -1.9278 0.9298
8.0287 -15.5663 -1.8664 0.9320
8.2166 -15.4582 -1.8655 0.9320
8.3295 -15.4396 -1.8694 0.9319
8.4305 -15.3980 -1.8707 0.9318
8.6455 -15.3374 -1.8761 0.9316
9.1617 -15.3525 -1.9051 0.9306
9.6486 -15.2955 -1.9271 0.9298
9.7614 -15.2644 -1.9307 0.9297
9.8747 -15.2331 -1.9345 0.9296
10.1027 -15.1704 -1.9422 0.9293
10.2171 -15.1385 -1.9462 0.9292
10.5267 -14.9898 -1.9519 0.9290
10.5964 -14.8924 -1.9477 0.9291
10.7649 -14.7398 -1.9450 0.9292
11.2333 -14.6083 -1.9637 0.9286
11.3858 -14.6187 -1.9745 0.9282
11.5128 -14.5946 -1.9809 0.9280
13.0962 -16.3921 -2.2358 0.9191
13.2015 -16.3163 -2.2365 0.9190
13.6196 -16.0065 -2.2395 0.9189
13.7231 -15.9274 -2.2403 0.9189
14.4354 -15.3569 -2.2459 0.9187
15.0288 -14.8440 -2.2510 0.9185
15.1260 -14.7564 -2.2518 0.9185
15.5105 -14.4002 -2.2553 0.9184
15.6998 -14.2185 -2.2571 0.9183
15.7938 -14.1268 -2.2580 0.9183
15.8872 -14.0345 -2.2589 0.9183
15.9802 -13.9416 -2.2598 0.9182
16.1646 -13.7541 -2.2617 0.9182
16.2560 -13.6595 -2.2626 0.9181
16.4374 -13.4686 -2.2645 0.9181
16.5273 -13.3723 -2.2654 0.9180
16.8816 -12.9814 -2.2693 0.9179
17.2273 -12.5816 -2.2732 0.9178
17.3124 -12.4803 -2.2742 0.9177
17.3970 -12.3785 -2.2752 0.9177
17.4809 -12.2761 -2.2762 0.9177
17.6472 -12.0698 -2.2783 0.9176
17.7295 -11.9658 -2.2793 0.9176
17.8112 -11.8613 -2.2803 0.9175
17.9729 -11.6507 -2.2824 0.9174
18.5204 -10.8974 -2.2898 0.9172
18.5962 -10.7877 -2.2909 0.9172
18.9662 -10.2321 -2.2964 0.9170
19.0383 -10.1195 -2.2975 0.9169
19.1098 -10.0064 -2.2986 0.9169
19.1807 -9.8929 -2.2998 0.9168
19.4578 -9.4340 -2.3043 0.9167
19.5255 -9.3181 -2.3054 0.9166
19.6589 -9.0850 -2.3077 0.9166
19.7896 -8.8501 -2.3101 0.9165
19.8540 -8.7319 -2.3112 0.9164
19.9177 -8.6134 -2.3124 0.9164
19.9808 -8.4943 -2.3136 0.9164
20.1049 -8.2550 -2.3160 0.9163
20.4607 -7.5268 -2.3232 0.9160
20.5738 -7.2808 -2.3256 0.9160
20.6293 -7.1572 -2.3268 0.9159
20.7382 -6.9088 -2.3293 0.9158
20.9977 -6.2811 -2.3355 0.9156
21.0965 -6.0274 -2.3380 0.9155
21.1448 -5.9000 -2.3393 0.9155
21.1923 -5.7722 -2.3405 0.9154
21.3751 -5.2577 -2.3456 0.9153
21.4620 -4.9984 -2.3482 0.9152
21.5867 -4.6070 -2.3521 0.9150
21.6267 -4.4759 -2.3534 0.9150
21.6659 -4.3445 -2.3547 0.9149
21.7791 -3.9484 -2.3586 0.9148
21.8507 -3.6828 -2.3613 0.9147
21.8853 -3.5496 -2.3626 0.9147
21.9191 -3.4161 -2.3639 0.9146
22.0156 -3.0140 -2.3679 0.9145
22.0464 -2.8794 -2.3692 0.9144
22.1053 -2.6094 -2.3719 0.9144
22.1336 -2.4741 -2.3733 0.9143
22.2627 -1.7937 -2.3800 0.9141
22.3304 -1.3828 -2.3841 0.9139
22.3513 -1.2454 -2.3855 0.9139
22.3714 -1.1077 -2.3868 0.9138
22.3907 -0.9699 -2.3882 0.9138
22.4745 -0.2780 -2.3951 0.9136
22.4887 -0.1391 -2.3965 0.9135
22.5022 -0.0000 -2.3978 0.9135
22.5264 0.2786 -2.4006 0.9134
22.5373 0.4182 -2.4020 0.9133
22.5564 0.6977 -2.4048 0.9132
22.5648 0.8376 -2.4062 0.9132
22.5788 1.1179 -2.4090 0.9131
22.5846 1.2583 -2.4104 0.9130
22.5966 1.6800 -2.4146 0.9129
22.6003 1.9616 -2.4174 0.9128
22.6008 2.1025 -2.4188 0.9127
22.6005 2.2436 -2.4202 0.9127
22.5993 2.3846 -2.4216 0.9126
22.5973 2.5259 -2.4230 0.9126
22.5943 2.6671 -2.4244 0.9125
22.5905 2.8084 -2.4258 0.9125
22.5738 3.2326 -2.4300 0.9123
22.5582 3.5157 -2.4328 0.9123
22.5491 3.6572 -2.4342 0.9122
22.5390 3.7988 -2.4357 0.9122
22.5038 4.2236 -2.4399 0.9120
22.4271 4.9315 -2.4469 0.9118
22.3902 5.2145 -2.4498 0.9117
22.3704 5.3560 -2.4512 0.9116
22.3496 5.4974 -2.4526 0.9116
22.2822 5.9213 -2.4568 0.9114
22.2579 6.0624 -2.4582 0.9114
22.2326 6.2035 -2.4596 0.9113
22.2066 6.3445 -2.4610 0.9113
22.1796 6.4854 -2.4624 0.9112
21.9987 7.3287 -2.4709 0.9109
21.9311 7.6088 -2.4737 0.9108
21.8960 7.7487 -2.4751 0.9108
21.8600 7.8884 -2.4764 0.9108
21.8230 8.0279 -2.4778 0.9107
14.7291 5.6262 -1.6802 0.9385
13.6767 5.3213 -1.5638 0.9427
10.9391 4.4127 -1.2569 0.9537
9.3510 3.9072 -1.0799 0.9601
8.7332 3.7127 -1.0112 0.9625
8.1781 3.5366 -0.9495 0.9648
6.8372 3.1085 -0.8003 0.9702
6.4779 2.9937 -0.7604 0.9717
6.1528 2.8897 -0.7244 0.9730
5.8571 2.7952 -0.6916 0.9742
5.4749 2.6964 -0.6503 0.9757
5.4516 2.7693 -0.6516 0.9757
5.4164 2.8790 -0.6536 0.9756
5.4047 2.9158 -0.6544 0.9756
5.3810 2.9896 -0.6560 0.9755
5.3692 3.0266 -0.6568 0.9755
5.3573 3.0637 -0.6576 0.9755
5.3454 3.1009 -0.6585 0.9754
5.2974 3.2508 -0.6623 0.9753
5.2853 3.2885 -0.6633 0.9753
5.2488 3.4025 -0.6665 0.9752
5.2242 3.4791 -0.6688 0.9751
5.2119 3.5176 -0.6700 0.9750
5.1995 3.5562 -0.6713 0.9750
5.1746 3.6339 -0.6738 0.9749
5.1621 3.6730 -0.6751 0.9748
5.1369 3.7516 -0.6778 0.9747
5.1242 3.7912 -0.6792 0.9747
5.0987 3.8708 -0.6822 0.9746
5.0600 3.9916 -0.6868 0.9744
5.0208 4.1140 -0.6917 0.9742
4.9541 4.3221 -0.7006 0.9739
4.9270 4.4069 -0.7044 0.9738
4.8995 4.4927 -0.7084 0.9736
4.8577 4.6231 -0.7146 0.9734
4.8436 4.6671 -0.7168 0.9733
4.8151 4.7559 -0.7212 0.9731
4.7571 4.9370 -0.7306 0.9728
4.7424 4.9830 -0.7330 0.9727
4.7126 5.0760 -0.7381 0.9725
4.6975 5.1229 -0.7407 0.9724
4.6517 5.2659 -0.7487 0.9721
4.6362 5.3142 -0.7515 0.9720
4.6206 5.3629 -0.7543 0.9719
4.6049 5.4120 -0.7572 0.9718
4.5891 5.4614 -0.7602 0.9717
4.5731 5.5113 -0.7631 0.9716
4.5570 5.5615 -0.7662 0.9715
6.5419 8.5075 -1.1436 0.9577
6.5275 8.7096 -1.1598 0.9572
6.4788 8.8711 -1.1706 0.9568
6.4541 8.9531 -1.1761 0.9566
6.4292 9.0358 -1.1817 0.9564
6.4041 9.1193 -1.1874 0.9562
6.3714 9.3156 -1.2027 0.9556
6.2950 9.3271 -1.1991 0.9557
8.2216 12.6831 -1.6106 0.9410
8.1860 12.8008 -1.6191 0.9407
8.0394 13.2846 -1.6547 0.9394
8.0018 13.4089 -1.6639 0.9391
7.9253 13.6619 -1.6830 0.9384
7.8863 13.7904 -1.6928 0.9381
7.8467 13.9204 -1.7028 0.9377
6.9317 12.4768 -1.5209 0.9442
6.5115 12.0697 -1.4614 0.9463
6.2512 12.1202 -1.4532 0.9466
6.1231 12.0541 -1.4407 0.9471
5.9203 12.0207 -1.4279 0.9475
5.6784 11.8987 -1.4049 0.9483
5.1702 11.9559 -1.3880 0.9490
5.1504 12.1150 -1.4028 0.9484
5.0162 12.2169 -1.4073 0.9483
4.9488 12.2682 -1.4097 0.9482
4.8660 12.2814 -1.4077 0.9482
4.8133 12.3711 -1.4145 0.9480
4.7452 12.4229 -1.4171 0.9479
4.6768 12.4748 -1.4197 0.9478
4.0909 11.5599 -1.3067 0.9519
3.9708 11.4451 -1.2909 0.9524
3.8326 11.2715 -1.2686 0.9532
3.5586 11.1395 -1.2461 0.9540
3.2344 11.0615 -1.2281 0.9547
3.1573 11.0510 -1.2247 0.9548
3.0806 11.0406 -1.2214 0.9549
3.0043 11.0302 -1.2182 0.9551
2.8061 11.1113 -1.2212 0.9549
2.7362 11.1239 -1.2207 0.9550
2.5268 11.1618 -1.2195 0.9550
2.2553 11.2472 -1.2224 0.9549
2.1898 11.2823 -1.2247 0.9548
2.0598 11.3618 -1.2305 0.9546
1.9985 11.4257 -1.2360 0.9544
1.9366 11.4903 -1.2417 0.9542
1.8742 11.5554 -1.2474 0.9540
1.8111 11.6212 -1.2533 0.9538
1.7607 11.7759 -1.2688 0.9532
1.3801 10.0814 -1.0843 0.9599
1.3367 10.2346 -1.0999 0.9593
1.2042 10.2009 -1.0946 0.9595
1.0124 10.8830 -1.1647 0.9570
0.9019 11.1941 -1.1967 0.9558
0.8307 11.1730 -1.1939 0.9559
0.7598 11.1520 -1.1911 0.9560
0.4795 11.0689 -1.1806 0.9564
0.3411 11.0279 -1.1757 0.9566
0.2039 10.9872 -1.1710 0.9568
-0.0000 9.8823 -1.0531 0.9610
-0.0610 9.8656 -1.0513 0.9611
-0.2981 9.6362 -1.0273 0.9620
-0.3632 9.7828 -1.0432 0.9614
-0.7276 10.6789 -1.1406 0.9579
-0.8660 10.7490 -1.1491 0.9575
-1.0655 10.7332 -1.1494 0.9575
-1.1983 10.7204 -1.1495 0.9575
-1.2646 10.7133 -1.1495 0.9575
-1.3972 10.6978 -1.1496 0.9575
-1.4634 10.6893 -1.1497 0.9575
-1.5295 10.6804 -1.1497 0.9575
-1.6616 10.6613 -1.1498 0.9575
-1.7275 10.6511 -1.1498 0.9575
-1.7934 10.6404 -1.1498 0.9575
-1.8592 10.6292 -1.1499 0.9575
-1.7047 9.4033 -1.0184 0.9623
-1.7617 9.3866 -1.0177 0.9623
-1.8186 9.3697 -1.0171 0.9623
-1.9322 9.3360 -1.0159 0.9624
-2.4024 10.9254 -1.1920 0.9560
-2.4688 10.9054 -1.1915 0.9560
-2.6677 10.8456 -1.1902 0.9561
-2.7340 10.8259 -1.1898 0.9561
-2.8002 10.8061 -1.1895 0.9561
-3.0376 10.6321 -1.1783 0.9565
-2.9965 10.2478 -1.1377 0.9580
-3.1140 9.7479 -1.0905 0.9597
-3.1555 9.6708 -1.0840 0.9599
-3.2769 9.4450 -1.0653 0.9606
-3.3217 9.3863 -1.0610 0.9607
-3.4669 9.2474 -1.0524 0.9611
-3.5624 9.1560 -1.0469 0.9612
-3.6097 9.1106 -1.0443 0.9613
-3.7155 9.0491 -1.0424 0.9614
-3.7701 9.0227 -1.0420 0.9614
-3.8791 8.9701 -1.0414 0.9614
-3.9335 8.9438 -1.0412 0.9615
-3.9880 8.9176 -1.0410 0.9615
-4.0137 8.8283 -1.0334 0.9617
-4.0956 8.8623 -1.0403 0.9615
-4.1662 8.8708 -1.0443 0.9613
-4.2293 8.8622 -1.0464 0.9613
-4.3561 8.8449 -1.0506 0.9611
-4.4200 8.8362 -1.0528 0.9610
-4.4840 8.8274 -1.0551 0.9610
-4.6308 8.8437 -1.0638 0.9606
-4.7862 8.8717 -1.0742 0.9603
-4.8650 8.8859 -1.0795 0.9601
-4.9447 8.9002 -1.0850 0.9599
-5.0393 8.9398 -1.0936 0.9596
-5.1447 8.9964 -1.1043 0.9592
-5.3620 9.1129 -1.1267 0.9584
-12.0016 19.5577 -2.4452 0.9118
-11.3269 17.9562 -2.2623 0.9181
-12.3502 19.3126 -2.4428 0.9119
-11.9085 18.3706 -2.3329 0.9157
-11.1657 16.9936 -2.1668 0.9215
-12.8065 18.9752 -2.4394 0.9120
-12.9191 18.8890 -2.4386 0.9121
-13.0311 18.8022 -2.4377 0.9121
-13.1424 18.7145 -2.4369 0.9121
-13.4727 18.4475 -2.4342 0.9122
-13.5815 18.3570 -2.4333 0.9122
-13.7972 18.1740 -2.4315 0.9123
-13.9041 18.0815 -2.4306 0.9123
-14.0103 17.9884 -2.4297 0.9124
-6.6538 8.4350 -1.1448 0.9577
-6.6793 8.3605 -1.1403 0.9579
-14.6326 17.4142 -2.4238 0.9126
-14.4185 16.9455 -2.3709 0.9144
-14.1992 16.2755 -2.3016 0.9168
-14.0043 15.8531 -2.2541 0.9184
-14.0621 15.7216 -2.2477 0.9187
-13.8972 15.3451 -2.2061 0.9201
-14.4135 15.3337 -2.2425 0.9188
-14.5953 15.3359 -2.2560 0.9184
-15.8003 16.1960 -2.4111 0.9130
-16.0772 15.8795 -2.4080 0.9131
-16.1680 15.7729 -2.4069 0.9131
-16.6111 15.2317 -2.4016 0.9133
-17.9208 16.0292 -2.5621 0.9078
-18.1011 15.7919 -2.5598 0.9079
