ply
format ascii 1.0
element vertex 1595
property float32 x
property float32 y
property float32 z
property float32 I
end_header
-7.0643 -1.2356 -2.3883 0.9702
-7.0458 -1.3224 -2.3874 0.9702
-7.0057 -1.4952 -2.3856 0.9703
-6.9614 -1.6667 -2.3838 0.9703
-6.9377 -1.7520 -2.3829 0.9703
-6.9254 -1.7946 -2.3825 0.9703
-6.9129 -1.8371 -2.3821 0.9703
-6.9001 -1.8794 -2.3816 0.9703
-6.8738 -1.9639 -2.3807 0.9703
-6.8603 -2.0060 -2.3803 0.9703
-6.8465 -2.0480 -2.3799 0.9703
-6.8324 -2.0899 -2.3794 0.9703
-6.8182 -2.1317 -2.3790 0.9703
-6.8036 -2.1735 -2.3786 0.9703
-6.7888 -2.2151 -2.3781 0.9703
-6.7737 -2.2567 -2.3777 0.9703
-6.7271 -2.3806 -2.3764 0.9704
-6.7110 -2.4217 -2.3760 0.9704
-6.6613 -2.5445 -2.3747 0.9704
-6.6443 -2.5852 -2.3743 0.9704
-6.6095 -2.6662 -2.3735 0.9704
-6.5369 -2.8269 -2.3718 0.9704
-6.4800 -2.9461 -2.3706 0.9704
-6.4605 -2.9856 -2.3701 0.9704
-6.4408 -3.0250 -2.3697 0.9704
-6.4209 -3.0642 -2.3693 0.9705
-6.3597 -3.1812 -2.3681 0.9705
-6.2963 -3.2969 -2.3669 0.9705
-6.2748 -3.3353 -2.3665 0.9705
-6.2530 -3.3734 -2.3661 0.9705
-6.2310 -3.4115 -2.3657 0.9705
-6.2087 -3.4494 -2.3653 0.9705
-6.1406 -3.5622 -2.3641 0.9705
-6.1175 -3.5995 -2.3638 0.9705
-6.0941 -3.6366 -2.3634 0.9705
-5.9243 -3.8926 -2.3607 0.9706
-5.8992 -3.9285 -2.3603 0.9706
-5.8739 -3.9643 -2.3600 0.9706
-5.8225 -4.0354 -2.3592 0.9706
-5.7440 -4.1408 -2.3581 0.9706
-5.6364 -4.2790 -2.3567 0.9706
-5.6090 -4.3131 -2.3563 0.9706
-5.4973 -4.4479 -2.3549 0.9706
-5.4689 -4.4811 -2.3546 0.9706
-5.4403 -4.5142 -2.3542 0.9706
-5.3825 -4.5798 -2.3536 0.9706
-5.3532 -4.6123 -2.3532 0.9706
-5.3239 -4.6447 -2.3529 0.9707
-5.2943 -4.6769 -2.3525 0.9707
-5.2645 -4.7088 -2.3522 0.9707
-5.2044 -4.7722 -2.3515 0.9707
-5.1741 -4.8037 -2.3512 0.9707
-5.1436 -4.8349 -2.3509 0.9707
-5.0820 -4.8968 -2.3502 0.9707
-5.0197 -4.9580 -2.3496 0.9707
-4.9882 -4.9882 -2.3493 0.9707
-4.9248 -5.0482 -2.3487 0.9707
-4.8607 -5.1074 -2.3480 0.9707
-4.7960 -5.1658 -2.3474 0.9707
-4.7633 -5.1947 -2.3471 0.9707
-4.7305 -5.2233 -2.3468 0.9707
-4.6975 -5.2518 -2.3465 0.9707
-4.5975 -5.3361 -2.3457 0.9707
-4.5639 -5.3637 -2.3454 0.9707
-4.5301 -5.3912 -2.3451 0.9707
-4.4620 -5.4455 -2.3445 0.9708
-4.4277 -5.4723 -2.3442 0.9708
-4.3239 -5.5516 -2.3434 0.9708
-4.2187 -5.6289 -2.3426 0.9708
-4.1833 -5.6542 -2.3423 0.9708
-4.1478 -5.6793 -2.3421 0.9708
-4.0763 -5.7289 -2.3415 0.9708
-3.9681 -5.8017 -2.3408 0.9708
-3.9317 -5.8255 -2.3405 0.9708
-3.7106 -5.9636 -2.3391 0.9708
-3.6358 -6.0079 -2.3386 0.9708
-3.5605 -6.0512 -2.3382 0.9708
-3.4847 -6.0937 -2.3377 0.9708
-3.2932 -6.1956 -2.3367 0.9709
-3.2545 -6.2153 -2.3364 0.9709
-3.1768 -6.2540 -2.3360 0.9709
-3.0987 -6.2917 -2.3356 0.9709
-3.0595 -6.3103 -2.3354 0.9709
-3.0202 -6.3286 -2.3353 0.9709
-2.8219 -6.4163 -2.3343 0.9709
-2.7820 -6.4332 -2.3341 0.9709
-2.7420 -6.4498 -2.3340 0.9709
-2.7018 -6.4661 -2.3338 0.9709
-2.6213 -6.4981 -2.3335 0.9709
-2.5808 -6.5137 -2.3333 0.9709
-2.5403 -6.5291 -2.3331 0.9709
-2.4590 -6.5591 -2.3328 0.9709
-2.4183 -6.5738 -2.3327 0.9709
-2.3365 -6.6023 -2.3324 0.9709
-2.2543 -6.6299 -2.3321 0.9709
-2.2132 -6.6433 -2.3319 0.9709
-2.1719 -6.6565 -2.3318 0.9709
-2.1306 -6.6694 -2.3316 0.9709
-2.0477 -6.6945 -2.3314 0.9709
-2.0061 -6.7066 -2.3312 0.9709
-1.9645 -6.7185 -2.3311 0.9709
-1.8811 -6.7416 -2.3309 0.9709
-1.8393 -6.7528 -2.3308 0.9709
-1.7134 -6.7847 -2.3304 0.9709
-1.6714 -6.7949 -2.3303 0.9709
-1.6292 -6.8048 -2.3302 0.9709
-1.5871 -6.8144 -2.3301 0.9709
-1.5448 -6.8238 -2.3300 0.9709
-1.5025 -6.8329 -2.3299 0.9709
-1.4178 -6.8504 -2.3297 0.9709
-1.3753 -6.8588 -2.3296 0.9709
-1.3328 -6.8669 -2.3295 0.9709
-1.2477 -6.8824 -2.3294 0.9709
-1.2051 -6.8897 -2.3293 0.9709
-1.0770 -6.9102 -2.3291 0.9709
-0.9914 -6.9226 -2.3289 0.9709
-0.9056 -6.9340 -2.3288 0.9709
-0.8627 -6.9393 -2.3287 0.9709
-0.8197 -6.9443 -2.3287 0.9709
-0.7338 -6.9536 -2.3286 0.9710
-0.6907 -6.9579 -2.3285 0.9710
-0.6046 -6.9656 -2.3284 0.9710
-0.4752 -6.9753 -2.3283 0.9710
-0.4321 -6.9780 -2.3283 0.9710
-0.3026 -6.9846 -2.3282 0.9710
-0.2161 -6.9877 -2.3282 0.9710
-0.1297 -6.9897 -2.3282 0.9710
-0.0000 -6.9909 -2.3281 0.9710
0.0865 -6.9903 -2.3281 0.9710
0.2161 -6.9876 -2.3281 0.9710
0.3889 -6.9803 -2.3282 0.9710
0.4321 -6.9778 -2.3282 0.9710
0.4752 -6.9751 -2.3283 0.9710
0.6476 -6.9615 -2.3284 0.9710
0.7337 -6.9533 -2.3285 0.9710
0.8197 -6.9439 -2.3285 0.9710
0.8626 -6.9389 -2.3286 0.9710
0.9055 -6.9335 -2.3286 0.9710
0.9913 -6.9221 -2.3288 0.9709
1.0769 -6.9097 -2.3289 0.9709
1.2050 -6.8891 -2.3291 0.9709
1.2476 -6.8818 -2.3291 0.9709
1.3327 -6.8662 -2.3293 0.9709
1.4600 -6.8411 -2.3296 0.9709
1.5023 -6.8322 -2.3296 0.9709
1.5446 -6.8230 -2.3297 0.9709
1.6290 -6.8039 -2.3299 0.9709
1.6711 -6.7940 -2.3300 0.9709
1.7132 -6.7839 -2.3301 0.9709
1.7971 -6.7628 -2.3303 0.9709
1.8390 -6.7518 -2.3304 0.9709
1.8808 -6.7407 -2.3306 0.9709
1.9226 -6.7292 -2.3307 0.9709
1.9642 -6.7175 -2.3308 0.9709
2.0058 -6.7056 -2.3309 0.9709
2.0474 -6.6934 -2.3310 0.9709
2.0889 -6.6810 -2.3312 0.9709
2.1302 -6.6683 -2.3313 0.9709
2.1716 -6.6554 -2.3314 0.9709
2.2951 -6.6151 -2.3318 0.9709
2.3361 -6.6012 -2.3320 0.9709
2.4586 -6.5579 -2.3324 0.9709
2.4993 -6.5430 -2.3325 0.9709
2.5803 -6.5125 -2.3329 0.9709
2.6610 -6.4810 -2.3332 0.9709
2.7013 -6.4648 -2.3333 0.9709
2.8612 -6.3979 -2.3340 0.9709
2.9009 -6.3806 -2.3342 0.9709
2.9405 -6.3630 -2.3344 0.9709
2.9801 -6.3452 -2.3345 0.9709
3.0195 -6.3271 -2.3347 0.9709
3.0588 -6.3088 -2.3349 0.9709
3.0980 -6.2903 -2.3351 0.9709
3.2149 -6.2333 -2.3357 0.9709
3.4076 -6.1336 -2.3367 0.9709
3.4838 -6.0921 -2.3371 0.9708
3.5218 -6.0710 -2.3373 0.9708
3.5596 -6.0496 -2.3376 0.9708
3.6348 -6.0063 -2.3380 0.9708
3.6722 -5.9842 -2.3382 0.9708
3.7095 -5.9620 -2.3384 0.9708
3.7467 -5.9396 -2.3387 0.9708
3.7837 -5.9168 -2.3389 0.9708
3.8206 -5.8939 -2.3391 0.9708
3.8940 -5.8474 -2.3396 0.9708
3.9305 -5.8238 -2.3399 0.9708
3.9669 -5.8000 -2.3401 0.9708
4.0751 -5.7272 -2.3408 0.9708
4.3225 -5.5498 -2.3427 0.9708
4.4262 -5.4705 -2.3435 0.9708
4.4605 -5.4437 -2.3437 0.9708
4.4946 -5.4166 -2.3440 0.9708
4.5285 -5.3894 -2.3443 0.9708
4.5623 -5.3619 -2.3446 0.9708
4.7288 -5.2215 -2.3460 0.9707
4.7942 -5.1639 -2.3466 0.9707
4.8267 -5.1348 -2.3469 0.9707
4.8911 -5.0761 -2.3475 0.9707
4.9548 -5.0165 -2.3481 0.9707
5.0490 -4.9256 -2.3490 0.9707
5.0800 -4.8950 -2.3494 0.9707
5.2326 -4.7388 -2.3510 0.9707
5.2625 -4.7070 -2.3513 0.9707
5.2922 -4.6750 -2.3516 0.9707
5.3218 -4.6429 -2.3519 0.9707
5.4381 -4.5124 -2.3533 0.9706
5.4950 -4.4461 -2.3540 0.9706
5.5232 -4.4126 -2.3543 0.9706
5.5512 -4.3790 -2.3547 0.9706
5.6340 -4.2772 -2.3557 0.9706
5.6612 -4.2429 -2.3561 0.9706
5.6882 -4.2085 -2.3564 0.9706
5.7941 -4.0689 -2.3578 0.9706
5.8200 -4.0337 -2.3582 0.9706
5.8713 -3.9626 -2.3589 0.9706
5.9466 -3.8548 -2.3600 0.9706
6.0199 -3.7456 -2.3612 0.9706
6.0677 -3.6721 -2.3619 0.9705
6.0913 -3.6350 -2.3623 0.9705
6.1147 -3.5979 -2.3627 0.9705
6.1378 -3.5606 -2.3631 0.9705
6.1607 -3.5231 -2.3635 0.9705
6.1834 -3.4855 -2.3638 0.9705
6.2281 -3.4099 -2.3646 0.9705
6.2501 -3.3718 -2.3650 0.9705
6.2719 -3.3337 -2.3654 0.9705
6.3358 -3.2184 -2.3666 0.9705
6.3566 -3.1797 -2.3670 0.9705
6.3977 -3.1019 -2.3678 0.9705
6.4178 -3.0628 -2.3682 0.9705
6.4574 -2.9842 -2.3690 0.9705
6.4768 -2.9447 -2.3694 0.9704
6.4960 -2.9051 -2.3698 0.9704
6.5337 -2.8255 -2.3706 0.9704
6.5885 -2.7052 -2.3719 0.9704
6.6062 -2.6649 -2.3723 0.9704
6.6238 -2.6245 -2.3727 0.9704
6.6410 -2.5839 -2.3731 0.9704
6.6748 -2.5024 -2.3740 0.9704
6.7237 -2.3794 -2.3752 0.9704
6.7550 -2.2969 -2.3761 0.9704
6.7703 -2.2555 -2.3765 0.9704
6.8002 -2.1724 -2.3774 0.9704
6.8430 -2.0469 -2.3787 0.9703
6.8568 -2.0049 -2.3791 0.9703
6.8836 -1.9207 -2.3800 0.9703
6.9093 -1.8361 -2.3808 0.9703
6.9218 -1.7937 -2.3813 0.9703
6.9341 -1.7512 -2.3817 0.9703
6.9461 -1.7086 -2.3822 0.9703
6.9578 -1.6659 -2.3826 0.9703
7.0226 -1.4082 -2.3853 0.9703
7.0606 -1.2350 -2.3871 0.9702
7.0943 -1.0608 -2.3889 0.9702
7.1096 -0.9733 -2.3898 0.9702
7.1305 -0.8417 -2.3911 0.9702
7.1369 -0.7977 -2.3916 0.9702
7.1599 -0.6215 -2.3934 0.9702
7.1650 -0.5773 -2.3938 0.9701
7.1743 -0.4888 -2.3948 0.9701
7.1825 -0.4002 -2.3957 0.9701
7.2028 -0.0891 -2.3989 0.9701
7.2046 -0.0446 -2.3994 0.9701
7.2061 -0.0000 -2.3998 0.9701
7.2094 0.1784 -2.4017 0.9701
7.2084 0.3569 -2.4035 0.9700
7.2029 0.5355 -2.4054 0.9700
7.2008 0.5802 -2.4058 0.9700
7.1985 0.6248 -2.4063 0.9700
7.1958 0.6694 -2.4067 0.9700
7.1929 0.7140 -2.4072 0.9700
7.1898 0.7587 -2.4077 0.9700
7.1649 1.0260 -2.4104 0.9699
7.1544 1.1150 -2.4114 0.9699
7.1301 1.2926 -2.4132 0.9699
7.1162 1.3812 -2.4141 0.9699
7.1089 1.4255 -2.4146 0.9699
7.1013 1.4697 -2.4150 0.9699
7.0681 1.6461 -2.4169 0.9699
7.0499 1.7341 -2.4178 0.9699
7.0404 1.7780 -2.4182 0.9698
7.0305 1.8218 -2.4187 0.9698
7.0101 1.9094 -2.4196 0.9698
6.9995 1.9530 -2.4200 0.9698
6.9886 1.9967 -2.4205 0.9698
6.9774 2.0402 -2.4209 0.9698
6.9542 2.1272 -2.4218 0.9698
6.9422 2.1705 -2.4223 0.9698
6.9299 2.2138 -2.4227 0.9698
6.8781 2.3863 -2.4245 0.9698
6.8364 2.5149 -2.4259 0.9698
6.8220 2.5576 -2.4263 0.9698
6.8073 2.6002 -2.4268 0.9697
6.7923 2.6427 -2.4272 0.9697
6.7771 2.6852 -2.4276 0.9697
6.7616 2.7275 -2.4281 0.9697
5.8283 2.3931 -2.0982 0.9738
5.5262 2.3493 -1.9998 0.9750
5.1225 2.2908 -1.8687 0.9766
4.8815 2.2559 -1.7909 0.9776
4.5996 2.1602 -1.6923 0.9788
4.4946 2.1450 -1.6585 0.9792
4.3938 2.1303 -1.6262 0.9796
4.2968 2.1162 -1.5951 0.9800
4.2035 2.1026 -1.5652 0.9804
4.1135 2.0896 -1.5365 0.9807
4.0268 2.0769 -1.5089 0.9811
3.9432 2.0648 -1.4823 0.9814
3.7844 2.0417 -1.4320 0.9820
3.4308 1.9902 -1.3209 0.9834
3.3042 1.9718 -1.2814 0.9839
3.2437 1.9630 -1.2626 0.9841
3.1849 1.9545 -1.2444 0.9844
2.9147 1.9151 -1.1614 0.9854
2.8649 1.9079 -1.1463 0.9856
2.7691 1.8939 -1.1172 0.9860
2.7230 1.8872 -1.1033 0.9861
2.6780 1.8806 -1.0898 0.9863
2.6346 1.8746 -1.0768 0.9865
2.6313 1.8969 -1.0802 0.9864
2.6279 1.9193 -1.0837 0.9864
2.6212 1.9645 -1.0909 0.9863
2.6178 1.9874 -1.0946 0.9862
2.6144 2.0104 -1.0983 0.9862
2.6110 2.0336 -1.1021 0.9861
2.6040 2.0804 -1.1100 0.9860
2.6005 2.1041 -1.1140 0.9860
2.5970 2.1279 -1.1181 0.9859
2.5898 2.1761 -1.1265 0.9858
2.5789 2.2499 -1.1397 0.9857
2.5751 2.2748 -1.1443 0.9856
2.5638 2.3510 -1.1584 0.9854
2.5600 2.3768 -1.1633 0.9854
2.5561 2.4028 -1.1683 0.9853
2.5363 2.5363 -1.1945 0.9850
2.5281 2.5914 -1.2057 0.9849
2.5069 2.7340 -1.2353 0.9845
2.4982 2.7930 -1.2479 0.9843
2.4892 2.8532 -1.2610 0.9842
2.4754 2.9460 -1.2815 0.9839
2.4660 3.0096 -1.2957 0.9837
2.4563 3.0746 -1.3106 0.9835
2.4312 3.2439 -1.3500 0.9831
2.4207 3.3145 -1.3669 0.9828
2.4153 3.3505 -1.3755 0.9827
2.4044 3.4239 -1.3933 0.9825
2.3933 3.4992 -1.4118 0.9823
2.3875 3.5376 -1.4213 0.9822
2.3818 3.5765 -1.4310 0.9820
2.3699 3.6560 -1.4510 0.9818
2.3578 3.7378 -1.4717 0.9815
2.3324 3.9085 -1.5158 0.9810
2.3258 3.9528 -1.5274 0.9808
2.3124 4.0435 -1.5512 0.9806
2.2913 4.1850 -1.5889 0.9801
2.2841 4.2338 -1.6020 0.9799
2.2767 4.2833 -1.6154 0.9798
2.2616 4.3849 -1.6431 0.9794
2.2539 4.4370 -1.6573 0.9792
2.2460 4.4900 -1.6719 0.9791
2.2380 4.5440 -1.6868 0.9789
2.2130 4.7119 -1.7336 0.9783
2.2044 4.7700 -1.7500 0.9781
2.1866 4.8895 -1.7837 0.9777
2.7577 6.3770 -2.3138 0.9711
2.7184 6.3945 -2.3140 0.9711
2.5999 6.4453 -2.3145 0.9711
2.4805 6.4938 -2.3150 0.9711
2.4003 6.5249 -2.3153 0.9711
2.3601 6.5401 -2.3155 0.9711
2.3197 6.5551 -2.3157 0.9711
2.1982 6.5982 -2.3161 0.9711
2.0758 6.6391 -2.3165 0.9711
1.9114 6.6900 -2.3171 0.9711
1.8701 6.7021 -2.3172 0.9711
1.8287 6.7139 -2.3173 0.9711
1.7457 6.7367 -2.3176 0.9711
1.6624 6.7585 -2.3178 0.9711
1.6206 6.7689 -2.3179 0.9711
1.5788 6.7791 -2.3180 0.9711
1.3688 6.8262 -2.3185 0.9711
1.2420 6.8512 -2.3188 0.9711
1.1997 6.8590 -2.3189 0.9711
1.1574 6.8665 -2.3190 0.9711
1.0724 6.8808 -2.3191 0.9711
1.0298 6.8875 -2.3192 0.9711
0.9872 6.8940 -2.3193 0.9711
0.9446 6.9001 -2.3194 0.9711
0.9020 6.9060 -2.3194 0.9711
0.8593 6.9117 -2.3195 0.9711
0.8165 6.9170 -2.3195 0.9711
0.7738 6.9221 -2.3196 0.9711
0.7309 6.9269 -2.3196 0.9711
0.6452 6.9357 -2.3197 0.9711
0.4735 6.9501 -2.3199 0.9711
0.4305 6.9529 -2.3199 0.9711
0.3875 6.9556 -2.3200 0.9711
0.3445 6.9579 -2.3200 0.9711
0.3015 6.9600 -2.3200 0.9711
0.2584 6.9618 -2.3200 0.9711
0.2154 6.9633 -2.3201 0.9711
0.1723 6.9646 -2.3201 0.9711
0.0862 6.9663 -2.3201 0.9711
0.0431 6.9667 -2.3201 0.9711
0.0000 6.9668 -2.3201 0.9711
-0.0862 6.9663 -2.3201 0.9711
-0.1724 6.9647 -2.3201 0.9711
-0.2584 6.9620 -2.3201 0.9711
-0.3015 6.9601 -2.3201 0.9711
-0.3445 6.9581 -2.3201 0.9711
-0.4305 6.9532 -2.3200 0.9711
-0.5594 6.9437 -2.3199 0.9711
-0.6882 6.9319 -2.3198 0.9711
-0.7738 6.9225 -2.3197 0.9711
-0.9447 6.9006 -2.3195 0.9711
-0.9873 6.8945 -2.3195 0.9711
-1.1150 6.8745 -2.3193 0.9711
-1.1574 6.8672 -2.3192 0.9711
-1.1998 6.8596 -2.3191 0.9711
-1.4532 6.8090 -2.3186 0.9711
-1.5371 6.7899 -2.3184 0.9711
-1.5790 6.7800 -2.3183 0.9711
-1.6626 6.7593 -2.3181 0.9711
-1.7042 6.7486 -2.3180 0.9711
-1.7459 6.7376 -2.3179 0.9711
-1.7875 6.7264 -2.3178 0.9711
-1.8289 6.7148 -2.3177 0.9711
-1.9117 6.6910 -2.3174 0.9711
-1.9529 6.6787 -2.3173 0.9711
-1.9941 6.6662 -2.3172 0.9711
-2.0351 6.6533 -2.3171 0.9711
-2.1170 6.6269 -2.3168 0.9711
-2.1986 6.5994 -2.3165 0.9711
-2.3202 6.5562 -2.3161 0.9711
-2.4409 6.5108 -2.3156 0.9711
-2.5209 6.4792 -2.3153 0.9711
-2.6401 6.4299 -2.3148 0.9711
-2.6796 6.4130 -2.3146 0.9711
-2.7583 6.3784 -2.3143 0.9711
-2.7975 6.3607 -2.3141 0.9711
-2.8366 6.3428 -2.3139 0.9711
-2.8755 6.3247 -2.3137 0.9711
-2.9143 6.3062 -2.3135 0.9711
-2.9530 6.2876 -2.3134 0.9711
-2.9916 6.2687 -2.3132 0.9711
-3.2204 6.1502 -2.3120 0.9712
-3.2581 6.1296 -2.3118 0.9712
-3.2956 6.1087 -2.3115 0.9712
-3.3703 6.0664 -2.3111 0.9712
-3.4444 6.0231 -2.3107 0.9712
-3.4813 6.0011 -2.3104 0.9712
-3.5909 5.9337 -2.3098 0.9712
-3.6633 5.8876 -2.3093 0.9712
-3.6993 5.8643 -2.3090 0.9712
-3.7707 5.8169 -2.3086 0.9712
-3.8062 5.7928 -2.3083 0.9712
-3.8415 5.7685 -2.3081 0.9712
-3.8767 5.7441 -2.3078 0.9712
-3.9117 5.7194 -2.3076 0.9712
-3.9466 5.6944 -2.3073 0.9712
-4.0158 5.6439 -2.3068 0.9712
-4.0502 5.6183 -2.3065 0.9712
-4.2528 5.4604 -2.3049 0.9712
-4.3518 5.3786 -2.3041 0.9713
-4.4169 5.3231 -2.3035 0.9713
-4.4492 5.2950 -2.3032 0.9713
-4.5132 5.2382 -2.3026 0.9713
-4.6078 5.1516 -2.3018 0.9713
-4.6390 5.1223 -2.3015 0.9713
-4.9542 5.0783 -2.3627 0.9705
-5.0304 5.0930 -2.3840 0.9703
-5.4576 4.9426 -2.4521 0.9694
-5.4872 4.9080 -2.4517 0.9694
-5.5459 4.8384 -2.4510 0.9694
-5.6605 4.6970 -2.4496 0.9695
-5.6886 4.6612 -2.4492 0.9695
-5.7165 4.6252 -2.4488 0.9695
-5.8256 4.4796 -2.4473 0.9695
-5.8522 4.4428 -2.4469 0.9695
-5.9049 4.3688 -2.4462 0.9695
-5.9309 4.3315 -2.4458 0.9695
-6.0074 4.2187 -2.4446 0.9695
-6.0324 4.1808 -2.4442 0.9695
-6.0572 4.1428 -2.4439 0.9695
-6.1059 4.0662 -2.4431 0.9695
-6.1538 3.9891 -2.4423 0.9696
-6.1773 3.9503 -2.4419 0.9696
-6.2006 3.9114 -2.4415 0.9696
-6.2465 3.8331 -2.4407 0.9696
-6.2690 3.7938 -2.4403 0.9696
-6.2913 3.7543 -2.4399 0.9696
-6.3567 3.6352 -2.4386 0.9696
-6.4403 3.4745 -2.4370 0.9696
-6.5002 3.3526 -2.4357 0.9696
-6.5951 3.1473 -2.4336 0.9697
-6.6132 3.1060 -2.4332 0.9697
-6.6312 3.0645 -2.4327 0.9697
-6.6488 3.0229 -2.4323 0.9697
-6.7002 2.8974 -2.4310 0.9697
-6.7168 2.8555 -2.4306 0.9697
-6.7957 2.6440 -2.4284 0.9697
-6.8680 2.4305 -2.4262 0.9698
-6.8817 2.3875 -2.4258 0.9698
-6.8950 2.3445 -2.4253 0.9698
-6.9081 2.3014 -2.4249 0.9698
-6.9210 2.2582 -2.4244 0.9698
-6.9335 2.2149 -2.4240 0.9698
-6.9578 2.1282 -2.4231 0.9698
-6.9695 2.0848 -2.4226 0.9698
-6.9810 2.0412 -2.4222 0.9698
-6.9922 1.9977 -2.4217 0.9698
-7.0138 1.9104 -2.4208 0.9698
-7.0342 1.8228 -2.4199 0.9698
-7.0440 1.7789 -2.4195 0.9698
-7.0536 1.7350 -2.4190 0.9698
-7.0806 1.6029 -2.4177 0.9699
-7.0890 1.5588 -2.4172 0.9699
-7.0972 1.5146 -2.4168 0.9699
-7.1051 1.4705 -2.4163 0.9699
-7.1127 1.4262 -2.4158 0.9699
-7.1200 1.3819 -2.4154 0.9699
-7.1271 1.3376 -2.4149 0.9699
-7.1781 0.9375 -2.4108 0.9699
-7.1864 0.8483 -2.4099 0.9700
-7.1968 0.7145 -2.4085 0.9700
-7.1997 0.6698 -2.4080 0.9700
-7.2047 0.5804 -2.4071 0.9700
-7.2085 0.4911 -2.4062 0.9700
-7.2101 0.4463 -2.4057 0.9700
-7.2133 0.2677 -2.4039 0.9700
-7.2134 0.2231 -2.4034 0.9700
-7.2133 0.1785 -2.4029 0.9700
-7.2129 0.1338 -2.4025 0.9700
-7.2122 0.0892 -2.4020 0.9700
-7.2112 0.0446 -2.4016 0.9701
-7.0338 -0.0435 -2.4006 0.9707
-7.0321 -0.0870 -2.4002 0.9707
-7.0278 -0.1739 -2.3993 0.9707
-7.0161 -0.3474 -2.3975 0.9707
-7.0125 -0.3907 -2.3970 0.9708
-7.0001 -0.5204 -2.3957 0.9708
-6.9742 -0.7359 -2.3935 0.9708
-6.9682 -0.7789 -2.3930 0.9708
-6.9487 -0.9075 -2.3917 0.9708
-6.9417 -0.9503 -2.3912 0.9708
-6.9344 -0.9931 -2.3908 0.9708
-6.9268 -1.0357 -2.3904 0.9708
-6.9190 -1.0783 -2.3899 0.9708
-6.9026 -1.1634 -2.3890 0.9708
-6.8940 -1.2058 -2.3886 0.9709
-6.8851 -1.2482 -2.3882 0.9709
-6.8760 -1.2905 -2.3877 0.9709
-6.8570 -1.3750 -2.3868 0.9709
-6.8370 -1.4592 -2.3860 0.9709
-6.8160 -1.5430 -2.3851 0.9709
-6.8050 -1.5849 -2.3847 0.9709
-6.7824 -1.6683 -2.3838 0.9709
-6.7216 -1.8755 -2.3817 0.9709
-6.6954 -1.9578 -2.3808 0.9709
-6.6683 -2.0397 -2.3799 0.9710
-6.6544 -2.0806 -2.3795 0.9710
-6.6402 -2.1212 -2.3791 0.9710
-6.6258 -2.1619 -2.3787 0.9710
-6.5811 -2.2833 -2.3774 0.9710
-6.5500 -2.3637 -2.3766 0.9710
-6.5180 -2.4436 -2.3758 0.9710
-6.4851 -2.5232 -2.3749 0.9710
-6.4511 -2.6023 -2.3741 0.9710
-6.4338 -2.6417 -2.3737 0.9710
-6.3984 -2.7201 -2.3729 0.9710
-6.3804 -2.7592 -2.3725 0.9710
-6.3249 -2.8756 -2.3713 0.9711
-6.2867 -2.9526 -2.3705 0.9711
-6.2673 -2.9909 -2.3701 0.9711
-6.2277 -3.0672 -2.3693 0.9711
-6.2076 -3.1052 -2.3689 0.9711
-6.1873 -3.1429 -2.3685 0.9711
-6.1667 -3.1806 -2.3681 0.9711
-6.1249 -3.2556 -2.3673 0.9711
-6.0385 -3.4038 -2.3658 0.9711
-5.9487 -3.5499 -2.3643 0.9711
-5.9024 -3.6220 -2.3635 0.9712
-5.8790 -3.6579 -2.3631 0.9712
-5.8315 -3.7292 -2.3624 0.9712
-5.8074 -3.7646 -2.3620 0.9712
-5.7831 -3.7998 -2.3617 0.9712
-5.7339 -3.8699 -2.3609 0.9712
-5.6838 -3.9393 -2.3602 0.9712
-5.6330 -4.0081 -2.3595 0.9712
-5.6072 -4.0422 -2.3591 0.9712
-5.5813 -4.0762 -2.3588 0.9712
-5.4755 -4.2105 -2.3574 0.9712
-5.3941 -4.3095 -2.3564 0.9712
-5.3666 -4.3421 -2.3560 0.9712
-5.3389 -4.3746 -2.3557 0.9712
-5.3109 -4.4069 -2.3553 0.9713
-5.2828 -4.4390 -2.3550 0.9713
-5.2545 -4.4710 -2.3547 0.9713
-5.1974 -4.5343 -2.3540 0.9713
-5.1685 -4.5658 -2.3537 0.9713
-5.1395 -4.5970 -2.3534 0.9713
-5.1102 -4.6281 -2.3530 0.9713
-5.0808 -4.6590 -2.3527 0.9713
-5.0215 -4.7201 -2.3521 0.9713
-4.9915 -4.7504 -2.3518 0.9713
-4.9614 -4.7806 -2.3514 0.9713
-4.9311 -4.8105 -2.3511 0.9713
-4.9006 -4.8403 -2.3508 0.9713
-4.8699 -4.8699 -2.3505 0.9713
-4.8080 -4.9285 -2.3499 0.9713
-4.7455 -4.9862 -2.3493 0.9713
-4.7140 -5.0149 -2.3490 0.9713
-4.6823 -5.0433 -2.3487 0.9713
-4.6504 -5.0715 -2.3484 0.9713
-4.5862 -5.1274 -2.3478 0.9713
-4.5538 -5.1550 -2.3475 0.9713
-4.4886 -5.2097 -2.3470 0.9714
-4.4558 -5.2367 -2.3467 0.9714
-4.3563 -5.3166 -2.3458 0.9714
-4.3229 -5.3428 -2.3456 0.9714
-4.2892 -5.3688 -2.3453 0.9714
-4.1875 -5.4456 -2.3445 0.9714
-4.0497 -5.5450 -2.3434 0.9714
-4.0149 -5.5693 -2.3432 0.9714
-3.9799 -5.5935 -2.3429 0.9714
-3.9096 -5.6411 -2.3424 0.9714
-3.8743 -5.6645 -2.3422 0.9714
-3.8031 -5.7108 -2.3417 0.9714
-3.7673 -5.7337 -2.3415 0.9714
-3.6954 -5.7787 -2.3410 0.9714
-3.6592 -5.8008 -2.3408 0.9714
-3.4764 -5.9084 -2.3396 0.9714
-3.4395 -5.9292 -2.3394 0.9714
-3.3653 -5.9702 -2.3390 0.9714
-3.3280 -5.9903 -2.3388 0.9715
-3.2906 -6.0102 -2.3386 0.9715
-3.2531 -6.0299 -2.3384 0.9715
-3.1019 -6.1065 -2.3376 0.9715
-3.0256 -6.1433 -2.3372 0.9715
-2.9873 -6.1614 -2.3370 0.9715
-2.8718 -6.2143 -2.3364 0.9715
-2.8331 -6.2314 -2.3362 0.9715
-2.7554 -6.2651 -2.3359 0.9715
-2.6773 -6.2977 -2.3355 0.9715
-2.5595 -6.3450 -2.3350 0.9715
-2.4408 -6.3901 -2.3346 0.9715
-2.4011 -6.4046 -2.3344 0.9715
-2.3214 -6.4330 -2.3341 0.9715
-2.2414 -6.4604 -2.3338 0.9715
-2.2013 -6.4737 -2.3337 0.9715
-2.1611 -6.4868 -2.3335 0.9715
-1.9995 -6.5368 -2.3330 0.9715
-1.9183 -6.5604 -2.3328 0.9715
-1.7551 -6.6045 -2.3323 0.9715
-1.6731 -6.6250 -2.3321 0.9715
-1.6320 -6.6350 -2.3320 0.9715
-1.5909 -6.6446 -2.3319 0.9715
-1.5497 -6.6540 -2.3318 0.9715
-1.5085 -6.6632 -2.3317 0.9715
-1.4672 -6.6721 -2.3316 0.9715
-1.4258 -6.6808 -2.3315 0.9715
-1.3844 -6.6892 -2.3314 0.9715
-1.3430 -6.6974 -2.3313 0.9715
-1.2599 -6.7130 -2.3311 0.9715
-1.1767 -6.7276 -2.3310 0.9715
-0.9680 -6.7598 -2.3306 0.9716
-0.9262 -6.7654 -2.3305 0.9716
-0.8843 -6.7709 -2.3305 0.9716
-0.8424 -6.7761 -2.3304 0.9716
-0.7585 -6.7856 -2.3303 0.9716
-0.6324 -6.7982 -2.3302 0.9716
-0.5062 -6.8084 -2.3301 0.9716
-0.4641 -6.8113 -2.3300 0.9716
-0.4219 -6.8139 -2.3300 0.9716
-0.3798 -6.8163 -2.3300 0.9716
-0.1689 -6.8245 -2.3299 0.9716
-0.0844 -6.8260 -2.3298 0.9716
-0.0422 -6.8263 -2.3298 0.9716
-0.0000 -6.8265 -2.3298 0.9716
0.0422 -6.8263 -2.3298 0.9716
0.0844 -6.8259 -2.3298 0.9716
0.1688 -6.8244 -2.3298 0.9716
0.2532 -6.8219 -2.3299 0.9716
0.3798 -6.8161 -2.3299 0.9716
0.4640 -6.8110 -2.3299 0.9716
0.5062 -6.8081 -2.3300 0.9716
0.6324 -6.7978 -2.3301 0.9716
0.8004 -6.7806 -2.3302 0.9716
0.8842 -6.7704 -2.3303 0.9716
1.0515 -6.7472 -2.3306 0.9716
1.0933 -6.7407 -2.3306 0.9716
1.1350 -6.7340 -2.3307 0.9715
1.2182 -6.7199 -2.3308 0.9715
1.3013 -6.7047 -2.3310 0.9715
1.3843 -6.6886 -2.3311 0.9715
1.4257 -6.6801 -2.3312 0.9715
1.6729 -6.6242 -2.3318 0.9715
1.8365 -6.5820 -2.3322 0.9715
1.8773 -6.5708 -2.3323 0.9715
1.9586 -6.5477 -2.3325 0.9715
2.0397 -6.5237 -2.3328 0.9715
2.0801 -6.5113 -2.3329 0.9715
2.2410 -6.4593 -2.3334 0.9715
2.2810 -6.4457 -2.3336 0.9715
2.4404 -6.3889 -2.3341 0.9715
2.4800 -6.3741 -2.3343 0.9715
2.5195 -6.3590 -2.3344 0.9715
2.5983 -6.3282 -2.3348 0.9715
2.6376 -6.3125 -2.3349 0.9715
2.7548 -6.2638 -2.3354 0.9715
2.8712 -6.2130 -2.3359 0.9715
3.0631 -6.1236 -2.3368 0.9715
3.1012 -6.1050 -2.3370 0.9715
3.1391 -6.0862 -2.3372 0.9715
3.2147 -6.0480 -2.3376 0.9715
3.2523 -6.0285 -2.3378 0.9715
3.2898 -6.0088 -2.3380 0.9715
3.3272 -5.9888 -2.3382 0.9715
3.3645 -5.9687 -2.3384 0.9715
3.4386 -5.9277 -2.3388 0.9715
3.4755 -5.9068 -2.3390 0.9714
3.5123 -5.8858 -2.3393 0.9714
3.5490 -5.8644 -2.3395 0.9714
3.6944 -5.7771 -2.3404 0.9714
3.7304 -5.7547 -2.3406 0.9714
3.8020 -5.7093 -2.3411 0.9714
3.9085 -5.6394 -2.3418 0.9714
4.0137 -5.5677 -2.3425 0.9714
4.0485 -5.5434 -2.3427 0.9714
4.1862 -5.4439 -2.3438 0.9714
4.2202 -5.4185 -2.3440 0.9714
4.2541 -5.3929 -2.3443 0.9714
4.3882 -5.2884 -2.3454 0.9714
4.4543 -5.2350 -2.3459 0.9714
4.4871 -5.2079 -2.3462 0.9714
4.5198 -5.1807 -2.3465 0.9714
4.5523 -5.1532 -2.3467 0.9714
4.5846 -5.1256 -2.3470 0.9714
4.6806 -5.0416 -2.3479 0.9713
4.7751 -4.9557 -2.3488 0.9713
4.9896 -4.7487 -2.3509 0.9713
5.0196 -4.7184 -2.3512 0.9713
5.1083 -4.6263 -2.3521 0.9713
5.1375 -4.5953 -2.3525 0.9713
5.2240 -4.5010 -2.3534 0.9713
5.2525 -4.4692 -2.3538 0.9713
5.2807 -4.4373 -2.3541 0.9713
5.3088 -4.4052 -2.3544 0.9713
5.3367 -4.3729 -2.3547 0.9713
5.3919 -4.3077 -2.3554 0.9713
5.5000 -4.1754 -2.3568 0.9712
5.5265 -4.1420 -2.3571 0.9712
5.5790 -4.0745 -2.3578 0.9712
5.6049 -4.0405 -2.3582 0.9712
5.6814 -3.9376 -2.3592 0.9712
5.7065 -3.9030 -2.3596 0.9712
5.7806 -3.7982 -2.3606 0.9712
5.8289 -3.7275 -2.3614 0.9712
5.8764 -3.6563 -2.3621 0.9712
5.8998 -3.6205 -2.3625 0.9712
5.9230 -3.5844 -2.3628 0.9712
5.9688 -3.5121 -2.3636 0.9712
5.9914 -3.4756 -2.3640 0.9711
6.0137 -3.4390 -2.3643 0.9711
6.0794 -3.3285 -2.3655 0.9711
6.1844 -3.1415 -2.3674 0.9711
6.2047 -3.1037 -2.3678 0.9711
6.2248 -3.0658 -2.3682 0.9711
6.2447 -3.0277 -2.3686 0.9711
6.2838 -2.9512 -2.3694 0.9711
6.3030 -2.9128 -2.3698 0.9711
6.3406 -2.8356 -2.3706 0.9711
6.3591 -2.7968 -2.3710 0.9711
6.3774 -2.7579 -2.3714 0.9711
6.3954 -2.7188 -2.3718 0.9711
6.4132 -2.6797 -2.3722 0.9711
6.4307 -2.6404 -2.3726 0.9710
6.4480 -2.6011 -2.3730 0.9710
6.4819 -2.5220 -2.3738 0.9710
6.4985 -2.4822 -2.3742 0.9710
6.5310 -2.4026 -2.3750 0.9710
6.5469 -2.3625 -2.3754 0.9710
6.5625 -2.3224 -2.3758 0.9710
6.5930 -2.2418 -2.3767 0.9710
6.6370 -2.1202 -2.3779 0.9710
6.6511 -2.0795 -2.3784 0.9710
6.7182 -1.8746 -2.3805 0.9710
6.7309 -1.8333 -2.3809 0.9709
6.7555 -1.7506 -2.3817 0.9709
6.7904 -1.6258 -2.3830 0.9709
6.8125 -1.5423 -2.3839 0.9709
6.8231 -1.5004 -2.3843 0.9709
6.8335 -1.4584 -2.3848 0.9709
6.8436 -1.4163 -2.3852 0.9709
6.8535 -1.3743 -2.3856 0.9709
6.8725 -1.2899 -2.3865 0.9709
6.8905 -1.2052 -2.3874 0.9709
6.9074 -1.1203 -2.3883 0.9709
6.9154 -1.0778 -2.3887 0.9709
6.9381 -0.9498 -2.3900 0.9708
6.9646 -0.7785 -2.3918 0.9708
6.9706 -0.7355 -2.3922 0.9708
6.9869 -0.6065 -2.3936 0.9708
6.9918 -0.5633 -2.3940 0.9708
6.9965 -0.5202 -2.3945 0.9708
7.0125 -0.3472 -2.3962 0.9708
7.0216 -0.2172 -2.3976 0.9707
7.0242 -0.1738 -2.3980 0.9707
7.0301 -0.0435 -2.3994 0.9707
7.0316 0.0000 -2.3998 0.9707
7.0337 0.0870 -2.4007 0.9707
7.0343 0.1305 -2.4012 0.9707
7.0325 0.3918 -2.4039 0.9707
7.0313 0.4354 -2.4043 0.9707
7.0298 0.4790 -2.4048 0.9707
7.0211 0.6532 -2.4066 0.9706
7.0182 0.6967 -2.4070 0.9706
7.0041 0.8707 -2.4088 0.9706
6.9856 1.0445 -2.4106 0.9706
6.9747 1.1312 -2.4115 0.9706
6.9628 1.2179 -2.4124 0.9706
6.9564 1.2612 -2.4129 0.9706
6.9282 1.4339 -2.4147 0.9705
6.9205 1.4770 -2.4151 0.9705
6.9125 1.5200 -2.4156 0.9705
6.8870 1.6489 -2.4169 0.9705
6.8685 1.7346 -2.4178 0.9705
6.8590 1.7774 -2.4182 0.9705
6.8389 1.8627 -2.4191 0.9705
6.8179 1.9479 -2.4200 0.9705
6.7843 2.0752 -2.4213 0.9705
6.7605 2.1597 -2.4222 0.9704
6.7099 2.3279 -2.4239 0.9704
6.6691 2.4533 -2.4252 0.9704
6.6550 2.4950 -2.4257 0.9704
6.5959 2.6607 -2.4274 0.9704
5.6717 2.3699 -2.0979 0.9744
5.5244 2.3485 -2.0487 0.9749
5.2494 2.3087 -1.9572 0.9761
5.1209 2.2901 -1.9145 0.9766
4.8800 2.2552 -1.8348 0.9775
4.5982 2.1596 -1.7338 0.9788
4.3926 2.1297 -1.6661 0.9796
4.2023 2.1021 -1.6036 0.9803
4.0258 2.0764 -1.5460 0.9810
3.9422 2.0642 -1.5187 0.9814
3.8615 2.0525 -1.4925 0.9817
3.6352 2.0196 -1.4193 0.9826
3.5646 2.0094 -1.3966 0.9829
3.4300 1.9898 -1.3534 0.9834
3.3035 1.9714 -1.3129 0.9839
3.1842 1.9540 -1.2751 0.9843
2.8643 1.9075 -1.1745 0.9856
2.8158 1.9004 -1.1594 0.9857
2.7685 1.8935 -1.1447 0.9859
2.6775 1.8803 -1.1166 0.9863
2.6246 1.9418 -1.1143 0.9863
2.6212 1.9645 -1.1180 0.9863
2.6178 1.9874 -1.1217 0.9862
2.6144 2.0104 -1.1256 0.9862
2.6040 2.0804 -1.1375 0.9860
2.6005 2.1040 -1.1416 0.9860
2.5969 2.1279 -1.1458 0.9859
2.5861 2.2005 -1.1589 0.9858
2.5825 2.2251 -1.1634 0.9857
2.5788 2.2498 -1.1680 0.9856
2.5751 2.2748 -1.1727 0.9856
2.5676 2.3253 -1.1823 0.9855
2.5638 2.3509 -1.1872 0.9854
2.5600 2.3767 -1.1922 0.9853
2.5561 2.4027 -1.1973 0.9853
2.5483 2.4554 -1.2078 0.9852
2.5443 2.4821 -1.2131 0.9851
2.5112 2.7049 -1.2597 0.9845
2.4981 2.7929 -1.2789 0.9843
2.4846 2.8838 -1.2991 0.9840
2.4800 2.9147 -1.3061 0.9840
2.4754 2.9460 -1.3133 0.9839
2.4707 2.9776 -1.3205 0.9838
2.4660 3.0095 -1.3279 0.9837
2.4612 3.0418 -1.3354 0.9836
2.4464 3.1411 -1.3588 0.9833
2.4414 3.1749 -1.3669 0.9832
2.4259 3.2789 -1.3921 0.9829
2.4153 3.3505 -1.4096 0.9827
2.3988 3.4612 -1.4373 0.9824
2.3932 3.4991 -1.4468 0.9822
2.3875 3.5375 -1.4566 0.9821
2.3759 3.6159 -1.4766 0.9819
2.3699 3.6559 -1.4870 0.9818
2.3578 3.7377 -1.5082 0.9815
2.3191 3.9977 -1.5774 0.9807
2.3054 4.0899 -1.6023 0.9804
2.2984 4.1370 -1.6152 0.9802
2.2913 4.1850 -1.6284 0.9800
2.2840 4.2337 -1.6418 0.9799
2.2767 4.2832 -1.6555 0.9797
2.2459 4.4899 -1.7134 0.9790
2.2297 4.5989 -1.7443 0.9786
2.2214 4.6548 -1.7603 0.9784
2.2129 4.7118 -1.7766 0.9782
2.2043 4.7699 -1.7934 0.9780
2.1955 4.8291 -1.8105 0.9778
2.5738 6.2684 -2.3127 0.9718
2.4964 6.3006 -2.3130 0.9718
2.4576 6.3164 -2.3132 0.9718
2.4186 6.3320 -2.3133 0.9718
2.3796 6.3472 -2.3135 0.9718
2.3012 6.3770 -2.3138 0.9718
2.1829 6.4199 -2.3143 0.9717
2.1036 6.4472 -2.3146 0.9717
2.0639 6.4605 -2.3147 0.9717
2.0240 6.4735 -2.3148 0.9717
1.8637 6.5231 -2.3154 0.9717
1.8234 6.5349 -2.3155 0.9717
1.7021 6.5686 -2.3159 0.9717
1.6209 6.5898 -2.3161 0.9717
1.5394 6.6099 -2.3163 0.9717
1.4577 6.6290 -2.3165 0.9717
1.4167 6.6382 -2.3166 0.9717
1.3346 6.6558 -2.3168 0.9717
1.1698 6.6877 -2.3171 0.9717
1.1284 6.6950 -2.3172 0.9717
1.0041 6.7154 -2.3174 0.9717
0.9626 6.7218 -2.3175 0.9717
0.9210 6.7278 -2.3176 0.9717
0.7961 6.7442 -2.3178 0.9717
0.7544 6.7492 -2.3178 0.9717
0.6709 6.7583 -2.3179 0.9717
0.5873 6.7663 -2.3180 0.9717
0.5455 6.7700 -2.3180 0.9717
0.4617 6.7764 -2.3181 0.9717
0.3359 6.7841 -2.3182 0.9717
0.2520 6.7879 -2.3183 0.9717
0.2100 6.7893 -2.3183 0.9717
0.1680 6.7906 -2.3183 0.9717
0.1260 6.7915 -2.3183 0.9717
0.0420 6.7926 -2.3183 0.9717
-0.0001 6.7928 -2.3183 0.9717
-0.0840 6.7923 -2.3183 0.9717
-0.1680 6.7906 -2.3183 0.9717
-0.2100 6.7895 -2.3183 0.9717
-0.5036 6.7736 -2.3182 0.9717
-0.5455 6.7703 -2.3181 0.9717
-0.5874 6.7667 -2.3181 0.9717
-0.7545 6.7496 -2.3179 0.9717
-0.8378 6.7395 -2.3178 0.9717
-0.8795 6.7340 -2.3178 0.9717
-0.9211 6.7283 -2.3177 0.9717
-0.9626 6.7223 -2.3177 0.9717
-1.0042 6.7160 -2.3176 0.9717
-1.0456 6.7095 -2.3176 0.9717
-1.0871 6.7027 -2.3175 0.9717
-1.1699 6.6883 -2.3173 0.9717
-1.2112 6.6808 -2.3173 0.9717
-1.4169 6.6389 -2.3169 0.9717
-1.4988 6.6204 -2.3167 0.9717
-1.5396 6.6107 -2.3166 0.9717
-1.5804 6.6008 -2.3165 0.9717
-1.6618 6.5801 -2.3163 0.9717
-1.8237 6.5358 -2.3158 0.9717
-1.8640 6.5240 -2.3157 0.9717
-1.9042 6.5121 -2.3156 0.9717
-1.9443 6.4998 -2.3155 0.9717
-2.0243 6.4745 -2.3152 0.9717
-2.0642 6.4615 -2.3151 0.9717
-2.1833 6.4210 -2.3147 0.9717
-2.2229 6.4070 -2.3145 0.9717
-2.2623 6.3927 -2.3144 0.9717
-2.3017 6.3782 -2.3142 0.9717
-2.4191 6.3331 -2.3138 0.9718
-2.5743 6.2696 -2.3131 0.9718
-2.6128 6.2532 -2.3130 0.9718
-2.6513 6.2364 -2.3128 0.9718
-2.8038 6.1671 -2.3121 0.9718
-2.8417 6.1491 -2.3119 0.9718
-2.8795 6.1310 -2.3117 0.9718
-2.9920 6.0750 -2.3112 0.9718
-3.0292 6.0558 -2.3110 0.9718
-3.1402 5.9970 -2.3104 0.9718
-3.2136 5.9567 -2.3100 0.9718
-3.2501 5.9362 -2.3098 0.9718
-3.3226 5.8944 -2.3093 0.9718
-3.3587 5.8732 -2.3091 0.9718
-3.3946 5.8518 -2.3089 0.9718
-3.4304 5.8301 -2.3087 0.9718
-3.4661 5.8082 -2.3084 0.9718
-3.5016 5.7861 -2.3082 0.9718
-3.5370 5.7638 -2.3080 0.9718
-3.5722 5.7412 -2.3078 0.9718
-3.6072 5.7184 -2.3075 0.9718
-3.6770 5.6723 -2.3071 0.9718
-3.7116 5.6488 -2.3068 0.9718
-3.7460 5.6251 -2.3066 0.9718
-3.7804 5.6013 -2.3063 0.9718
-3.8145 5.5772 -2.3061 0.9718
-3.8824 5.5284 -2.3056 0.9719
-3.9161 5.5037 -2.3053 0.9719
-4.0820 5.3770 -2.3040 0.9719
-4.1796 5.2984 -2.3032 0.9719
-4.2438 5.2451 -2.3027 0.9719
-4.2757 5.2181 -2.3024 0.9719
-4.3074 5.1910 -2.3021 0.9719
-4.3702 5.1361 -2.3016 0.9719
-4.4089 5.1171 -2.3053 0.9719
-4.4322 5.0803 -2.3010 0.9719
-4.4630 5.0522 -2.3007 0.9719
-4.4936 5.0239 -2.3004 0.9719
-4.5240 4.9953 -2.3001 0.9719
-4.7185 5.0197 -2.3513 0.9713
-4.7905 5.0336 -2.3716 0.9711
-4.8638 5.0477 -2.3923 0.9708
-5.0157 5.0781 -2.4360 0.9703
-5.2640 4.8872 -2.4515 0.9701
-5.2934 4.8538 -2.4511 0.9701
-5.3226 4.8203 -2.4508 0.9701
-5.3803 4.7528 -2.4501 0.9701
-5.4088 4.7188 -2.4498 0.9701
-5.4652 4.6501 -2.4491 0.9701
-5.4930 4.6156 -2.4487 0.9701
-5.5206 4.5809 -2.4483 0.9701
-5.5481 4.5460 -2.4480 0.9701
-5.6022 4.4757 -2.4473 0.9701
-5.6817 4.3690 -2.4462 0.9702
-5.9078 4.0406 -2.4428 0.9702
-5.9318 4.0034 -2.4424 0.9702
-5.9555 3.9660 -2.4420 0.9702
-6.0251 3.8530 -2.4409 0.9702
-6.0479 3.8151 -2.4405 0.9702
-6.1147 3.7004 -2.4393 0.9702
-6.1364 3.6619 -2.4389 0.9702
-6.2003 3.5457 -2.4377 0.9703
-6.2211 3.5067 -2.4373 0.9703
-6.2619 3.4284 -2.4365 0.9703
-6.2819 3.3890 -2.4361 0.9703
-6.3405 3.2703 -2.4349 0.9703
-6.3968 3.1504 -2.4336 0.9703
-6.4151 3.1103 -2.4332 0.9703
-6.4331 3.0701 -2.4328 0.9703
-6.5026 2.9080 -2.4311 0.9703
-6.5521 2.7855 -2.4299 0.9704
-6.5680 2.7444 -2.4294 0.9704
-6.6583 2.4962 -2.4269 0.9704
-6.6863 2.4128 -2.4260 0.9704
-6.7132 2.3291 -2.4251 0.9704
-6.7391 2.2451 -2.4243 0.9704
-6.7759 2.1185 -2.4230 0.9704
-6.7877 2.0762 -2.4225 0.9704
-6.7992 2.0338 -2.4221 0.9705
-6.8213 1.9489 -2.4212 0.9705
-6.8320 1.9063 -2.4208 0.9705
-6.8424 1.8637 -2.4203 0.9705
-6.8624 1.7783 -2.4195 0.9705
-6.8721 1.7355 -2.4190 0.9705
-6.8814 1.6926 -2.4186 0.9705
-6.8993 1.6068 -2.4177 0.9705
-6.9161 1.5208 -2.4168 0.9705
-6.9241 1.4777 -2.4164 0.9705
-6.9393 1.3914 -2.4155 0.9705
-6.9465 1.3482 -2.4150 0.9705
-6.9534 1.3050 -2.4146 0.9705
-6.9840 1.0883 -2.4123 0.9706
-6.9942 1.0016 -2.4114 0.9706
-7.0035 0.9147 -2.4105 0.9706
-7.0077 0.8712 -2.4101 0.9706
-7.0116 0.8277 -2.4096 0.9706
-7.0187 0.7406 -2.4087 0.9706
-7.0273 0.6099 -2.4074 0.9706
-7.0296 0.5664 -2.4069 0.9706
-7.0362 0.3920 -2.4051 0.9707
-7.0372 0.3485 -2.4047 0.9707
-7.0385 0.2177 -2.4033 0.9707
-7.0380 0.1306 -2.4024 0.9707
-7.0364 0.0435 -2.4015 0.9707
-6.8666 -0.0425 -2.4006 0.9713
-6.8649 -0.0849 -2.4002 0.9713
-6.8584 -0.2121 -2.3989 0.9713
-6.8383 -0.4659 -2.3962 0.9714
-6.8341 -0.5081 -2.3958 0.9714
-6.8295 -0.5502 -2.3954 0.9714
-6.8248 -0.5924 -2.3949 0.9714
-6.8197 -0.6345 -2.3945 0.9714
-6.8089 -0.7185 -2.3936 0.9714
-6.8031 -0.7604 -2.3932 0.9714
-6.7970 -0.8023 -2.3928 0.9714
-6.7907 -0.8442 -2.3923 0.9714
-6.7841 -0.8860 -2.3919 0.9714
-6.7702 -0.9695 -2.3910 0.9714
-6.7628 -1.0112 -2.3906 0.9714
-6.7134 -1.2600 -2.3880 0.9715
-6.7043 -1.3012 -2.3876 0.9715
-6.6853 -1.3836 -2.3867 0.9715
-6.6754 -1.4247 -2.3863 0.9715
-6.6549 -1.5066 -2.3855 0.9715
-6.6223 -1.6289 -2.3842 0.9715
-6.6109 -1.6696 -2.3838 0.9715
-6.5753 -1.7909 -2.3825 0.9715
-6.5630 -1.8313 -2.3821 0.9715
-6.5376 -1.9116 -2.3813 0.9716
-6.5245 -1.9517 -2.3808 0.9716
-6.4976 -2.0315 -2.3800 0.9716
-6.4554 -2.1506 -2.3788 0.9716
-6.3804 -2.3471 -2.3767 0.9716
-6.3487 -2.4250 -2.3759 0.9716
-6.3325 -2.4638 -2.3755 0.9716
-6.2654 -2.6179 -2.3739 0.9716
-6.1946 -2.7703 -2.3723 0.9717
-6.1763 -2.8080 -2.3720 0.9717
-6.1391 -2.8833 -2.3712 0.9717
-6.0816 -2.9952 -2.3700 0.9717
-6.0421 -3.0692 -2.3692 0.9717
-6.0017 -3.1427 -2.3685 0.9717
-5.9395 -3.2519 -2.3673 0.9717
-5.9184 -3.2880 -2.3670 0.9717
-5.8536 -3.3957 -2.3658 0.9717
-5.8316 -3.4313 -2.3655 0.9717
-5.7869 -3.5021 -2.3647 0.9717
-5.7642 -3.5372 -2.3644 0.9717
-5.7414 -3.5722 -2.3640 0.9718
-5.6715 -3.6765 -2.3629 0.9718
-5.6478 -3.7109 -2.3626 0.9718
-5.6239 -3.7452 -2.3622 0.9718
-5.5755 -3.8133 -2.3615 0.9718
-5.5262 -3.8808 -2.3608 0.9718
-5.4762 -3.9477 -2.3601 0.9718
-5.4509 -3.9809 -2.3598 0.9718
-5.3996 -4.0469 -2.3591 0.9718
-5.3737 -4.0796 -2.3587 0.9718
-5.3213 -4.1446 -2.3581 0.9718
-5.2682 -4.2088 -2.3574 0.9718
-5.2413 -4.2408 -2.3570 0.9718
-5.1596 -4.3354 -2.3561 0.9718
-5.1042 -4.3977 -2.3554 0.9719
-5.0762 -4.4286 -2.3551 0.9719
-5.0196 -4.4898 -2.3545 0.9719
-4.8458 -4.6692 -2.3526 0.9719
-4.7264 -4.7852 -2.3514 0.9719
-4.6961 -4.8137 -2.3511 0.9719
-4.6350 -4.8702 -2.3505 0.9719
-4.5733 -4.9260 -2.3499 0.9719
-4.5422 -4.9535 -2.3496 0.9719
-4.4479 -5.0351 -2.3488 0.9719
-4.4162 -5.0619 -2.3485 0.9719
-4.3522 -5.1149 -2.3479 0.9719
-4.3200 -5.1411 -2.3477 0.9719
-4.2876 -5.1672 -2.3474 0.9719
-4.2551 -5.1930 -2.3471 0.9720
-4.1896 -5.2441 -2.3466 0.9720
-4.0568 -5.3437 -2.3455 0.9720
-4.0232 -5.3681 -2.3453 0.9720
-3.9556 -5.4163 -2.3448 0.9720
-3.8875 -5.4636 -2.3443 0.9720
-3.8533 -5.4870 -2.3440 0.9720
-3.7843 -5.5331 -2.3435 0.9720
-3.7149 -5.5784 -2.3431 0.9720
-3.6449 -5.6227 -2.3426 0.9720
-3.5033 -5.7090 -2.3417 0.9720
-3.4676 -5.7300 -2.3415 0.9720
-3.4318 -5.7508 -2.3413 0.9720
-3.3598 -5.7917 -2.3408 0.9720
-3.2873 -5.8318 -2.3404 0.9720
-3.1777 -5.8903 -2.3398 0.9720
-3.1410 -5.9092 -2.3396 0.9720
-3.0671 -5.9466 -2.3392 0.9720
-2.9555 -6.0010 -2.3386 0.9721
-2.9181 -6.0188 -2.3384 0.9721
-2.8807 -6.0362 -2.3383 0.9721
-2.8430 -6.0534 -2.3381 0.9721
-2.8053 -6.0704 -2.3379 0.9721
-2.7675 -6.0872 -2.3377 0.9721
-2.7296 -6.1037 -2.3376 0.9721
-2.6916 -6.1201 -2.3374 0.9721
-2.6154 -6.1520 -2.3370 0.9721
-2.5387 -6.1830 -2.3367 0.9721
-2.5002 -6.1982 -2.3366 0.9721
-2.4617 -6.2130 -2.3364 0.9721
-2.4231 -6.2278 -2.3362 0.9721
-2.3844 -6.2422 -2.3361 0.9721
-2.3456 -6.2564 -2.3359 0.9721
-2.2677 -6.2842 -2.3356 0.9721
-2.1896 -6.3110 -2.3354 0.9721
-2.1111 -6.3368 -2.3351 0.9721
-2.0323 -6.3617 -2.3348 0.9721
-1.9533 -6.3857 -2.3346 0.9721
-1.8342 -6.4198 -2.3342 0.9721
-1.7944 -6.4307 -2.3341 0.9721
-1.7545 -6.4414 -2.3340 0.9721
-1.6344 -6.4719 -2.3336 0.9721
-1.5943 -6.4816 -2.3335 0.9721
-1.5139 -6.5003 -2.3333 0.9721
-1.3524 -6.5347 -2.3330 0.9721
-1.3120 -6.5427 -2.3329 0.9721
-1.1902 -6.5652 -2.3326 0.9721
-0.7820 -6.6244 -2.3320 0.9721
-0.7000 -6.6333 -2.3319 0.9721
-0.6589 -6.6373 -2.3318 0.9721
-0.6178 -6.6412 -2.3318 0.9721
-0.5767 -6.6447 -2.3318 0.9721
-0.4122 -6.6566 -2.3316 0.9721
-0.3710 -6.6589 -2.3316 0.9721
-0.2886 -6.6629 -2.3315 0.9721
-0.2062 -6.6658 -2.3315 0.9721
-0.1650 -6.6669 -2.3315 0.9721
-0.1237 -6.6678 -2.3315 0.9721
0.0412 -6.6687 -2.3315 0.9721
0.0825 -6.6684 -2.3315 0.9721
0.1237 -6.6677 -2.3315 0.9721
0.2062 -6.6657 -2.3315 0.9721
0.2474 -6.6644 -2.3315 0.9721
0.2886 -6.6627 -2.3315 0.9721
0.4945 -6.6509 -2.3316 0.9721
0.5767 -6.6445 -2.3317 0.9721
0.6178 -6.6409 -2.3317 0.9721
0.6999 -6.6329 -2.3318 0.9721
0.7409 -6.6286 -2.3318 0.9721
0.8229 -6.6192 -2.3319 0.9721
0.9047 -6.6088 -2.3320 0.9721
0.9456 -6.6032 -2.3321 0.9721
0.9864 -6.5974 -2.3321 0.9721
1.0273 -6.5913 -2.3322 0.9721
1.1088 -6.5785 -2.3323 0.9721
1.2307 -6.5574 -2.3325 0.9721
1.2713 -6.5498 -2.3326 0.9721
1.3523 -6.5340 -2.3327 0.9721
1.3927 -6.5258 -2.3328 0.9721
1.4331 -6.5173 -2.3329 0.9721
1.4734 -6.5086 -2.3330 0.9721
1.5137 -6.4995 -2.3331 0.9721
1.5941 -6.4808 -2.3333 0.9721
1.6342 -6.4711 -2.3334 0.9721
1.6743 -6.4612 -2.3335 0.9721
1.7542 -6.4405 -2.3337 0.9721
1.8339 -6.4190 -2.3339 0.9721
2.0714 -6.3484 -2.3346 0.9721
2.3063 -6.2694 -2.3354 0.9721
2.3451 -6.2554 -2.3355 0.9721
2.3839 -6.2411 -2.3357 0.9721
2.4613 -6.2120 -2.3360 0.9721
2.4998 -6.1970 -2.3361 0.9721
2.5382 -6.1818 -2.3363 0.9721
2.5766 -6.1664 -2.3364 0.9721
2.6530 -6.1349 -2.3368 0.9721
2.8048 -6.0692 -2.3374 0.9721
2.8800 -6.0349 -2.3378 0.9721
2.9175 -6.0174 -2.3379 0.9721
2.9549 -5.9997 -2.3381 0.9721
3.0664 -5.9453 -2.3387 0.9721
3.1034 -5.9267 -2.3389 0.9720
3.1770 -5.8888 -2.3392 0.9720
3.2136 -5.8696 -2.3394 0.9720
3.2865 -5.8303 -2.3398 0.9720
3.3228 -5.8104 -2.3400 0.9720
3.6087 -5.6431 -2.3418 0.9720
3.6439 -5.6212 -2.3420 0.9720
3.6789 -5.5991 -2.3422 0.9720
3.7138 -5.5768 -2.3424 0.9720
3.7486 -5.5543 -2.3427 0.9720
3.7833 -5.5315 -2.3429 0.9720
3.8178 -5.5086 -2.3431 0.9720
3.9205 -5.4385 -2.3438 0.9720
3.9545 -5.4147 -2.3441 0.9720
4.0220 -5.3665 -2.3446 0.9720
4.0555 -5.3421 -2.3448 0.9720
4.1882 -5.2424 -2.3458 0.9720
4.2537 -5.1913 -2.3464 0.9720
4.2862 -5.1655 -2.3466 0.9720
4.3508 -5.1133 -2.3472 0.9720
4.4780 -5.0064 -2.3483 0.9719
4.6945 -4.8120 -2.3503 0.9719
4.7247 -4.7835 -2.3505 0.9719
4.8144 -4.6968 -2.3514 0.9719
4.8440 -4.6676 -2.3517 0.9719
4.8734 -4.6381 -2.3520 0.9719
4.9026 -4.6085 -2.3523 0.9719
5.0461 -4.4576 -2.3539 0.9719
5.0742 -4.4269 -2.3542 0.9719
5.1576 -4.3338 -2.3552 0.9719
5.1850 -4.3024 -2.3555 0.9719
5.2393 -4.2391 -2.3561 0.9718
5.2661 -4.2072 -2.3565 0.9718
5.3716 -4.0780 -2.3578 0.9718
5.4740 -3.9461 -2.3591 0.9718
5.5486 -3.8456 -2.3602 0.9718
5.5731 -3.8117 -2.3605 0.9718
5.5974 -3.7778 -2.3609 0.9718
5.6454 -3.7094 -2.3616 0.9718
5.7618 -3.5357 -2.3634 0.9718
5.8511 -3.3942 -2.3648 0.9717
5.8944 -3.3226 -2.3656 0.9717
5.9158 -3.2866 -2.3659 0.9717
5.9369 -3.2504 -2.3663 0.9717
5.9786 -3.1778 -2.3670 0.9717
6.0193 -3.1046 -2.3678 0.9717
6.0394 -3.0678 -2.3682 0.9717
6.0592 -3.0309 -2.3686 0.9717
6.0788 -2.9938 -2.3689 0.9717
6.1363 -2.8820 -2.3701 0.9717
6.1550 -2.8445 -2.3705 0.9717
6.1917 -2.7690 -2.3713 0.9717
6.2098 -2.7311 -2.3716 0.9717
6.2276 -2.6931 -2.3720 0.9717
6.2451 -2.6549 -2.3724 0.9717
6.2625 -2.6167 -2.3728 0.9716
6.2796 -2.5784 -2.3732 0.9716
6.3295 -2.4627 -2.3744 0.9716
6.3928 -2.3069 -2.3760 0.9716
6.4080 -2.2677 -2.3764 0.9716
6.4230 -2.2285 -2.3768 0.9716
6.4666 -2.1100 -2.3781 0.9716
6.4806 -2.0703 -2.3785 0.9716
6.4944 -2.0305 -2.3789 0.9716
6.5080 -1.9907 -2.3793 0.9716
6.5344 -1.9107 -2.3801 0.9716
6.5472 -1.8705 -2.3805 0.9716
6.5842 -1.7497 -2.3818 0.9715
6.6190 -1.6281 -2.3830 0.9715
6.6410 -1.5467 -2.3839 0.9715
6.6721 -1.4240 -2.3851 0.9715
6.6820 -1.3829 -2.3856 0.9715
6.6916 -1.3418 -2.3860 0.9715
6.7010 -1.3006 -2.3864 0.9715
6.7275 -1.1767 -2.3877 0.9715
6.7440 -1.0938 -2.3885 0.9715
6.7518 -1.0522 -2.3890 0.9715
6.7668 -0.9690 -2.3898 0.9714
6.7996 -0.7601 -2.3920 0.9714
6.8054 -0.7181 -2.3924 0.9714
6.8163 -0.6341 -2.3933 0.9714
6.8426 -0.3812 -2.3959 0.9714
6.8522 -0.2544 -2.3972 0.9714
6.8549 -0.2120 -2.3977 0.9714
6.8614 -0.0849 -2.3990 0.9713
6.8631 -0.0425 -2.3994 0.9713
6.8645 -0.0000 -2.3998 0.9713
6.8674 0.1699 -2.4016 0.9713
6.8673 0.2550 -2.4025 0.9713
6.8668 0.2975 -2.4029 0.9713
6.8651 0.3825 -2.4038 0.9713
6.8639 0.4251 -2.4042 0.9713
6.8624 0.4675 -2.4047 0.9713
6.8606 0.5101 -2.4051 0.9713
6.8537 0.6376 -2.4064 0.9713
6.8509 0.6801 -2.4069 0.9712
6.8478 0.7226 -2.4073 0.9712
6.8370 0.8500 -2.4086 0.9712
6.8284 0.9348 -2.4095 0.9712
6.8238 0.9772 -2.4100 0.9712
6.8188 1.0196 -2.4104 0.9712
6.8082 1.1042 -2.4113 0.9712
6.7965 1.1888 -2.4121 0.9712
6.7550 1.4416 -2.4148 0.9712
6.7472 1.4837 -2.4152 0.9712
6.7391 1.5256 -2.4156 0.9711
6.7307 1.5676 -2.4161 0.9711
6.7133 1.6513 -2.4169 0.9711
6.7041 1.6931 -2.4174 0.9711
6.6650 1.8597 -2.4191 0.9711
6.6545 1.9012 -2.4195 0.9711
6.6438 1.9427 -2.4200 0.9711
6.5864 2.1490 -2.4221 0.9711
6.5741 2.1901 -2.4225 0.9711
6.5616 2.2311 -2.4230 0.9711
6.5358 2.3129 -2.4238 0.9710
6.5090 2.3944 -2.4246 0.9710
6.4811 2.4756 -2.4255 0.9710
6.4668 2.5161 -2.4259 0.9710
5.8243 2.3914 -2.2011 0.9737
5.1193 2.2894 -1.9606 0.9765
4.8786 2.2546 -1.8789 0.9775
4.3913 2.1291 -1.7062 0.9795
4.1113 2.0884 -1.6122 0.9806
3.9412 2.0637 -1.5553 0.9813
3.8605 2.0520 -1.5285 0.9816
3.7826 2.0407 -1.5026 0.9820
3.4955 1.9989 -1.4077 0.9831
3.4292 1.9893 -1.3860 0.9833
3.3650 1.9800 -1.3650 0.9836
3.3027 1.9709 -1.3446 0.9838
3.0710 1.9372 -1.2694 0.9847
3.0171 1.9294 -1.2520 0.9849
2.9135 1.9143 -1.2188 0.9853
2.8637 1.9071 -1.2029 0.9855
2.7680 1.8932 -1.1724 0.9859
2.7219 1.8865 -1.1578 0.9861
2.6312 1.8968 -1.1340 0.9863
2.6143 2.0104 -1.1530 0.9861
2.5933 2.1519 -1.1781 0.9858
2.5861 2.2005 -1.1871 0.9857
2.5788 2.2498 -1.1964 0.9856
2.5713 2.2999 -1.2061 0.9855
2.5676 2.3253 -1.2110 0.9854
2.5599 2.3767 -1.2212 0.9853
2.5561 2.4027 -1.2264 0.9852
2.5522 2.4289 -1.2317 0.9852
2.5482 2.4554 -1.2371 0.9851
2.5443 2.4821 -1.2427 0.9851
2.5362 2.5362 -1.2540 0.9849
2.5322 2.5637 -1.2597 0.9848
2.5197 2.6475 -1.2778 0.9846
2.5155 2.6761 -1.2840 0.9846
2.5069 2.7339 -1.2968 0.9844
2.4937 2.8229 -1.3168 0.9842
2.4846 2.8837 -1.3308 0.9840
2.4800 2.9146 -1.3379 0.9839
2.4754 2.9459 -1.3452 0.9838
2.4563 3.0745 -1.3758 0.9835
2.4414 3.1748 -1.4002 0.9832
2.4363 3.2091 -1.4086 0.9831
2.4311 3.2438 -1.4172 0.9830
2.4153 3.3504 -1.4439 0.9827
2.4098 3.3868 -1.4532 0.9825
2.4044 3.4238 -1.4626 0.9824
2.3988 3.4612 -1.4722 0.9823
2.3932 3.4990 -1.4820 0.9822
2.3875 3.5374 -1.4920 0.9821
2.3758 3.6159 -1.5126 0.9818
2.3638 3.6964 -1.5339 0.9816
2.3577 3.7376 -1.5449 0.9814
2.3515 3.7794 -1.5562 0.9813
2.3452 3.8217 -1.5676 0.9812
2.3388 3.8647 -1.5793 0.9810
2.3323 3.9084 -1.5912 0.9809
2.3257 3.9527 -1.6033 0.9808
2.3123 4.0434 -1.6284 0.9805
2.2984 4.1370 -1.6545 0.9801
2.2912 4.1849 -1.6680 0.9800
2.2840 4.2336 -1.6817 0.9798
2.2691 4.3335 -1.7101 0.9795
2.2615 4.3847 -1.7248 0.9793
2.2459 4.4899 -1.7551 0.9790
2.2379 4.5438 -1.7708 0.9788
2.2297 4.5988 -1.7868 0.9786
2.2129 4.7117 -1.8199 0.9782
2.2043 4.7698 -1.8370 0.9780
2.1955 4.8290 -1.8545 0.9778
2.1865 4.8893 -1.8724 0.9776
2.6606 6.0494 -2.3104 0.9724
2.6233 6.0662 -2.3106 0.9724
2.5859 6.0827 -2.3107 0.9724
2.4354 6.1467 -2.3114 0.9724
2.3975 6.1620 -2.3116 0.9724
2.2449 6.2211 -2.3122 0.9724
2.2066 6.2353 -2.3124 0.9724
2.1681 6.2492 -2.3125 0.9724
2.0909 6.2763 -2.3128 0.9724
2.0522 6.2895 -2.3129 0.9724
2.0134 6.3025 -2.3131 0.9724
1.9745 6.3152 -2.3132 0.9724
1.9355 6.3276 -2.3133 0.9724
1.8573 6.3518 -2.3136 0.9723
1.8181 6.3635 -2.3137 0.9723
1.7788 6.3749 -2.3138 0.9723
1.7394 6.3862 -2.3140 0.9723
1.7000 6.3971 -2.3141 0.9723
1.6605 6.4078 -2.3142 0.9723
1.6209 6.4183 -2.3143 0.9723
1.4220 6.4668 -2.3148 0.9723
1.3019 6.4928 -2.3151 0.9723
1.1814 6.5166 -2.3154 0.9723
1.1411 6.5240 -2.3154 0.9723
1.1008 6.5312 -2.3155 0.9723
1.0200 6.5447 -2.3157 0.9723
0.9390 6.5572 -2.3158 0.9723
0.8985 6.5630 -2.3159 0.9723
0.8173 6.5740 -2.3160 0.9723
0.7766 6.5791 -2.3160 0.9723
0.6952 6.5885 -2.3161 0.9723
0.4504 6.6105 -2.3164 0.9723
0.3686 6.6157 -2.3165 0.9723
0.2867 6.6199 -2.3165 0.9723
0.2458 6.6216 -2.3165 0.9723
0.2049 6.6230 -2.3165 0.9723
0.1639 6.6242 -2.3166 0.9723
0.1229 6.6251 -2.3166 0.9723
-0.3277 6.6181 -2.3165 0.9723
-0.3686 6.6159 -2.3165 0.9723
-0.4504 6.6107 -2.3165 0.9723
-0.4913 6.6077 -2.3165 0.9723
-0.5321 6.6044 -2.3164 0.9723
-0.5729 6.6009 -2.3164 0.9723
-0.6545 6.5931 -2.3163 0.9723
-0.7360 6.5843 -2.3162 0.9723
-0.8173 6.5744 -2.3161 0.9723
-0.8985 6.5635 -2.3160 0.9723
-0.9391 6.5577 -2.3160 0.9723
-1.1009 6.5317 -2.3157 0.9723
-1.1412 6.5246 -2.3156 0.9723
-1.2217 6.5095 -2.3155 0.9723
-1.2619 6.5016 -2.3154 0.9723
-1.3021 6.4935 -2.3153 0.9723
-1.3822 6.4764 -2.3152 0.9723
-1.5019 6.4489 -2.3149 0.9723
-1.5417 6.4392 -2.3148 0.9723
-1.5814 6.4293 -2.3147 0.9723
-1.6211 6.4191 -2.3146 0.9723
-1.7002 6.3980 -2.3144 0.9723
-1.8576 6.3527 -2.3139 0.9723
-1.8967 6.3408 -2.3138 0.9723
-1.9358 6.3286 -2.3137 0.9723
-1.9748 6.3162 -2.3136 0.9723
-2.0525 6.2905 -2.3133 0.9724
-2.0913 6.2774 -2.3132 0.9724
-2.1299 6.2639 -2.3130 0.9724
-2.2070 6.2364 -2.3128 0.9724
-2.2454 6.2222 -2.3126 0.9724
-2.2837 6.2078 -2.3125 0.9724
-2.3219 6.1932 -2.3123 0.9724
-2.3600 6.1783 -2.3122 0.9724
-2.3980 6.1632 -2.3120 0.9724
-2.4359 6.1478 -2.3119 0.9724
-2.5490 6.1003 -2.3114 0.9724
-2.6983 6.0337 -2.3107 0.9724
-2.7353 6.0164 -2.3105 0.9724
-2.7723 5.9989 -2.3104 0.9724
-2.8091 5.9812 -2.3102 0.9724
-2.8824 5.9450 -2.3098 0.9724
-2.9552 5.9079 -2.3094 0.9724
-2.9915 5.8891 -2.3092 0.9724
-3.0276 5.8700 -2.3090 0.9724
-3.0636 5.8506 -2.3088 0.9724
-3.1351 5.8113 -2.3084 0.9724
-3.1707 5.7913 -2.3082 0.9724
-3.2062 5.7711 -2.3080 0.9724
-3.2415 5.7506 -2.3078 0.9724
-3.2767 5.7299 -2.3076 0.9724
-3.3467 5.6879 -2.3072 0.9724
-3.3815 5.6665 -2.3070 0.9724
-3.5193 5.5790 -2.3061 0.9724
-3.5534 5.5566 -2.3059 0.9724
-3.6211 5.5111 -2.3054 0.9724
-3.7547 5.4176 -2.3044 0.9725
-3.7878 5.3937 -2.3042 0.9725
-3.8206 5.3696 -2.3039 0.9725
-3.8859 5.3208 -2.3034 0.9725
-3.9183 5.2961 -2.3032 0.9725
-3.9826 5.2460 -2.3027 0.9725
-4.0779 5.1695 -2.3019 0.9725
-4.1406 5.1175 -2.3014 0.9725
-4.1716 5.0912 -2.3011 0.9725
-4.2112 5.0751 -2.3056 0.9724
-4.2333 5.0380 -2.3005 0.9725
-4.3715 4.9486 -2.3084 0.9724
-4.4961 4.9646 -2.3416 0.9720
-4.5642 4.9775 -2.3610 0.9718
-4.6333 4.9906 -2.3807 0.9716
-4.7037 5.0039 -2.4009 0.9713
-4.8994 5.0221 -2.4528 0.9707
-5.0490 4.8650 -2.4512 0.9707
-5.0783 4.8331 -2.4509 0.9707
-5.1363 4.7686 -2.4502 0.9707
-5.1935 4.7034 -2.4496 0.9707
-5.2498 4.6375 -2.4489 0.9708
-5.3053 4.5710 -2.4482 0.9708
-5.3327 4.5375 -2.4479 0.9708
-5.3599 4.5037 -2.4475 0.9708
-5.4136 4.4358 -2.4468 0.9708
-5.4402 4.4017 -2.4465 0.9708
-5.4665 4.3673 -2.4461 0.9708
-5.5185 4.2981 -2.4454 0.9708
-5.6198 4.1578 -2.4440 0.9708
-5.6446 4.1224 -2.4436 0.9708
-5.6691 4.0868 -2.4432 0.9708
-5.6934 4.0510 -2.4429 0.9708
-5.7175 4.0151 -2.4425 0.9708
-5.7413 3.9791 -2.4421 0.9708
-5.7650 3.9429 -2.4418 0.9708
-5.8344 3.8335 -2.4406 0.9709
-5.8796 3.7599 -2.4399 0.9709
-5.9018 3.7229 -2.4395 0.9709
-5.9238 3.6857 -2.4391 0.9709
-5.9455 3.6485 -2.4387 0.9709
-5.9670 3.6110 -2.4383 0.9709
-5.9883 3.5735 -2.4380 0.9709
-6.0093 3.5359 -2.4376 0.9709
-6.0301 3.4981 -2.4372 0.9709
-6.0709 3.4221 -2.4364 0.9709
-6.0910 3.3840 -2.4360 0.9709
-6.1877 3.1914 -2.4340 0.9709
-6.2063 3.1526 -2.4336 0.9709
-6.2246 3.1136 -2.4332 0.9709
-6.2427 3.0746 -2.4328 0.9709
-6.2606 3.0354 -2.4324 0.9709
-6.2956 2.9568 -2.4316 0.9710
-6.3295 2.8777 -2.4308 0.9710
-6.3786 2.7584 -2.4296 0.9710
-6.3944 2.7184 -2.4291 0.9710
-6.4254 2.6382 -2.4283 0.9710
-6.4405 2.5980 -2.4279 0.9710
-6.4553 2.5577 -2.4275 0.9710
-6.4842 2.4768 -2.4267 0.9710
-6.4983 2.4362 -2.4262 0.9710
-6.5121 2.3956 -2.4258 0.9710
-6.5257 2.3548 -2.4254 0.9710
-6.5520 2.2732 -2.4246 0.9710
-6.5773 2.1912 -2.4237 0.9711
