ply
format ascii 1.0
element vertex 1597
property float32 x
property float32 y
property float32 z
property float32 I
end_header
-6.5546 -4.9124 -2.3940 0.9664
-6.5241 -4.9529 -2.3940 0.9664
-6.4933 -4.9931 -2.3940 0.9664
-6.4623 -5.0332 -2.3940 0.9664
-6.3995 -5.1127 -2.3940 0.9664
-6.3678 -5.1522 -2.3940 0.9664
-6.3036 -5.2305 -2.3940 0.9664
-6.2711 -5.2694 -2.3940 0.9664
-6.2384 -5.3081 -2.3940 0.9664
-6.2054 -5.3465 -2.3940 0.9664
-6.1388 -5.4229 -2.3940 0.9664
-6.1051 -5.4607 -2.3940 0.9664
-6.0371 -5.5358 -2.3940 0.9664
-6.0027 -5.5730 -2.3940 0.9664
-5.9333 -5.6469 -2.3940 0.9664
-5.8983 -5.6834 -2.3940 0.9664
-5.8630 -5.7198 -2.3940 0.9664
-5.8275 -5.7559 -2.3940 0.9664
-5.7918 -5.7919 -2.3940 0.9664
-5.6468 -5.9333 -2.3940 0.9664
-5.4227 -6.1387 -2.3939 0.9664
-5.3847 -6.1721 -2.3939 0.9664
-5.2304 -6.3034 -2.3939 0.9664
-5.1913 -6.3356 -2.3939 0.9664
-5.1520 -6.3676 -2.3939 0.9664
-5.1125 -6.3993 -2.3939 0.9664
-5.0729 -6.4308 -2.3939 0.9664
-4.9929 -6.4930 -2.3939 0.9664
-4.9527 -6.5238 -2.3939 0.9664
-4.8716 -6.5846 -2.3939 0.9664
-4.7898 -6.6443 -2.3939 0.9664
-4.7486 -6.6737 -2.3939 0.9664
-4.6657 -6.7320 -2.3939 0.9664
-4.6240 -6.7607 -2.3939 0.9664
-4.5400 -6.8174 -2.3939 0.9664
-4.4553 -6.8730 -2.3939 0.9664
-4.3271 -6.9545 -2.3939 0.9664
-4.2840 -6.9811 -2.3939 0.9664
-4.1537 -7.0594 -2.3939 0.9664
-4.0220 -7.1352 -2.3939 0.9664
-3.9779 -7.1599 -2.3939 0.9664
-3.8890 -7.2086 -2.3939 0.9664
-3.8443 -7.2325 -2.3939 0.9664
-3.6642 -7.3254 -2.3939 0.9664
-3.6189 -7.3479 -2.3939 0.9664
-3.4360 -7.4352 -2.3939 0.9664
-3.2975 -7.4976 -2.3939 0.9664
-3.2511 -7.5179 -2.3939 0.9664
-3.0641 -7.5960 -2.3939 0.9664
-3.0171 -7.6148 -2.3939 0.9664
-2.9700 -7.6333 -2.3939 0.9664
-2.9227 -7.6515 -2.3939 0.9664
-2.8753 -7.6695 -2.3939 0.9664
-2.7802 -7.7045 -2.3939 0.9664
-2.7326 -7.7215 -2.3939 0.9664
-2.6847 -7.7383 -2.3939 0.9664
-2.5407 -7.7867 -2.3939 0.9664
-2.4925 -7.8023 -2.3939 0.9664
-2.4442 -7.8176 -2.3939 0.9664
-2.3958 -7.8325 -2.3939 0.9664
-2.3473 -7.8472 -2.3939 0.9664
-2.2988 -7.8616 -2.3939 0.9664
-2.2501 -7.8756 -2.3939 0.9664
-2.2014 -7.8894 -2.3939 0.9664
-2.1036 -7.9161 -2.3939 0.9664
-2.0546 -7.9289 -2.3939 0.9664
-1.9564 -7.9537 -2.3939 0.9664
-1.9071 -7.9657 -2.3939 0.9664
-1.8085 -7.9887 -2.3939 0.9664
-1.7096 -8.0104 -2.3939 0.9664
-1.6600 -8.0209 -2.3939 0.9664
-1.6104 -8.0310 -2.3939 0.9664
-1.5109 -8.0503 -2.3939 0.9664
-1.4611 -8.0595 -2.3939 0.9664
-1.2613 -8.0932 -2.3940 0.9664
-1.2112 -8.1008 -2.3940 0.9664
-1.0607 -8.1220 -2.3940 0.9664
-0.9602 -8.1345 -2.3940 0.9664
-0.9099 -8.1403 -2.3940 0.9664
-0.8596 -8.1457 -2.3940 0.9664
-0.8091 -8.1509 -2.3940 0.9664
-0.7587 -8.1558 -2.3940 0.9664
-0.7083 -8.1603 -2.3940 0.9664
-0.6578 -8.1645 -2.3940 0.9664
-0.5568 -8.1721 -2.3940 0.9664
-0.5062 -8.1754 -2.3940 0.9664
-0.4557 -8.1783 -2.3940 0.9664
-0.4051 -8.1810 -2.3940 0.9664
-0.2532 -8.1871 -2.3940 0.9664
0.0507 -8.1910 -2.3940 0.9664
0.1013 -8.1905 -2.3940 0.9664
0.1520 -8.1898 -2.3940 0.9664
0.2026 -8.1887 -2.3940 0.9664
0.2532 -8.1873 -2.3940 0.9664
0.3545 -8.1835 -2.3940 0.9664
0.4557 -8.1786 -2.3941 0.9664
0.5063 -8.1756 -2.3941 0.9664
0.5568 -8.1723 -2.3941 0.9664
0.6073 -8.1687 -2.3941 0.9664
0.6579 -8.1648 -2.3941 0.9664
0.7083 -8.1606 -2.3941 0.9664
0.9603 -8.1349 -2.3941 0.9664
1.0106 -8.1288 -2.3941 0.9664
1.0608 -8.1224 -2.3941 0.9664
1.1111 -8.1157 -2.3941 0.9664
1.1612 -8.1087 -2.3941 0.9664
1.2113 -8.1014 -2.3941 0.9664
1.4114 -8.0690 -2.3941 0.9664
1.5111 -8.0509 -2.3941 0.9664
1.5608 -8.0414 -2.3941 0.9664
1.6105 -8.0317 -2.3941 0.9664
1.6602 -8.0216 -2.3941 0.9664
1.7593 -8.0004 -2.3942 0.9664
2.1528 -7.9038 -2.3942 0.9664
2.2016 -7.8903 -2.3942 0.9664
2.2504 -7.8766 -2.3942 0.9664
2.2991 -7.8625 -2.3942 0.9664
2.3961 -7.8335 -2.3942 0.9664
2.4446 -7.8186 -2.3942 0.9664
2.5411 -7.7878 -2.3942 0.9664
2.5892 -7.7719 -2.3942 0.9664
2.6372 -7.7558 -2.3942 0.9664
2.6851 -7.7393 -2.3942 0.9664
2.7329 -7.7226 -2.3943 0.9664
2.9704 -7.6345 -2.3943 0.9664
3.0646 -7.5972 -2.3943 0.9664
3.2981 -7.4989 -2.3943 0.9664
3.3444 -7.4784 -2.3943 0.9664
3.4366 -7.4365 -2.3943 0.9664
3.5284 -7.3935 -2.3943 0.9664
3.5740 -7.3715 -2.3943 0.9664
3.6196 -7.3493 -2.3944 0.9664
3.6650 -7.3268 -2.3944 0.9664
3.7102 -7.3040 -2.3944 0.9664
3.8003 -7.2576 -2.3944 0.9664
3.8451 -7.2339 -2.3944 0.9664
3.8898 -7.2100 -2.3944 0.9664
3.9343 -7.1859 -2.3944 0.9664
3.9787 -7.1614 -2.3944 0.9664
4.0229 -7.1367 -2.3944 0.9664
4.1109 -7.0864 -2.3944 0.9664
4.1982 -7.0351 -2.3944 0.9664
4.3280 -6.9560 -2.3944 0.9664
4.4138 -6.9020 -2.3945 0.9664
4.4988 -6.8469 -2.3945 0.9664
4.5411 -6.8190 -2.3945 0.9664
4.5832 -6.7908 -2.3945 0.9664
4.6669 -6.7336 -2.3945 0.9664
4.7910 -6.6459 -2.3945 0.9664
4.8321 -6.6162 -2.3945 0.9664
4.8521 -6.5582 -2.3843 0.9666
4.8521 -6.4741 -2.3646 0.9668
4.8521 -6.3913 -2.3453 0.9671
4.8521 -6.3099 -2.3264 0.9674
4.8521 -6.1510 -2.2898 0.9679
4.8521 -5.9969 -2.2546 0.9684
4.8266 -5.8167 -2.2091 0.9690
4.8876 -5.8167 -2.2206 0.9688
4.9355 -5.8005 -2.2260 0.9688
4.9573 -5.6117 -2.1884 0.9693
4.9573 -5.4738 -2.1584 0.9697
4.9082 -5.3526 -2.1226 0.9702
4.9573 -5.0814 -2.0748 0.9708
4.9573 -5.0190 -2.0618 0.9710
4.9573 -4.8963 -2.0365 0.9714
4.9573 -4.8362 -2.0241 0.9716
4.9128 -4.5611 -1.9593 0.9725
4.9141 -4.4504 -1.9377 0.9727
4.9148 -4.3961 -1.9272 0.9729
4.8004 -4.1880 -1.8619 0.9738
4.8186 -4.1517 -1.8590 0.9738
4.8521 -4.1286 -1.8620 0.9738
4.8521 -4.0771 -1.8523 0.9739
4.8522 -4.0262 -1.8428 0.9741
4.8522 -3.9259 -1.8242 0.9743
4.8522 -3.8276 -1.8063 0.9746
4.8522 -3.7791 -1.7975 0.9747
4.8522 -3.6836 -1.7805 0.9749
4.8522 -3.5437 -1.7561 0.9753
4.8522 -3.4979 -1.7482 0.9754
4.8522 -3.3629 -1.7255 0.9757
4.8522 -3.2748 -1.7109 0.9759
4.8522 -3.2313 -1.7038 0.9760
4.8522 -3.1454 -1.6901 0.9762
4.8522 -3.1029 -1.6833 0.9763
4.8522 -3.0190 -1.6703 0.9765
4.8522 -2.8956 -1.6515 0.9767
4.8522 -2.8550 -1.6454 0.9768
4.8522 -2.8148 -1.6395 0.9769
4.8522 -2.7748 -1.6337 0.9770
4.8522 -2.7351 -1.6279 0.9771
4.8522 -2.6177 -1.6114 0.9773
4.8522 -2.5791 -1.6060 0.9774
4.8522 -2.5026 -1.5957 0.9775
4.8522 -2.4271 -1.5857 0.9776
4.8522 -2.3897 -1.5808 0.9777
4.8522 -2.3526 -1.5761 0.9778
4.8691 -2.3237 -1.5769 0.9778
4.9476 -2.3237 -1.5976 0.9775
5.0282 -2.3237 -1.6189 0.9772
5.1110 -2.3237 -1.6409 0.9769
5.1960 -2.3237 -1.6636 0.9766
5.2834 -2.3237 -1.6869 0.9762
5.4659 -2.3237 -1.7359 0.9756
5.7428 -2.3165 -1.8099 0.9745
5.7428 -2.2753 -1.8054 0.9746
6.3045 -2.3636 -1.9679 0.9723
6.7308 -2.4288 -2.0914 0.9706
7.1431 -2.4288 -2.2051 0.9690
7.2276 -2.4078 -2.2265 0.9688
7.2423 -2.3630 -2.2265 0.9688
7.2710 -2.2733 -2.2266 0.9688
7.4275 -2.2719 -2.2701 0.9681
7.8627 -2.2991 -2.3943 0.9664
7.8767 -2.2504 -2.3942 0.9664
7.8905 -2.2017 -2.3942 0.9664
7.9171 -2.1039 -2.3942 0.9664
7.9782 -1.8581 -2.3942 0.9664
8.0112 -1.7097 -2.3942 0.9664
8.0317 -1.6105 -2.3941 0.9664
8.0415 -1.5608 -2.3941 0.9664
8.0509 -1.5110 -2.3941 0.9664
8.0602 -1.4612 -2.3941 0.9664
8.0858 -1.3114 -2.3941 0.9664
8.0937 -1.2614 -2.3941 0.9664
8.1086 -1.1612 -2.3941 0.9664
8.1156 -1.1110 -2.3941 0.9664
8.1348 -0.9603 -2.3941 0.9664
8.1405 -0.9099 -2.3940 0.9664
8.1460 -0.8596 -2.3940 0.9664
8.1511 -0.8092 -2.3940 0.9664
8.1560 -0.7587 -2.3940 0.9664
8.1605 -0.7083 -2.3940 0.9664
8.1720 -0.5568 -2.3940 0.9664
8.1783 -0.4557 -2.3940 0.9664
8.1810 -0.4051 -2.3940 0.9664
8.1855 -0.3039 -2.3940 0.9664
8.1872 -0.2532 -2.3940 0.9664
8.1898 -0.1520 -2.3941 0.9664
8.1912 -0.0507 -2.3941 0.9664
8.1914 0.0000 -2.3941 0.9664
8.1908 0.1013 -2.3941 0.9664
8.1876 0.2533 -2.3941 0.9664
8.1761 0.5063 -2.3942 0.9664
8.1612 0.7084 -2.3942 0.9664
8.1567 0.7588 -2.3942 0.9664
8.1230 1.0609 -2.3943 0.9664
8.1164 1.1111 -2.3943 0.9664
8.1094 1.1613 -2.3943 0.9664
8.1021 1.2114 -2.3943 0.9664
8.0945 1.2615 -2.3943 0.9664
8.0783 1.3615 -2.3943 0.9664
8.0609 1.4614 -2.3944 0.9664
8.0517 1.5112 -2.3944 0.9664
8.0422 1.5610 -2.3944 0.9664
8.0325 1.6107 -2.3944 0.9664
8.0223 1.6603 -2.3944 0.9664
8.0013 1.7594 -2.3944 0.9664
7.9789 1.8583 -2.3944 0.9664
7.9673 1.9076 -2.3944 0.9664
7.9554 1.9568 -2.3944 0.9664
7.3077 2.0391 -2.2174 0.9689
7.3077 2.0879 -2.2213 0.9688
7.1410 2.0881 -2.1745 0.9695
6.6784 2.0881 -2.0451 0.9713
6.2152 2.0279 -1.9108 0.9731
6.1790 2.0585 -1.9035 0.9732
5.6793 1.9311 -1.7532 0.9753
5.6033 1.9829 -1.7372 0.9755
5.3904 1.9829 -1.6787 0.9763
5.2892 1.9829 -1.6509 0.9767
5.1913 1.9829 -1.6242 0.9771
4.8294 1.9829 -1.5258 0.9785
4.7522 2.0551 -1.5132 0.9787
4.7522 2.1253 -1.5215 0.9785
4.7522 2.1606 -1.5257 0.9785
4.7522 2.1962 -1.5301 0.9784
4.7522 2.2319 -1.5345 0.9784
4.7522 2.3405 -1.5482 0.9782
4.7522 2.3771 -1.5530 0.9781
4.7522 2.4511 -1.5628 0.9780
4.7522 2.5638 -1.5782 0.9777
4.7522 2.6788 -1.5944 0.9775
4.7522 2.7176 -1.6000 0.9774
4.7522 2.7568 -1.6057 0.9774
4.7522 2.7962 -1.6115 0.9773
4.7522 2.8359 -1.6174 0.9772
4.7522 2.8759 -1.6235 0.9771
4.7522 2.9568 -1.6358 0.9769
4.7522 2.9977 -1.6422 0.9769
4.7522 3.0390 -1.6486 0.9768
4.7522 3.0806 -1.6552 0.9767
4.7522 3.1225 -1.6619 0.9766
4.7522 3.2503 -1.6827 0.9763
4.7522 3.3373 -1.6972 0.9761
4.7522 3.4707 -1.7199 0.9758
4.7521 3.5616 -1.7357 0.9756
4.7521 3.6077 -1.7438 0.9754
4.7521 3.6543 -1.7521 0.9753
4.7100 3.8109 -1.7708 0.9751
4.7004 3.8514 -1.7760 0.9750
4.8573 4.0305 -1.8447 0.9740
4.8573 4.1330 -1.8640 0.9738
4.8573 4.1850 -1.8739 0.9736
4.8573 4.2908 -1.8942 0.9734
4.8573 4.3446 -1.9047 0.9732
4.8082 4.3545 -1.8959 0.9733
4.8538 4.4508 -1.9248 0.9729
4.8083 4.5762 -1.9400 0.9727
4.8062 4.7471 -1.9744 0.9722
4.8572 4.9177 -2.0202 0.9716
4.8565 4.9781 -2.0326 0.9714
4.8572 5.1673 -2.0727 0.9709
4.8572 5.2318 -2.0865 0.9707
4.8572 5.3633 -2.1148 0.9703
4.7773 5.4759 -2.1239 0.9702
4.7180 5.4759 -2.1126 0.9703
4.7521 5.6554 -2.1590 0.9697
4.7521 5.8733 -2.2081 0.9690
4.7521 5.9481 -2.2251 0.9688
4.7520 6.3406 -2.3159 0.9675
4.7520 6.5919 -2.3751 0.9667
4.7493 6.6747 -2.3942 0.9664
4.4559 6.8738 -2.3942 0.9664
4.3704 6.9283 -2.3942 0.9664
4.3275 6.9552 -2.3941 0.9664
4.1977 7.0342 -2.3941 0.9664
4.0664 7.1108 -2.3941 0.9664
4.0223 7.1357 -2.3941 0.9664
3.9781 7.1604 -2.3941 0.9664
3.8892 7.2090 -2.3940 0.9664
3.8445 7.2329 -2.3940 0.9664
3.7547 7.2798 -2.3940 0.9664
3.6190 7.3481 -2.3940 0.9664
3.5278 7.3922 -2.3939 0.9664
3.4820 7.4139 -2.3939 0.9664
3.3900 7.4563 -2.3939 0.9664
3.2975 7.4976 -2.3939 0.9664
3.2044 7.5377 -2.3938 0.9664
3.1578 7.5573 -2.3938 0.9664
3.0640 7.5957 -2.3938 0.9664
2.9227 7.6514 -2.3939 0.9664
2.8753 7.6694 -2.3939 0.9664
2.8278 7.6871 -2.3939 0.9664
2.7325 7.7215 -2.3939 0.9664
2.6847 7.7382 -2.3939 0.9664
2.6369 7.7547 -2.3939 0.9664
2.5889 7.7709 -2.3939 0.9664
2.5407 7.7868 -2.3939 0.9664
2.4925 7.8023 -2.3939 0.9664
2.4442 7.8176 -2.3939 0.9664
2.3474 7.8473 -2.3939 0.9664
2.2988 7.8617 -2.3939 0.9664
2.2014 7.8896 -2.3940 0.9664
2.0546 7.9291 -2.3940 0.9664
2.0056 7.9417 -2.3940 0.9664
1.9073 7.9659 -2.3940 0.9664
1.8086 7.9889 -2.3940 0.9664
1.7592 8.0000 -2.3940 0.9664
1.7096 8.0107 -2.3940 0.9664
1.6601 8.0212 -2.3940 0.9664
1.4612 8.0599 -2.3941 0.9664
1.4113 8.0688 -2.3941 0.9664
1.3114 8.0857 -2.3941 0.9664
1.2113 8.1013 -2.3941 0.9664
1.1612 8.1087 -2.3941 0.9664
1.0608 8.1224 -2.3941 0.9664
1.0106 8.1289 -2.3941 0.9664
0.9100 8.1408 -2.3941 0.9664
0.8092 8.1515 -2.3941 0.9664
0.7588 8.1564 -2.3942 0.9664
0.7084 8.1609 -2.3942 0.9664
0.6074 8.1691 -2.3942 0.9664
0.5568 8.1727 -2.3942 0.9664
0.5063 8.1760 -2.3942 0.9664
0.4051 8.1818 -2.3942 0.9664
0.3546 8.1841 -2.3942 0.9664
0.2533 8.1879 -2.3942 0.9664
0.2027 8.1894 -2.3942 0.9664
0.1013 8.1913 -2.3942 0.9664
0.0507 8.1918 -2.3943 0.9664
-0.1520 8.1906 -2.3943 0.9664
-0.2026 8.1896 -2.3943 0.9664
-0.4557 8.1795 -2.3943 0.9664
-0.6074 8.1698 -2.3944 0.9664
-0.8093 8.1523 -2.3944 0.9664
-1.0609 8.1236 -2.3944 0.9664
-1.2115 8.1026 -2.3945 0.9664
-1.2616 8.0950 -2.3945 0.9664
-1.3616 8.0788 -2.3945 0.9664
-1.4116 8.0702 -2.3945 0.9664
-1.5113 8.0522 -2.3945 0.9664
-1.5610 8.0428 -2.3945 0.9664
-1.6108 8.0330 -2.3945 0.9664
-1.6604 8.0229 -2.3945 0.9664
-1.7100 8.0125 -2.3946 0.9664
-1.7596 8.0018 -2.3946 0.9664
-1.8090 7.9908 -2.3946 0.9664
-1.8584 7.9795 -2.3946 0.9664
-1.9077 7.9679 -2.3946 0.9664
-1.9570 7.9560 -2.3946 0.9664
-2.0061 7.9437 -2.3946 0.9664
-2.3481 7.8497 -2.3947 0.9664
-2.5897 7.7735 -2.3947 0.9664
-2.6377 7.7573 -2.3947 0.9664
-2.6857 7.7409 -2.3947 0.9664
-2.8288 7.6899 -2.3948 0.9664
-2.8763 7.6722 -2.3948 0.9664
-2.9710 7.6362 -2.3948 0.9664
-3.1122 7.5798 -2.3948 0.9664
-3.2523 7.5209 -2.3948 0.9664
-3.2988 7.5006 -2.3949 0.9664
-3.3451 7.4801 -2.3949 0.9664
-3.4374 7.4382 -2.3949 0.9664
-3.5292 7.3952 -2.3949 0.9664
-3.5749 7.3733 -2.3949 0.9664
-3.6204 7.3511 -2.3949 0.9664
-3.7111 7.3058 -2.3949 0.9664
-3.8012 7.2594 -2.3950 0.9664
-3.8907 7.2119 -2.3950 0.9664
-3.9353 7.1877 -2.3950 0.9664
-4.3721 6.9310 -2.3951 0.9664
-4.4149 6.9039 -2.3951 0.9664
-4.6263 6.7642 -2.3951 0.9664
-4.7923 6.6478 -2.3952 0.9664
-4.8334 6.6181 -2.3952 0.9664
-4.8742 6.5881 -2.3952 0.9664
-4.9149 6.5579 -2.3952 0.9664
-4.9957 6.4966 -2.3952 0.9664
-5.0357 6.4656 -2.3952 0.9664
-5.0757 6.4344 -2.3953 0.9664
-5.1154 6.4029 -2.3953 0.9664
-5.1549 6.3712 -2.3953 0.9664
-5.1942 6.3392 -2.3953 0.9664
-5.3110 6.2418 -2.3953 0.9664
-5.3495 6.2089 -2.3953 0.9664
-5.3878 6.1757 -2.3953 0.9664
-5.4260 6.1423 -2.3953 0.9664
-5.4639 6.1086 -2.3954 0.9664
-5.5390 6.0407 -2.3954 0.9664
-5.5763 6.0063 -2.3954 0.9664
-5.7232 5.8666 -2.3954 0.9664
-5.7953 5.7954 -2.3954 0.9664
-5.8310 5.7594 -2.3954 0.9664
-5.9368 5.6502 -2.3954 0.9664
-6.0062 5.5763 -2.3954 0.9664
-6.0747 5.5015 -2.3953 0.9664
-6.1086 5.4638 -2.3953 0.9664
-6.1422 5.4259 -2.3953 0.9664
-6.2088 5.3495 -2.3953 0.9664
-6.2418 5.3110 -2.3953 0.9664
-6.2745 5.2723 -2.3953 0.9664
-6.3069 5.2334 -2.3953 0.9664
-6.3392 5.1942 -2.3953 0.9664
-6.3712 5.1549 -2.3953 0.9664
-6.4344 5.0757 -2.3953 0.9664
-6.4656 5.0358 -2.3953 0.9664
-6.5579 4.9149 -2.3952 0.9664
-6.5881 4.8743 -2.3952 0.9664
-6.7066 4.7098 -2.3952 0.9664
-6.7356 4.6682 -2.3952 0.9664
-6.7928 4.5845 -2.3952 0.9664
-6.8210 4.5424 -2.3952 0.9664
-6.8489 4.5001 -2.3952 0.9664
-6.9040 4.4151 -2.3952 0.9664
-6.9580 4.3293 -2.3951 0.9664
-7.0371 4.1994 -2.3951 0.9664
-7.0885 4.1121 -2.3951 0.9664
-7.1137 4.0681 -2.3951 0.9664
-7.1388 4.0240 -2.3951 0.9664
-7.1635 3.9798 -2.3951 0.9664
-7.2360 3.8462 -2.3951 0.9664
-7.2596 3.8013 -2.3951 0.9664
-7.2830 3.7564 -2.3950 0.9664
-7.3060 3.7113 -2.3950 0.9664
-7.3955 3.5294 -2.3950 0.9664
-7.4385 3.4376 -2.3950 0.9664
-7.4804 3.3453 -2.3950 0.9664
-7.5212 3.2525 -2.3950 0.9664
-7.5412 3.2059 -2.3950 0.9664
-7.5608 3.1592 -2.3950 0.9664
-7.5802 3.1124 -2.3949 0.9664
-7.6366 2.9712 -2.3949 0.9664
-7.6548 2.9239 -2.3949 0.9664
-7.7578 2.6379 -2.3949 0.9664
-7.7898 2.5417 -2.3949 0.9664
-7.8206 2.4452 -2.3949 0.9664
-7.8356 2.3968 -2.3948 0.9664
-7.8924 2.2022 -2.3948 0.9664
-7.9058 2.1533 -2.3948 0.9664
-7.9318 2.0554 -2.3948 0.9664
-7.9443 2.0063 -2.3948 0.9664
-7.9566 1.9571 -2.3948 0.9664
-7.9685 1.9079 -2.3948 0.9664
-7.9914 1.8092 -2.3948 0.9664
-8.0024 1.7597 -2.3948 0.9664
-8.0132 1.7102 -2.3947 0.9664
-8.0235 1.6606 -2.3947 0.9664
-8.0337 1.6109 -2.3947 0.9664
-8.0434 1.5612 -2.3947 0.9664
-8.0529 1.5114 -2.3947 0.9664
-8.0621 1.4616 -2.3947 0.9664
-8.0710 1.4117 -2.3947 0.9664
-8.0795 1.3618 -2.3947 0.9664
-8.0957 1.2617 -2.3947 0.9664
-8.1033 1.2116 -2.3947 0.9664
-8.1176 1.1113 -2.3947 0.9664
-8.1243 1.0611 -2.3947 0.9664
-8.1307 1.0108 -2.3947 0.9664
-8.1368 0.9605 -2.3946 0.9664
-8.1480 0.8598 -2.3946 0.9664
-8.1531 0.8094 -2.3946 0.9664
-8.1667 0.6580 -2.3946 0.9664
-8.1706 0.6075 -2.3946 0.9664
-8.1741 0.5569 -2.3946 0.9664
-8.1873 0.3040 -2.3946 0.9664
-8.1890 0.2533 -2.3946 0.9664
-8.1923 0.1013 -2.3945 0.9664
-7.9726 0.0000 -2.3945 0.9673
-7.9724 -0.0493 -2.3945 0.9673
-7.9719 -0.0986 -2.3945 0.9673
-7.9711 -0.1479 -2.3945 0.9673
-7.9700 -0.1972 -2.3945 0.9673
-7.9687 -0.2465 -2.3945 0.9673
-7.9627 -0.3943 -2.3945 0.9673
-7.9600 -0.4435 -2.3945 0.9673
-7.9571 -0.4927 -2.3945 0.9673
-7.9539 -0.5419 -2.3945 0.9673
-7.9504 -0.5911 -2.3945 0.9673
-7.9466 -0.6402 -2.3945 0.9673
-7.9424 -0.6894 -2.3945 0.9673
-7.9380 -0.7385 -2.3944 0.9673
-7.9333 -0.7875 -2.3944 0.9673
-7.9282 -0.8366 -2.3944 0.9673
-7.8916 -1.1301 -2.3944 0.9673
-7.8692 -1.2763 -2.3944 0.9673
-7.8352 -1.4706 -2.3944 0.9673
-7.8065 -1.6156 -2.3943 0.9673
-7.7859 -1.7121 -2.3943 0.9673
-7.7527 -1.8562 -2.3943 0.9673
-7.7411 -1.9041 -2.3943 0.9673
-7.7292 -1.9519 -2.3943 0.9673
-7.7169 -1.9997 -2.3943 0.9673
-7.7044 -2.0474 -2.3943 0.9673
-7.6916 -2.0950 -2.3943 0.9673
-7.6650 -2.1899 -2.3943 0.9673
-7.6513 -2.2373 -2.3943 0.9673
-7.6231 -2.3317 -2.3943 0.9673
-7.6085 -2.3788 -2.3943 0.9673
-7.5936 -2.4258 -2.3943 0.9673
-7.5630 -2.5196 -2.3943 0.9673
-7.5472 -2.5663 -2.3942 0.9673
-7.5149 -2.6594 -2.3942 0.9673
-7.4983 -2.7058 -2.3942 0.9673
-7.4642 -2.7983 -2.3942 0.9673
-7.4467 -2.8444 -2.3942 0.9673
-7.4110 -2.9363 -2.3942 0.9673
-7.3927 -2.9821 -2.3942 0.9673
-7.3741 -3.0278 -2.3942 0.9673
-7.2968 -3.2092 -2.3942 0.9673
-7.2360 -3.3440 -2.3942 0.9673
-7.1511 -3.5219 -2.3942 0.9673
-7.1069 -3.6101 -2.3941 0.9673
-7.0617 -3.6977 -2.3941 0.9673
-7.0387 -3.7413 -2.3941 0.9673
-6.9919 -3.8280 -2.3941 0.9673
-6.9440 -3.9142 -2.3941 0.9673
-6.9196 -3.9571 -2.3941 0.9673
-6.8701 -4.0423 -2.3941 0.9673
-6.8450 -4.0848 -2.3941 0.9673
-6.7680 -4.2110 -2.3941 0.9673
-6.6887 -4.3358 -2.3941 0.9673
-6.6071 -4.4592 -2.3941 0.9673
-6.5793 -4.4999 -2.3941 0.9673
-6.5232 -4.5809 -2.3941 0.9673
-6.4947 -4.6212 -2.3941 0.9673
-6.4660 -4.6613 -2.3941 0.9673
-6.4370 -4.7012 -2.3941 0.9673
-6.3784 -4.7804 -2.3940 0.9673
-6.3487 -4.8197 -2.3940 0.9673
-6.2582 -4.9367 -2.3940 0.9673
-6.1655 -5.0519 -2.3940 0.9673
-6.1341 -5.0899 -2.3940 0.9673
-6.1025 -5.1278 -2.3940 0.9673
-6.0707 -5.1654 -2.3940 0.9673
-6.0063 -5.2401 -2.3940 0.9673
-5.9738 -5.2771 -2.3940 0.9673
-5.9410 -5.3139 -2.3940 0.9673
-5.9080 -5.3506 -2.3940 0.9673
-5.8077 -5.4592 -2.3940 0.9673
-5.7739 -5.4951 -2.3940 0.9673
-5.7398 -5.5306 -2.3940 0.9673
-5.7054 -5.5660 -2.3940 0.9673
-5.6709 -5.6012 -2.3940 0.9673
-5.6362 -5.6362 -2.3940 0.9673
-5.6012 -5.6709 -2.3940 0.9673
-5.5306 -5.7397 -2.3940 0.9673
-5.4950 -5.7738 -2.3940 0.9673
-5.4592 -5.8077 -2.3940 0.9673
-5.4232 -5.8413 -2.3940 0.9673
-5.3505 -5.9079 -2.3940 0.9673
-5.2027 -6.0385 -2.3940 0.9673
-5.1653 -6.0705 -2.3940 0.9673
-5.1276 -6.1024 -2.3940 0.9673
-5.0135 -6.1964 -2.3940 0.9673
-4.9365 -6.2579 -2.3940 0.9673
-4.8977 -6.2883 -2.3940 0.9673
-4.8587 -6.3185 -2.3940 0.9673
-4.7406 -6.4076 -2.3939 0.9673
-4.7010 -6.4368 -2.3939 0.9673
-4.6210 -6.4944 -2.3939 0.9673
-4.5403 -6.5510 -2.3939 0.9673
-4.4997 -6.5790 -2.3939 0.9673
-4.4180 -6.6341 -2.3939 0.9673
-4.3769 -6.6613 -2.3939 0.9673
-4.3356 -6.6883 -2.3939 0.9673
-4.1688 -6.7935 -2.3939 0.9673
-4.0845 -6.8445 -2.3939 0.9673
-3.9139 -6.9434 -2.3939 0.9673
-3.7844 -7.0148 -2.3939 0.9673
-3.7410 -7.0381 -2.3939 0.9673
-3.6974 -7.0611 -2.3939 0.9673
-3.6536 -7.0838 -2.3939 0.9673
-3.6098 -7.1063 -2.3939 0.9673
-3.5216 -7.1504 -2.3939 0.9673
-3.3884 -7.2145 -2.3939 0.9673
-3.2539 -7.2761 -2.3939 0.9673
-3.1637 -7.3158 -2.3939 0.9673
-3.0729 -7.3544 -2.3939 0.9673
-3.0274 -7.3732 -2.3939 0.9673
-2.9818 -7.3918 -2.3939 0.9673
-2.8901 -7.4281 -2.3939 0.9673
-2.8441 -7.4459 -2.3939 0.9673
-2.7980 -7.4633 -2.3939 0.9673
-2.7518 -7.4805 -2.3939 0.9673
-2.7055 -7.4974 -2.3939 0.9673
-2.6125 -7.5303 -2.3939 0.9673
-2.4724 -7.5774 -2.3939 0.9673
-2.3785 -7.6075 -2.3939 0.9673
-2.3314 -7.6220 -2.3939 0.9673
-2.2842 -7.6363 -2.3939 0.9673
-2.2370 -7.6503 -2.3940 0.9673
-2.1896 -7.6640 -2.3940 0.9673
-2.1422 -7.6774 -2.3940 0.9673
-2.0947 -7.6905 -2.3940 0.9673
-1.9516 -7.7280 -2.3940 0.9673
-1.8079 -7.7629 -2.3940 0.9673
-1.7599 -7.7740 -2.3940 0.9673
-1.6154 -7.8053 -2.3940 0.9673
-1.3247 -7.8599 -2.3940 0.9673
-1.0322 -7.9036 -2.3940 0.9673
-0.9833 -7.9099 -2.3940 0.9673
-0.8854 -7.9214 -2.3940 0.9673
-0.7874 -7.9318 -2.3940 0.9673
-0.5418 -7.9524 -2.3940 0.9673
-0.4926 -7.9556 -2.3940 0.9673
-0.4434 -7.9585 -2.3940 0.9673
-0.3942 -7.9611 -2.3940 0.9673
-0.3449 -7.9634 -2.3940 0.9673
-0.0985 -7.9703 -2.3940 0.9673
0.0000 -7.9710 -2.3941 0.9673
0.0986 -7.9704 -2.3941 0.9673
0.1972 -7.9686 -2.3941 0.9673
0.2958 -7.9655 -2.3941 0.9673
0.3450 -7.9636 -2.3941 0.9673
0.3942 -7.9613 -2.3941 0.9673
0.4927 -7.9558 -2.3941 0.9673
0.5910 -7.9491 -2.3941 0.9673
0.6402 -7.9453 -2.3941 0.9673
0.7384 -7.9368 -2.3941 0.9673
0.8855 -7.9218 -2.3941 0.9673
0.9834 -7.9103 -2.3941 0.9673
1.0323 -7.9041 -2.3941 0.9673
1.1300 -7.8907 -2.3941 0.9673
1.3248 -7.8604 -2.3941 0.9673
1.3734 -7.8521 -2.3942 0.9673
1.4220 -7.8434 -2.3942 0.9673
1.5189 -7.8253 -2.3942 0.9673
1.5673 -7.8157 -2.3942 0.9673
1.7120 -7.7854 -2.3942 0.9673
1.7601 -7.7746 -2.3942 0.9673
1.8081 -7.7637 -2.3942 0.9673
1.8561 -7.7523 -2.3942 0.9673
1.9040 -7.7407 -2.3942 0.9673
1.9996 -7.7166 -2.3942 0.9673
2.0473 -7.7041 -2.3942 0.9673
2.1425 -7.6782 -2.3942 0.9673
2.4258 -7.5935 -2.3942 0.9673
2.4728 -7.5784 -2.3943 0.9673
2.6595 -7.5150 -2.3943 0.9673
2.7059 -7.4984 -2.3943 0.9673
2.7522 -7.4815 -2.3943 0.9673
2.7984 -7.4644 -2.3943 0.9673
2.9822 -7.3930 -2.3943 0.9673
3.1189 -7.3364 -2.3943 0.9673
3.1642 -7.3170 -2.3943 0.9673
3.3443 -7.2366 -2.3943 0.9673
3.3890 -7.2158 -2.3944 0.9673
3.4335 -7.1947 -2.3944 0.9673
3.5222 -7.1517 -2.3944 0.9673
3.6104 -7.1076 -2.3944 0.9673
3.8717 -6.9689 -2.3944 0.9673
3.9147 -6.9448 -2.3944 0.9673
4.0004 -6.8959 -2.3944 0.9673
4.1276 -6.8206 -2.3945 0.9673
4.2535 -6.7429 -2.3945 0.9673
4.3366 -6.6898 -2.3945 0.9673
4.4600 -6.6082 -2.3945 0.9673
4.5008 -6.5805 -2.3945 0.9673
4.5414 -6.5526 -2.3945 0.9673
4.6221 -6.4959 -2.3945 0.9673
4.6622 -6.4672 -2.3945 0.9673
4.7021 -6.4383 -2.3945 0.9673
4.8208 -6.3500 -2.3946 0.9673
4.8521 -6.3099 -2.3907 0.9673
4.8521 -6.0733 -2.3348 0.9681
4.8521 -5.9969 -2.3169 0.9683
4.8003 -5.8584 -2.2748 0.9689
4.8003 -5.7128 -2.2412 0.9693
4.8028 -5.6445 -2.2260 0.9695
4.8376 -5.6147 -2.2260 0.9695
4.9573 -5.2737 -2.1739 0.9702
4.9573 -5.1447 -2.1458 0.9706
4.9573 -5.0815 -2.1322 0.9708
4.9573 -5.0190 -2.1188 0.9710
4.9573 -4.9573 -2.1056 0.9711
4.9573 -4.8963 -2.0927 0.9713
4.9573 -4.8361 -2.0801 0.9715
4.9082 -4.7294 -2.0472 0.9719
4.9155 -4.3422 -1.9699 0.9730
4.8004 -4.1880 -1.9133 0.9737
4.8521 -4.1286 -1.9135 0.9737
4.8521 -3.9259 -1.8746 0.9743
4.8521 -3.8765 -1.8653 0.9744
4.8521 -3.8276 -1.8562 0.9745
4.8522 -3.7791 -1.8472 0.9746
4.8522 -3.7311 -1.8384 0.9748
4.8522 -3.6836 -1.8297 0.9749
4.8522 -3.5899 -1.8128 0.9751
4.8522 -3.4525 -1.7886 0.9754
4.8522 -3.3186 -1.7656 0.9757
4.8522 -3.2748 -1.7582 0.9758
4.8522 -3.1454 -1.7368 0.9761
4.8522 -3.0190 -1.7164 0.9764
4.8522 -2.8550 -1.6909 0.9768
4.8522 -2.8148 -1.6848 0.9768
4.8522 -2.7748 -1.6788 0.9769
4.8522 -2.6957 -1.6671 0.9771
4.8522 -2.6566 -1.6615 0.9772
4.8522 -2.3526 -1.6196 0.9777
4.9476 -2.3237 -1.6417 0.9774
5.0282 -2.3237 -1.6637 0.9771
5.1960 -2.3237 -1.7096 0.9765
5.2835 -2.3237 -1.7336 0.9762
5.4659 -2.3237 -1.7839 0.9755
5.7428 -2.2753 -1.8553 0.9745
6.0673 -2.3606 -1.9554 0.9732
6.2790 -2.3984 -2.0188 0.9723
6.6026 -2.4288 -2.1130 0.9710
6.8634 -2.4288 -2.1867 0.9701
7.0185 -2.3865 -2.2265 0.9695
7.1118 -2.2719 -2.2423 0.9693
7.2665 -2.2719 -2.2867 0.9687
7.5969 -2.3237 -2.3860 0.9674
7.6374 -2.2846 -2.3943 0.9673
7.6914 -2.0949 -2.3943 0.9673
7.7043 -2.0473 -2.3942 0.9673
7.7167 -1.9996 -2.3942 0.9673
7.7747 -1.7601 -2.3942 0.9673
7.7855 -1.7120 -2.3942 0.9673
7.7959 -1.6638 -2.3942 0.9673
7.8158 -1.5672 -2.3942 0.9673
7.8521 -1.3734 -2.3941 0.9673
7.8604 -1.3248 -2.3941 0.9673
7.8685 -1.2762 -2.3941 0.9673
7.8761 -1.2275 -2.3941 0.9673
7.8907 -1.1300 -2.3941 0.9673
7.9102 -0.9834 -2.3941 0.9673
7.9161 -0.9345 -2.3941 0.9673
7.9320 -0.7874 -2.3941 0.9673
7.9368 -0.7384 -2.3941 0.9673
7.9411 -0.6893 -2.3941 0.9673
7.9490 -0.5910 -2.3940 0.9673
7.9525 -0.5418 -2.3940 0.9673
7.9586 -0.4434 -2.3940 0.9673
7.9653 -0.2957 -2.3940 0.9673
7.9682 -0.1971 -2.3940 0.9673
7.9707 0.0493 -2.3940 0.9673
7.9703 0.0986 -2.3940 0.9673
7.9696 0.1479 -2.3940 0.9673
7.9685 0.1972 -2.3940 0.9673
7.9613 0.3942 -2.3941 0.9673
7.9527 0.5418 -2.3941 0.9673
7.9493 0.5910 -2.3941 0.9673
7.9455 0.6402 -2.3941 0.9673
7.9414 0.6893 -2.3941 0.9673
7.9370 0.7384 -2.3941 0.9673
7.9323 0.7875 -2.3942 0.9673
7.9273 0.8365 -2.3942 0.9673
7.9105 0.9834 -2.3942 0.9673
7.8979 1.0812 -2.3942 0.9673
7.8910 1.1300 -2.3942 0.9673
7.8839 1.1788 -2.3942 0.9673
7.8608 1.3249 -2.3942 0.9673
7.8524 1.3735 -2.3943 0.9673
7.8438 1.4220 -2.3943 0.9673
7.8349 1.4705 -2.3943 0.9673
7.8257 1.5189 -2.3943 0.9673
7.7858 1.7121 -2.3943 0.9673
7.7528 1.8562 -2.3943 0.9673
7.7412 1.9041 -2.3943 0.9673
7.6521 1.9829 -2.3742 0.9675
7.1537 1.9485 -2.2268 0.9695
7.1290 2.0368 -2.2268 0.9695
7.1163 2.0809 -2.2269 0.9695
6.8264 2.0881 -2.1440 0.9706
6.6784 2.0881 -2.1016 0.9712
6.0799 2.0255 -1.9248 0.9736
5.4950 1.9829 -1.7546 0.9759
5.2892 1.9829 -1.6966 0.9767
5.0047 1.9829 -1.6168 0.9778
4.9157 1.9829 -1.5920 0.9781
4.8294 1.9829 -1.5680 0.9784
4.7522 1.9857 -1.5469 0.9787
4.7522 2.0203 -1.5509 0.9787
4.7522 2.0901 -1.5593 0.9786
4.7522 2.1606 -1.5679 0.9784
4.7522 2.2319 -1.5769 0.9783
4.7522 2.2679 -1.5815 0.9782
4.7522 2.3405 -1.5910 0.9781
4.7522 2.4140 -1.6009 0.9780
4.7522 2.5260 -1.6164 0.9778
4.7522 2.5638 -1.6218 0.9777
4.7522 2.6019 -1.6272 0.9776
4.7522 2.6788 -1.6384 0.9775
4.7522 2.7176 -1.6442 0.9774
4.7522 2.7568 -1.6501 0.9773
4.7522 2.7962 -1.6560 0.9772
4.7522 2.8359 -1.6621 0.9772
4.7522 2.8759 -1.6683 0.9771
4.7522 2.9162 -1.6746 0.9770
4.7522 2.9977 -1.6876 0.9768
4.7522 3.0390 -1.6942 0.9767
4.7522 3.0806 -1.7010 0.9766
4.7522 3.1225 -1.7078 0.9765
4.7522 3.1647 -1.7148 0.9764
4.7522 3.2073 -1.7220 0.9763
4.7521 3.2936 -1.7366 0.9761
4.7521 3.3373 -1.7441 0.9760
4.7521 3.3813 -1.7517 0.9759
4.7521 3.4258 -1.7595 0.9758
4.7521 3.4707 -1.7674 0.9757
4.7521 3.6077 -1.7920 0.9754
4.7521 3.6543 -1.8005 0.9753
4.7521 3.7487 -1.8179 0.9750
4.7521 3.7966 -1.8269 0.9749
4.7100 3.8109 -1.8197 0.9750
4.8573 4.0814 -1.9055 0.9739
4.8573 4.1330 -1.9155 0.9737
4.8549 4.1830 -1.9247 0.9736
4.8289 4.2129 -1.9247 0.9736
4.8123 4.2512 -1.9286 0.9735
4.8082 4.3545 -1.9483 0.9733
4.8104 4.4110 -1.9602 0.9731
4.8572 4.8573 -2.0631 0.9717
4.8572 4.9177 -2.0760 0.9715
4.8572 5.1037 -2.1161 0.9710
4.8572 5.1673 -2.1300 0.9708
4.8572 5.3633 -2.1733 0.9702
4.8572 5.4304 -2.1882 0.9700
4.8373 5.4759 -2.1945 0.9699
4.7773 5.4759 -2.1826 0.9701
4.7003 5.5241 -2.1784 0.9702
4.7520 5.7270 -2.2351 0.9694
4.7520 6.0241 -2.3045 0.9685
4.7520 6.1014 -2.3228 0.9682
4.7520 6.1798 -2.3414 0.9680
4.7520 6.2595 -2.3604 0.9677
4.7520 6.3406 -2.3798 0.9674
4.7411 6.4082 -2.3942 0.9673
4.6615 6.4663 -2.3942 0.9673
4.6214 6.4950 -2.3942 0.9673
4.5811 6.5234 -2.3941 0.9673
4.5407 6.5516 -2.3941 0.9673
4.5000 6.5795 -2.3941 0.9673
4.4593 6.6072 -2.3941 0.9673
4.3772 6.6618 -2.3941 0.9673
4.0846 6.8448 -2.3940 0.9673
3.9996 6.8947 -2.3940 0.9673
3.9569 6.9193 -2.3940 0.9673
3.8278 6.9914 -2.3940 0.9673
3.7410 7.0382 -2.3939 0.9673
3.6974 7.0612 -2.3939 0.9673
3.6537 7.0838 -2.3939 0.9673
3.6098 7.1062 -2.3939 0.9673
3.5215 7.1503 -2.3939 0.9673
3.2987 7.2555 -2.3938 0.9673
3.2538 7.2758 -2.3938 0.9673
3.2088 7.2959 -2.3939 0.9673
3.1636 7.3156 -2.3939 0.9673
3.1183 7.3351 -2.3939 0.9673
3.0274 7.3731 -2.3939 0.9673
2.9360 7.4100 -2.3939 0.9673
2.7980 7.4633 -2.3939 0.9673
2.7055 7.4973 -2.3939 0.9673
2.6591 7.5139 -2.3939 0.9673
2.5660 7.5463 -2.3939 0.9673
2.5193 7.5620 -2.3939 0.9673
2.4724 7.5775 -2.3940 0.9673
2.4255 7.5927 -2.3940 0.9673
2.3786 7.6075 -2.3940 0.9673
2.3315 7.6221 -2.3940 0.9673
2.2843 7.6364 -2.3940 0.9673
2.1423 7.6775 -2.3940 0.9673
2.0947 7.6906 -2.3940 0.9673
2.0471 7.7035 -2.3940 0.9673
1.9995 7.7160 -2.3940 0.9673
1.9517 7.7282 -2.3940 0.9673
1.8560 7.7518 -2.3940 0.9673
1.6154 7.8056 -2.3941 0.9673
1.5671 7.8154 -2.3941 0.9673
1.5188 7.8250 -2.3941 0.9673
1.4704 7.8343 -2.3941 0.9673
1.3734 7.8519 -2.3941 0.9673
1.3248 7.8603 -2.3941 0.9673
1.0812 7.8976 -2.3941 0.9673
1.0324 7.9042 -2.3941 0.9673
0.9834 7.9104 -2.3941 0.9673
0.8365 7.9274 -2.3942 0.9673
0.7875 7.9324 -2.3942 0.9673
0.6402 7.9457 -2.3942 0.9673
0.5911 7.9495 -2.3942 0.9673
0.5419 7.9530 -2.3942 0.9673
0.4927 7.9563 -2.3942 0.9673
0.3450 7.9641 -2.3942 0.9673
0.2957 7.9661 -2.3942 0.9673
0.2465 7.9678 -2.3943 0.9673
0.1479 7.9703 -2.3943 0.9673
0.0493 7.9716 -2.3943 0.9673
-0.0986 7.9712 -2.3943 0.9673
-0.1479 7.9705 -2.3943 0.9673
-0.3450 7.9645 -2.3943 0.9673
-0.3942 7.9622 -2.3944 0.9673
-0.4435 7.9597 -2.3944 0.9673
-0.5419 7.9536 -2.3944 0.9673
-0.5911 7.9501 -2.3944 0.9673
-0.6893 7.9423 -2.3944 0.9673
-0.7876 7.9332 -2.3944 0.9673
-0.8856 7.9229 -2.3944 0.9673
-0.9346 7.9173 -2.3944 0.9673
-0.9835 7.9114 -2.3944 0.9673
-1.0324 7.9052 -2.3945 0.9673
-1.1302 7.8919 -2.3945 0.9673
-1.1789 7.8848 -2.3945 0.9673
-1.2277 7.8773 -2.3945 0.9673
-1.3250 7.8616 -2.3945 0.9673
-1.4706 7.8358 -2.3945 0.9673
-1.5191 7.8265 -2.3945 0.9673
-1.6158 7.8072 -2.3946 0.9673
-1.6640 7.7971 -2.3946 0.9673
-1.7122 7.7867 -2.3946 0.9672
-1.9044 7.7421 -2.3946 0.9672
-1.9999 7.7180 -2.3946 0.9672
-2.0477 7.7055 -2.3946 0.9672
-2.0953 7.6927 -2.3946 0.9672
-2.1903 7.6662 -2.3947 0.9672
-2.2849 7.6387 -2.3947 0.9672
-2.3321 7.6244 -2.3947 0.9672
-2.4263 7.5950 -2.3947 0.9672
-2.4732 7.5799 -2.3947 0.9672
-2.5200 7.5645 -2.3947 0.9672
-2.5668 7.5488 -2.3947 0.9672
-2.6600 7.5165 -2.3948 0.9672
-2.7064 7.5000 -2.3948 0.9672
-2.7528 7.4831 -2.3948 0.9672
-2.7990 7.4660 -2.3948 0.9672
-2.8451 7.4486 -2.3948 0.9672
-2.8912 7.4308 -2.3948 0.9672
-2.9371 7.4129 -2.3948 0.9672
-3.0285 7.3760 -2.3948 0.9672
-3.1649 7.3187 -2.3949 0.9672
-3.2101 7.2990 -2.3949 0.9672
-3.3002 7.2587 -2.3949 0.9672
-3.5230 7.1534 -2.3949 0.9672
-3.5672 7.1315 -2.3949 0.9672
-3.6113 7.1093 -2.3949 0.9672
-3.6990 7.0642 -2.3950 0.9672
-3.7426 7.0412 -2.3950 0.9672
-3.8726 6.9706 -2.3950 0.9672
-4.0439 6.8728 -2.3950 0.9672
-4.1708 6.7967 -2.3951 0.9672
-4.2962 6.7182 -2.3951 0.9672
-4.3377 6.6916 -2.3951 0.9672
-4.3790 6.6646 -2.3951 0.9672
-4.4612 6.6100 -2.3951 0.9672
-4.5830 6.5262 -2.3952 0.9672
-4.6234 6.4977 -2.3952 0.9672
-4.7431 6.4109 -2.3952 0.9672
-4.7827 6.3815 -2.3952 0.9672
-4.8221 6.3519 -2.3952 0.9672
-4.9778 6.2307 -2.3953 0.9672
-5.0546 6.1687 -2.3953 0.9672
-5.0926 6.1374 -2.3953 0.9672
-5.2057 6.0419 -2.3953 0.9672
-5.2800 5.9771 -2.3953 0.9672
-5.3901 5.8782 -2.3954 0.9672
-5.4982 5.7773 -2.3954 0.9672
-5.5693 5.7088 -2.3954 0.9672
-5.6045 5.6742 -2.3954 0.9672
-5.6742 5.6045 -2.3954 0.9672
-5.7087 5.5692 -2.3954 0.9672
-5.7430 5.5338 -2.3954 0.9672
-5.8110 5.4624 -2.3953 0.9672
-5.8781 5.3900 -2.3953 0.9672
-5.9113 5.3536 -2.3953 0.9672
-5.9443 5.3169 -2.3953 0.9672
-6.0739 5.1682 -2.3953 0.9672
-6.1058 5.1305 -2.3953 0.9672
-6.1687 5.0546 -2.3953 0.9672
-6.2613 4.9392 -2.3953 0.9672
-6.2918 4.9004 -2.3953 0.9672
-6.3219 4.8614 -2.3952 0.9672
-6.3518 4.8221 -2.3952 0.9672
-6.3815 4.7828 -2.3952 0.9672
-6.4110 4.7432 -2.3952 0.9672
-6.4402 4.7035 -2.3952 0.9672
-6.4978 4.6234 -2.3952 0.9672
-6.5262 4.5831 -2.3952 0.9672
-6.6101 4.4612 -2.3952 0.9672
-6.6917 4.3378 -2.3952 0.9672
-6.7183 4.2963 -2.3951 0.9672
-6.7968 4.1709 -2.3951 0.9672
-6.8225 4.1288 -2.3951 0.9672
-6.8479 4.0865 -2.3951 0.9672
-6.8730 4.0441 -2.3951 0.9672
-6.8979 4.0015 -2.3951 0.9672
-6.9946 3.8296 -2.3951 0.9672
-7.0414 3.7428 -2.3951 0.9672
-7.0871 3.6554 -2.3950 0.9672
-7.1967 3.4345 -2.3950 0.9672
-7.2177 3.3899 -2.3950 0.9672
-7.2590 3.3003 -2.3950 0.9672
-7.2793 3.2554 -2.3950 0.9672
-7.3190 3.1651 -2.3950 0.9672
-7.3384 3.1197 -2.3950 0.9672
-7.3764 3.0287 -2.3950 0.9672
-7.4132 2.9372 -2.3949 0.9672
-7.4489 2.8453 -2.3949 0.9672
-7.4664 2.7992 -2.3949 0.9672
-7.5004 2.7066 -2.3949 0.9672
-7.5169 2.6602 -2.3949 0.9672
-7.5332 2.6136 -2.3949 0.9672
-7.5649 2.5202 -2.3949 0.9672
-7.5804 2.4734 -2.3949 0.9672
-7.6249 2.3323 -2.3948 0.9672
-7.6391 2.2851 -2.3948 0.9672
-7.6668 2.1904 -2.3948 0.9672
-7.6802 2.1430 -2.3948 0.9672
-7.6932 2.0954 -2.3948 0.9672
-7.7185 2.0001 -2.3948 0.9672
-7.7307 1.9523 -2.3948 0.9672
-7.7426 1.9045 -2.3948 0.9672
-7.7542 1.8566 -2.3948 0.9672
-7.7656 1.8086 -2.3948 0.9672
-7.7873 1.7124 -2.3948 0.9672
-7.8271 1.5192 -2.3947 0.9672
-7.8364 1.4708 -2.3947 0.9672
-7.8623 1.3251 -2.3947 0.9672
-7.8703 1.2765 -2.3947 0.9672
-7.8780 1.2278 -2.3947 0.9672
-7.8854 1.1791 -2.3947 0.9672
-7.8925 1.1303 -2.3947 0.9672
-7.8994 1.0814 -2.3947 0.9672
-7.9059 1.0325 -2.3947 0.9672
-7.9386 0.7385 -2.3946 0.9672
-7.9471 0.6403 -2.3946 0.9672
-7.9509 0.5911 -2.3946 0.9672
-7.9653 0.3450 -2.3946 0.9673
-7.9702 0.1972 -2.3946 0.9673
-7.9720 0.0986 -2.3946 0.9673
-7.9724 0.0493 -2.3945 0.9673
-7.7629 0.0000 -2.3946 0.9680
-7.7623 -0.0960 -2.3945 0.9680
-7.7591 -0.2400 -2.3945 0.9680
-7.7575 -0.2880 -2.3945 0.9680
-7.7555 -0.3359 -2.3945 0.9680
-7.7533 -0.3839 -2.3945 0.9680
-7.7507 -0.4318 -2.3945 0.9680
-7.7479 -0.4797 -2.3945 0.9680
-7.7376 -0.6234 -2.3945 0.9680
-7.7293 -0.7191 -2.3945 0.9680
-7.7247 -0.7668 -2.3945 0.9680
-7.6908 -1.0529 -2.3944 0.9680
-7.6841 -1.1004 -2.3944 0.9680
-7.6772 -1.1479 -2.3944 0.9680
-7.6699 -1.1954 -2.3944 0.9680
-7.6545 -1.2901 -2.3944 0.9680
-7.6463 -1.3374 -2.3944 0.9680
-7.6292 -1.4319 -2.3944 0.9680
-7.6108 -1.5261 -2.3944 0.9680
-7.6012 -1.5731 -2.3944 0.9680
-7.5812 -1.6670 -2.3944 0.9680
-7.5707 -1.7139 -2.3944 0.9680
-7.5489 -1.8074 -2.3943 0.9680
-7.5376 -1.8540 -2.3943 0.9680
-7.5140 -1.9471 -2.3943 0.9680
-7.4766 -2.0862 -2.3943 0.9680
-7.4635 -2.1324 -2.3943 0.9680
-7.4502 -2.1785 -2.3943 0.9680
-7.4226 -2.2704 -2.3943 0.9680
-7.4084 -2.3163 -2.3943 0.9680
-7.3939 -2.3620 -2.3943 0.9680
-7.3792 -2.4077 -2.3943 0.9680
-7.3641 -2.4533 -2.3943 0.9680
-7.3488 -2.4988 -2.3943 0.9680
-7.3011 -2.6347 -2.3943 0.9680
-7.2847 -2.6798 -2.3943 0.9680
-7.2510 -2.7697 -2.3942 0.9680
-7.2337 -2.8145 -2.3942 0.9680
-7.1618 -2.9925 -2.3942 0.9680
-7.1431 -3.0367 -2.3942 0.9680
-7.0856 -3.1687 -2.3942 0.9680
-7.0658 -3.2124 -2.3942 0.9680
-6.9841 -3.3862 -2.3942 0.9680
-6.9417 -3.4723 -2.3942 0.9680
-6.9201 -3.5152 -2.3942 0.9680
-6.8982 -3.5579 -2.3942 0.9680
-6.8310 -3.6852 -2.3942 0.9680
-6.8081 -3.7274 -2.3942 0.9680
-6.7614 -3.8113 -2.3941 0.9680
-6.7137 -3.8946 -2.3941 0.9680
-6.6403 -4.0185 -2.3941 0.9680
-6.6153 -4.0595 -2.3941 0.9680
-6.5901 -4.1003 -2.3941 0.9680
-6.5646 -4.1410 -2.3941 0.9680
-6.5128 -4.2219 -2.3941 0.9680
-6.4601 -4.3021 -2.3941 0.9680
-6.3517 -4.4605 -2.3941 0.9680
-6.3239 -4.4997 -2.3941 0.9680
-6.2394 -4.6162 -2.3941 0.9680
-6.2107 -4.6547 -2.3941 0.9680
-6.1233 -4.7691 -2.3941 0.9680
-6.0937 -4.8069 -2.3941 0.9680
-6.0637 -4.8445 -2.3941 0.9680
-6.0337 -4.8819 -2.3941 0.9680
-5.9729 -4.9561 -2.3941 0.9680
-5.9111 -5.0296 -2.3940 0.9680
-5.8799 -5.0661 -2.3940 0.9680
-5.8484 -5.1023 -2.3940 0.9680
-5.8167 -5.1384 -2.3940 0.9680
-5.7204 -5.2454 -2.3940 0.9680
-5.6878 -5.2807 -2.3940 0.9680
-5.6551 -5.3157 -2.3940 0.9680
-5.5889 -5.3853 -2.3940 0.9680
-5.5554 -5.4197 -2.3940 0.9680
-5.5218 -5.4540 -2.3940 0.9680
-5.4879 -5.4880 -2.3940 0.9680
-5.4539 -5.5218 -2.3940 0.9680
-5.4197 -5.5554 -2.3940 0.9680
-5.3852 -5.5889 -2.3940 0.9680
-5.3157 -5.6550 -2.3940 0.9680
-5.2806 -5.6878 -2.3940 0.9680
-5.2454 -5.7203 -2.3940 0.9680
-5.2098 -5.7526 -2.3940 0.9680
-5.1742 -5.7848 -2.3940 0.9680
-4.9928 -5.9419 -2.3940 0.9680
-4.9189 -6.0032 -2.3940 0.9680
-4.8818 -6.0335 -2.3940 0.9680
-4.7310 -6.1524 -2.3940 0.9680
-4.6160 -6.2391 -2.3940 0.9680
-4.3814 -6.4060 -2.3940 0.9680
-4.3417 -6.4330 -2.3940 0.9680
-4.3018 -6.4597 -2.3940 0.9680
-4.2216 -6.5124 -2.3940 0.9680
-4.1407 -6.5642 -2.3940 0.9680
-4.1000 -6.5896 -2.3940 0.9680
-4.0592 -6.6149 -2.3940 0.9680
-4.0182 -6.6398 -2.3940 0.9680
-3.9771 -6.6646 -2.3940 0.9680
-3.9358 -6.6890 -2.3940 0.9680
-3.8110 -6.7609 -2.3940 0.9680
-3.7271 -6.8075 -2.3940 0.9680
-3.6002 -6.8755 -2.3940 0.9680
-3.4720 -6.9411 -2.3940 0.9680
-3.2121 -7.0651 -2.3940 0.9680
-3.1684 -7.0848 -2.3940 0.9680
-2.9034 -7.1975 -2.3940 0.9680
-2.8141 -7.2329 -2.3940 0.9680
-2.7694 -7.2501 -2.3940 0.9680
-2.6795 -7.2838 -2.3940 0.9680
-2.6344 -7.3003 -2.3940 0.9680
-2.5439 -7.3323 -2.3940 0.9680
-2.4985 -7.3479 -2.3940 0.9680
-2.4074 -7.3782 -2.3940 0.9680
-2.3618 -7.3930 -2.3940 0.9680
-2.2242 -7.4355 -2.3940 0.9680
-2.1321 -7.4625 -2.3940 0.9680
-2.0396 -7.4883 -2.3940 0.9680
-1.9468 -7.5130 -2.3940 0.9680
-1.8538 -7.5365 -2.3940 0.9680
-1.8071 -7.5478 -2.3940 0.9680
-1.7137 -7.5696 -2.3940 0.9680
-1.6668 -7.5800 -2.3940 0.9680
-1.6199 -7.5902 -2.3940 0.9680
-1.4316 -7.6280 -2.3940 0.9680
-1.3372 -7.6451 -2.3940 0.9680
-1.2899 -7.6532 -2.3940 0.9680
-1.2426 -7.6611 -2.3940 0.9680
-1.1952 -7.6686 -2.3940 0.9680
-1.1477 -7.6759 -2.3940 0.9680
-1.1002 -7.6828 -2.3940 0.9680
-1.0527 -7.6895 -2.3940 0.9680
-0.9575 -7.7019 -2.3940 0.9680
-0.9098 -7.7077 -2.3940 0.9680
-0.8621 -7.7132 -2.3940 0.9680
-0.7189 -7.7279 -2.3940 0.9680
-0.6233 -7.7362 -2.3940 0.9680
-0.5276 -7.7433 -2.3940 0.9680
-0.4796 -7.7465 -2.3940 0.9680
-0.3359 -7.7541 -2.3941 0.9680
-0.2879 -7.7560 -2.3941 0.9680
-0.2399 -7.7576 -2.3941 0.9680
-0.1920 -7.7590 -2.3941 0.9680
-0.0480 -7.7612 -2.3941 0.9680
0.0000 -7.7614 -2.3941 0.9680
0.1920 -7.7591 -2.3941 0.9680
0.2400 -7.7578 -2.3941 0.9680
0.2880 -7.7561 -2.3941 0.9680
0.3359 -7.7542 -2.3941 0.9680
0.3839 -7.7520 -2.3941 0.9680
0.4318 -7.7495 -2.3941 0.9680
0.4797 -7.7467 -2.3941 0.9680
0.5276 -7.7436 -2.3941 0.9680
0.6712 -7.7325 -2.3941 0.9680
0.7190 -7.7282 -2.3941 0.9680
0.7668 -7.7236 -2.3941 0.9680
0.8145 -7.7187 -2.3941 0.9680
0.8622 -7.7136 -2.3941 0.9680
0.9099 -7.7081 -2.3941 0.9680
1.0052 -7.6963 -2.3941 0.9680
1.1003 -7.6833 -2.3942 0.9680
1.1478 -7.6763 -2.3942 0.9680
1.1952 -7.6691 -2.3942 0.9680
1.2427 -7.6616 -2.3942 0.9680
1.3373 -7.6456 -2.3942 0.9680
1.3846 -7.6372 -2.3942 0.9680
1.4789 -7.6196 -2.3942 0.9680
1.5261 -7.6103 -2.3942 0.9680
1.5730 -7.6007 -2.3942 0.9680
1.6201 -7.5908 -2.3942 0.9680
1.6670 -7.5807 -2.3942 0.9680
1.7138 -7.5703 -2.3942 0.9680
1.7606 -7.5595 -2.3942 0.9680
1.8540 -7.5372 -2.3942 0.9680
1.9006 -7.5256 -2.3942 0.9680
2.0398 -7.4891 -2.3942 0.9680
2.0861 -7.4764 -2.3942 0.9680
2.1323 -7.4633 -2.3942 0.9680
2.1784 -7.4500 -2.3943 0.9680
2.2245 -7.4364 -2.3943 0.9680
2.3163 -7.4084 -2.3943 0.9680
2.4533 -7.3641 -2.3943 0.9680
2.4988 -7.3488 -2.3943 0.9680
2.5442 -7.3333 -2.3943 0.9680
2.5896 -7.3174 -2.3943 0.9680
2.6348 -7.3013 -2.3943 0.9680
2.7248 -7.2681 -2.3943 0.9680
2.7698 -7.2512 -2.3943 0.9680
2.9038 -7.1986 -2.3943 0.9680
2.9927 -7.1622 -2.3943 0.9680
3.0369 -7.1435 -2.3943 0.9680
3.1250 -7.1054 -2.3944 0.9680
3.2563 -7.0463 -2.3944 0.9680
3.2999 -7.0260 -2.3944 0.9680
3.3432 -7.0055 -2.3944 0.9680
3.3865 -6.9847 -2.3944 0.9680
3.4296 -6.9637 -2.3944 0.9680
3.5155 -6.9207 -2.3944 0.9680
3.6009 -6.8768 -2.3944 0.9680
3.6433 -6.8544 -2.3944 0.9680
3.7699 -6.7856 -2.3944 0.9680
3.8118 -6.7622 -2.3944 0.9680
3.8536 -6.7385 -2.3944 0.9680
3.8952 -6.7146 -2.3944 0.9680
3.9366 -6.6904 -2.3945 0.9680
3.9779 -6.6659 -2.3945 0.9680
4.0191 -6.6412 -2.3945 0.9680
4.1010 -6.5910 -2.3945 0.9680
4.1416 -6.5656 -2.3945 0.9680
4.3427 -6.4345 -2.3945 0.9680
4.3825 -6.4075 -2.3945 0.9680
4.5396 -6.2972 -2.3945 0.9680
4.5785 -6.2690 -2.3945 0.9680
4.7322 -6.1539 -2.3946 0.9680
4.7701 -6.1246 -2.3946 0.9680
4.8079 -6.0950 -2.3946 0.9680
4.8521 -5.9216 -2.3615 0.9685
4.8003 -5.7128 -2.3017 0.9692
4.8003 -5.6416 -2.2849 0.9695
4.8003 -5.5714 -2.2685 0.9697
4.8003 -5.5023 -2.2523 0.9699
4.8772 -5.3188 -2.2260 0.9702
4.9100 -5.2886 -2.2260 0.9702
4.9427 -5.2581 -2.2260 0.9702
4.9573 -5.2088 -2.2180 0.9703
4.9573 -5.0814 -2.1898 0.9707
4.9573 -4.9573 -2.1625 0.9711
4.9573 -4.8963 -2.1493 0.9713
4.9573 -4.8361 -2.1362 0.9714
4.9258 -4.6880 -2.0975 0.9719
4.9573 -4.6598 -2.0986 0.9719
4.9573 -4.6024 -2.0865 0.9721
4.9573 -4.4895 -2.0630 0.9724
4.9573 -4.4340 -2.0516 0.9725
4.8521 -4.1286 -1.9652 0.9737
4.8521 -3.9259 -1.9252 0.9742
4.8521 -3.7791 -1.8971 0.9746
4.8521 -3.7312 -1.8880 0.9747
4.8521 -3.6836 -1.8791 0.9748
4.8521 -3.5899 -1.8618 0.9751
4.8522 -3.4979 -1.8451 0.9753
4.8522 -3.3629 -1.8210 0.9756
4.8522 -3.1454 -1.7837 0.9761
4.8522 -3.1029 -1.7766 0.9762
4.8522 -3.0608 -1.7696 0.9763
4.8522 -2.9776 -1.7560 0.9765
4.8522 -2.9364 -1.7494 0.9765
4.8522 -2.8550 -1.7366 0.9767
4.8522 -2.7748 -1.7242 0.9769
4.8522 -2.6957 -1.7122 0.9770
4.8522 -2.5791 -1.6950 0.9773
4.8522 -2.4648 -1.6787 0.9775
4.8522 -2.3526 -1.6633 0.9777
4.9476 -2.3237 -1.6861 0.9774
5.1110 -2.3237 -1.7318 0.9768
5.1960 -2.3237 -1.7557 0.9765
5.2835 -2.3237 -1.7804 0.9761
5.5612 -2.3237 -1.8591 0.9751
5.7428 -2.3165 -1.9101 0.9744
5.7427 -2.2753 -1.9054 0.9745
6.2427 -2.4288 -2.0662 0.9723
6.3182 -2.3687 -2.0814 0.9721
6.6026 -2.4289 -2.1701 0.9710
6.8045 -2.4080 -2.2265 0.9702
6.8193 -2.3659 -2.2265 0.9702
6.8338 -2.3237 -2.2265 0.9702
6.8481 -2.2814 -2.2265 0.9702
7.1118 -2.2719 -2.3029 0.9692
7.4086 -2.3163 -2.3943 0.9680
7.4366 -2.2245 -2.3943 0.9680
7.4502 -2.1785 -2.3943 0.9680
7.4893 -2.0399 -2.3943 0.9680
7.5139 -1.9471 -2.3943 0.9680
7.5257 -1.9005 -2.3943 0.9680
7.5373 -1.8540 -2.3943 0.9680
7.5808 -1.6670 -2.3942 0.9680
7.5909 -1.6200 -2.3942 0.9680
7.6008 -1.5730 -2.3942 0.9680
7.6103 -1.5260 -2.3942 0.9680
7.6196 -1.4789 -2.3942 0.9680
7.6616 -1.2426 -2.3942 0.9680
7.6832 -1.1003 -2.3941 0.9680
7.6962 -1.0052 -2.3941 0.9680
7.7080 -0.9099 -2.3941 0.9680
7.7186 -0.8145 -2.3941 0.9680
7.7235 -0.7667 -2.3941 0.9680
7.7281 -0.7189 -2.3941 0.9680
7.7324 -0.6711 -2.3941 0.9680
7.7364 -0.6233 -2.3941 0.9680
7.7434 -0.5276 -2.3941 0.9680
7.7465 -0.4797 -2.3941 0.9680
7.7493 -0.4318 -2.3941 0.9680
7.7575 -0.2399 -2.3940 0.9680
7.7589 -0.1920 -2.3940 0.9680
7.7612 0.0000 -2.3940 0.9680
7.7604 0.0960 -2.3939 0.9680
7.7587 0.1920 -2.3940 0.9680
7.7574 0.2399 -2.3940 0.9680
7.7557 0.2879 -2.3940 0.9680
7.7517 0.3838 -2.3940 0.9680
7.7433 0.5276 -2.3940 0.9680
7.7399 0.5754 -2.3940 0.9680
7.7323 0.6711 -2.3941 0.9680
7.7280 0.7189 -2.3941 0.9680
7.7234 0.7667 -2.3941 0.9680
7.7186 0.8145 -2.3941 0.9680
7.7022 0.9575 -2.3941 0.9680
7.6899 1.0528 -2.3941 0.9680
7.6832 1.1003 -2.3941 0.9680
7.6691 1.1952 -2.3941 0.9680
7.6615 1.2427 -2.3942 0.9680
7.6456 1.3373 -2.3942 0.9680
7.6372 1.3846 -2.3942 0.9680
7.6286 1.4318 -2.3942 0.9680
7.6196 1.4789 -2.3942 0.9680
7.5909 1.6200 -2.3942 0.9680
7.5808 1.6670 -2.3942 0.9680
7.5486 1.8073 -2.3942 0.9680
7.5373 1.8540 -2.3942 0.9680
7.5138 1.9471 -2.3943 0.9680
7.4618 1.9829 -2.3815 0.9682
5.6792 1.9311 -1.8503 0.9752
5.6427 1.9577 -1.8423 0.9753
5.4950 1.9829 -1.8020 0.9758
5.2891 1.9829 -1.7424 0.9766
5.0965 1.9829 -1.6869 0.9774
4.9157 1.9829 -1.6350 0.9781
4.8294 1.9829 -1.6104 0.9784
4.7522 1.9857 -1.5887 0.9787
4.7522 2.0551 -1.5971 0.9786
4.7522 2.1962 -1.6148 0.9783
4.7522 2.3405 -1.6340 0.9781
4.7522 2.3771 -1.6390 0.9780
4.7522 2.4140 -1.6441 0.9779
4.7522 2.4511 -1.6493 0.9779
4.7522 2.4884 -1.6547 0.9778
4.7522 2.5260 -1.6601 0.9777
4.7522 2.6402 -1.6769 0.9775
4.7522 2.7962 -1.7008 0.9772
4.7522 2.8359 -1.7070 0.9771
4.7522 2.8759 -1.7134 0.9770
4.7522 2.9568 -1.7264 0.9768
4.7521 2.9977 -1.7331 0.9768
4.7521 3.0390 -1.7400 0.9767
4.7521 3.1647 -1.7611 0.9764
4.7521 3.2073 -1.7685 0.9763
4.7521 3.3813 -1.7990 0.9759
4.7521 3.4258 -1.8070 0.9758
4.7521 3.5159 -1.8234 0.9756
4.7521 3.5616 -1.8318 0.9754
4.7521 3.6077 -1.8404 0.9753
4.7521 3.6543 -1.8491 0.9752
4.7521 3.7966 -1.8762 0.9749
4.7003 3.8514 -1.8744 0.9749
4.8155 3.9958 -1.9302 0.9741
4.8149 4.0459 -1.9399 0.9740
4.8130 4.1990 -1.9702 0.9736
4.8572 4.2908 -1.9991 0.9732
4.8572 4.3446 -2.0102 0.9731
4.8572 4.4539 -2.0328 0.9728
4.8572 4.6227 -2.0683 0.9723
4.8572 4.6803 -2.0806 0.9722
4.8572 4.7975 -2.1059 0.9718
4.8572 4.9177 -2.1321 0.9715
4.8565 4.9781 -2.1452 0.9713
4.8572 5.1037 -2.1733 0.9709
4.8572 5.1673 -2.1875 0.9708
4.8459 5.3508 -2.2268 0.9702
4.8127 5.3807 -2.2268 0.9702
4.7458 5.4398 -2.2268 0.9702
4.7120 5.4690 -2.2268 0.9702
4.7002 5.5240 -2.2373 0.9701
4.7520 5.7996 -2.3128 0.9691
4.7520 6.1013 -2.3855 0.9681
4.7313 6.1528 -2.3941 0.9680
4.5387 6.2960 -2.3941 0.9680
4.4605 6.3516 -2.3941 0.9680
4.4211 6.3791 -2.3941 0.9680
4.3418 6.4332 -2.3940 0.9680
4.2619 6.4864 -2.3940 0.9680
4.2217 6.5126 -2.3940 0.9680
4.1813 6.5385 -2.3940 0.9680
4.1408 6.5642 -2.3940 0.9680
4.0593 6.6149 -2.3940 0.9680
3.9358 6.6890 -2.3939 0.9680
3.8943 6.7132 -2.3939 0.9680
3.8110 6.7608 -2.3939 0.9680
3.7270 6.8073 -2.3939 0.9680
3.6848 6.8302 -2.3939 0.9680
3.5575 6.8973 -2.3938 0.9680
3.4718 6.9407 -2.3938 0.9680
3.4289 6.9622 -2.3939 0.9680
3.3425 7.0041 -2.3939 0.9680
3.2557 7.0449 -2.3939 0.9680
3.1683 7.0847 -2.3939 0.9680
3.1245 7.1041 -2.3939 0.9680
3.0363 7.1423 -2.3939 0.9680
2.9921 7.1609 -2.3939 0.9680
2.8141 7.2328 -2.3939 0.9680
2.7693 7.2501 -2.3939 0.9680
2.6344 7.3003 -2.3940 0.9680
2.5892 7.3164 -2.3940 0.9680
2.4075 7.3783 -2.3940 0.9680
2.3618 7.3931 -2.3940 0.9680
2.3160 7.4075 -2.3940 0.9680
2.2702 7.4217 -2.3940 0.9680
2.1782 7.4493 -2.3940 0.9680
2.1321 7.4626 -2.3940 0.9680
2.0397 7.4885 -2.3940 0.9680
1.8538 7.5367 -2.3941 0.9680
1.8072 7.5480 -2.3941 0.9680
1.7605 7.5591 -2.3941 0.9680
1.7137 7.5698 -2.3941 0.9680
1.6669 7.5803 -2.3941 0.9680
1.5730 7.6004 -2.3941 0.9680
1.5260 7.6100 -2.3941 0.9680
1.4789 7.6193 -2.3941 0.9680
1.4317 7.6283 -2.3941 0.9680
1.2900 7.6536 -2.3941 0.9680
1.1952 7.6691 -2.3941 0.9680
1.1478 7.6763 -2.3941 0.9680
1.1003 7.6833 -2.3942 0.9680
0.9576 7.7024 -2.3942 0.9680
0.9099 7.7082 -2.3942 0.9680
0.8623 7.7137 -2.3942 0.9680
0.7668 7.7239 -2.3942 0.9680
0.6712 7.7328 -2.3942 0.9680
0.6234 7.7368 -2.3942 0.9680
0.5276 7.7440 -2.3942 0.9680
0.4318 7.7500 -2.3942 0.9680
0.3359 7.7547 -2.3943 0.9680
0.2880 7.7567 -2.3943 0.9680
0.1920 7.7597 -2.3943 0.9680
0.1440 7.7608 -2.3943 0.9680
0.0960 7.7615 -2.3943 0.9680
-0.1440 7.7609 -2.3943 0.9680
-0.1920 7.7599 -2.3943 0.9680
-0.2400 7.7586 -2.3944 0.9680
-0.3839 7.7529 -2.3944 0.9680
-0.5755 7.7411 -2.3944 0.9680
-0.7190 7.7292 -2.3944 0.9680
-0.8623 7.7146 -2.3945 0.9680
-0.9100 7.7091 -2.3945 0.9680
-0.9577 7.7034 -2.3945 0.9680
-1.0053 7.6974 -2.3945 0.9680
-1.1004 7.6844 -2.3945 0.9680
-1.1479 7.6775 -2.3945 0.9680
-1.3848 7.6384 -2.3945 0.9680
-1.5263 7.6115 -2.3946 0.9680
-1.5733 7.6019 -2.3946 0.9680
-1.6203 7.5921 -2.3946 0.9680
-1.6672 7.5820 -2.3946 0.9680
-1.7609 7.5608 -2.3946 0.9680
-1.8076 7.5498 -2.3946 0.9680
-1.8543 7.5385 -2.3946 0.9680
-1.9474 7.5150 -2.3946 0.9680
-1.9938 7.5029 -2.3947 0.9680
-2.0865 7.4777 -2.3947 0.9680
-2.2249 7.4378 -2.3947 0.9680
-2.2708 7.4239 -2.3947 0.9680
-2.3167 7.4097 -2.3947 0.9680
-2.4538 7.3656 -2.3947 0.9680
-2.4993 7.3503 -2.3947 0.9680
-2.5448 7.3347 -2.3948 0.9680
-2.5901 7.3189 -2.3948 0.9680
-2.6352 7.3028 -2.3948 0.9680
-2.7254 7.2696 -2.3948 0.9680
-2.7703 7.2527 -2.3948 0.9680
-2.8151 7.2354 -2.3948 0.9680
-2.8598 7.2179 -2.3948 0.9680
-3.1257 7.1070 -2.3949 0.9680
-3.2570 7.0479 -2.3949 0.9680
-3.3006 7.0276 -2.3949 0.9680
-3.3440 7.0071 -2.3949 0.9680
-3.3872 6.9863 -2.3949 0.9680
-3.4304 6.9653 -2.3949 0.9680
-3.4735 6.9440 -2.3949 0.9680
-3.6442 6.8560 -2.3950 0.9680
-3.8545 6.7402 -2.3950 0.9680
-3.8961 6.7163 -2.3950 0.9680
-4.0611 6.6179 -2.3951 0.9680
-4.1427 6.5673 -2.3951 0.9680
-4.2236 6.5156 -2.3951 0.9680
-4.3039 6.4629 -2.3951 0.9680
-4.3438 6.4362 -2.3951 0.9680
-4.3835 6.4092 -2.3951 0.9680
-4.5017 6.3269 -2.3952 0.9680
-4.5408 6.2989 -2.3952 0.9680
-4.5797 6.2707 -2.3952 0.9680
-4.6184 6.2423 -2.3952 0.9680
-4.7335 6.1556 -2.3952 0.9680
-4.8469 6.0669 -2.3953 0.9680
-4.8843 6.0368 -2.3953 0.9680
-4.9216 6.0065 -2.3953 0.9680
-4.9587 5.9760 -2.3953 0.9680
-5.0322 5.9142 -2.3953 0.9680
-5.0687 5.8830 -2.3953 0.9680
-5.1050 5.8516 -2.3953 0.9680
-5.1412 5.8199 -2.3953 0.9680
-5.1771 5.7880 -2.3953 0.9680
-5.2128 5.7559 -2.3954 0.9680
-5.2483 5.7236 -2.3954 0.9680
-5.2836 5.6911 -2.3954 0.9680
-5.3187 5.6583 -2.3954 0.9680
-5.4228 5.5587 -2.3954 0.9680
-5.4571 5.5250 -2.3954 0.9680
-5.4911 5.4912 -2.3954 0.9680
-5.5920 5.3883 -2.3954 0.9680
-5.6909 5.2836 -2.3953 0.9680
-5.7558 5.2127 -2.3953 0.9680
-5.8198 5.1411 -2.3953 0.9680
-5.9142 5.0322 -2.3953 0.9680
-5.9759 4.9587 -2.3953 0.9680
-6.0368 4.8844 -2.3953 0.9680
-6.0668 4.8469 -2.3953 0.9680
-6.2137 4.6570 -2.3952 0.9680
-6.4630 4.3040 -2.3952 0.9680
