ply
format ascii 1.0
element vertex 1555
property float32 x
property float32 y
property float32 z
property float32 I
end_header
-13.0817 4.2684 -1.3631 0.9462
-13.0818 4.0015 -1.3551 0.9465
-13.0818 3.9132 -1.3526 0.9466
-13.0818 3.8252 -1.3501 0.9467
-13.0328 3.7235 -1.3427 0.9470
-13.0820 3.4764 -1.3408 0.9470
-12.9770 3.1070 -1.3218 0.9478
-12.9770 3.0223 -1.3199 0.9479
-12.9771 2.9378 -1.3180 0.9479
-12.9771 2.8536 -1.3162 0.9480
-12.9771 2.7695 -1.3144 0.9481
-12.9772 2.6857 -1.3127 0.9481
-12.9772 2.6022 -1.3111 0.9482
-12.9772 2.5188 -1.3095 0.9483
-12.9773 2.3526 -1.3065 0.9484
-12.9774 2.1872 -1.3036 0.9485
-12.9774 2.1048 -1.3023 0.9485
-12.9775 2.0225 -1.3010 0.9486
-12.9777 1.5319 -1.2945 0.9488
-15.5344 1.3483 -1.5446 0.9392
-16.7468 1.3492 -1.6643 0.9347
-17.6452 1.3118 -1.7527 0.9313
-19.3109 1.3157 -1.9173 0.9251
-23.2843 1.4418 -2.3109 0.9105
-23.2923 1.2977 -2.3109 0.9105
-23.2995 1.1536 -2.3108 0.9105
-23.3113 0.8653 -2.3108 0.9105
-23.3196 0.5769 -2.3107 0.9105
-23.3257 0.1442 -2.3106 0.9105
-21.7366 -0.0000 -2.3163 0.9163
-13.3242 -0.0824 -1.4199 0.9478
-12.9789 -0.1606 -1.3831 0.9491
-12.9791 -0.4819 -1.3840 0.9491
-12.9791 -0.6427 -1.3848 0.9491
-12.9792 -0.7232 -1.3852 0.9491
-12.9792 -0.8037 -1.3857 0.9490
-12.9793 -0.8843 -1.3863 0.9490
-12.9794 -1.2075 -1.3891 0.9489
-12.9795 -1.2885 -1.3899 0.9489
-12.9796 -1.5322 -1.3927 0.9488
-12.9796 -1.6137 -1.3938 0.9487
-12.9798 -1.8588 -1.3973 0.9486
-12.9280 -1.9330 -1.3929 0.9488
-13.0851 -2.0393 -1.4112 0.9481
-13.0851 -2.1223 -1.4126 0.9481
-13.0852 -2.2888 -1.4155 0.9480
-13.0853 -2.3723 -1.4171 0.9479
-13.0367 -2.4468 -1.4135 0.9480
-13.0854 -2.5398 -1.4204 0.9478
-13.0854 -2.6239 -1.4222 0.9477
-13.0855 -2.7082 -1.4239 0.9477
-13.0855 -2.7927 -1.4258 0.9476
-13.0856 -2.9624 -1.4297 0.9475
-13.0857 -3.0476 -1.4317 0.9474
-13.0858 -3.3047 -1.4382 0.9472
-13.0859 -3.4775 -1.4428 0.9470
-13.0860 -3.5643 -1.4453 0.9469
-12.9809 -3.7957 -1.4412 0.9470
-12.9810 -3.8830 -1.4438 0.9470
-12.9810 -3.9707 -1.4465 0.9469
-12.9813 -4.3246 -1.4580 0.9464
-12.9813 -4.4140 -1.4611 0.9463
-12.9814 -4.5940 -1.4674 0.9461
-12.9817 -4.9587 -1.4808 0.9456
-12.9819 -5.2367 -1.4917 0.9452
-12.9820 -5.4244 -1.4993 0.9450
-12.9820 -5.5190 -1.5032 0.9448
-12.9821 -5.6141 -1.5072 0.9447
-12.9822 -5.8057 -1.5154 0.9444
-12.9823 -5.9024 -1.5197 0.9442
-12.9824 -5.9996 -1.5240 0.9441
-12.9826 -6.2945 -1.5375 0.9436
-12.9827 -6.4941 -1.5469 0.9433
-12.9828 -6.5949 -1.5517 0.9431
-12.9829 -6.6962 -1.5566 0.9429
-12.9829 -6.7982 -1.5617 0.9428
-12.9832 -7.2130 -1.5827 0.9420
-12.9833 -7.3185 -1.5882 0.9418
-12.9315 -7.3951 -1.5874 0.9418
-13.0887 -7.7014 -1.6183 0.9407
-13.0888 -7.8108 -1.6242 0.9405
-13.0397 -7.8913 -1.6242 0.9405
-13.0891 -8.1440 -1.6427 0.9399
-13.0892 -8.3704 -1.6556 0.9394
-13.0894 -8.6004 -1.6690 0.9389
-13.0896 -8.8343 -1.6828 0.9385
-13.0897 -8.9527 -1.6899 0.9382
-12.9649 -8.9855 -1.6809 0.9385
-12.9849 -9.4832 -1.7134 0.9374
-12.9852 -9.8580 -1.7373 0.9365
-12.9853 -9.9852 -1.7455 0.9362
-12.9854 -10.2434 -1.7624 0.9356
-12.9856 -10.3744 -1.7711 0.9353
-12.9857 -10.5067 -1.7800 0.9350
-12.9859 -10.7753 -1.7981 0.9344
-14.7561 -12.3991 -2.0538 0.9254
-14.5723 -12.3992 -2.0389 0.9259
-14.3911 -12.3993 -2.0242 0.9264
-14.2125 -12.3994 -2.0099 0.9269
-13.8778 -12.2594 -1.9732 0.9282
-13.5755 -12.2946 -1.9517 0.9290
-13.4080 -12.2947 -1.9385 0.9294
-13.0797 -12.2948 -1.9129 0.9303
-12.9871 -12.3600 -1.9105 0.9304
-12.9873 -12.6700 -1.9334 0.9296
-12.9875 -12.8278 -1.9452 0.9292
-12.9876 -12.9876 -1.9572 0.9288
-12.9880 -13.4791 -1.9946 0.9275
-12.9881 -13.6471 -2.0076 0.9270
-12.9882 -13.8174 -2.0208 0.9266
-13.0942 -14.8229 -2.1076 0.9235
-13.0945 -15.1980 -2.1377 0.9225
-13.0455 -15.3319 -2.1452 0.9222
-12.9380 -15.7899 -2.1753 0.9212
-12.9900 -16.0549 -2.2007 0.9203
-12.9902 -16.2597 -2.2177 0.9197
-12.9904 -16.4677 -2.2351 0.9191
-12.9907 -16.8938 -2.2709 0.9178
-12.9909 -17.1120 -2.2894 0.9172
-12.9911 -17.3337 -2.3083 0.9166
-12.9913 -17.5592 -2.3276 0.9159
-12.8746 -17.8593 -2.3461 0.9152
-12.6568 -18.0231 -2.3468 0.9152
-12.2152 -18.3426 -2.3484 0.9152
-11.4415 -17.4134 -2.2203 0.9196
-11.2880 -17.4135 -2.2114 0.9199
-10.6860 -17.4138 -2.1772 0.9211
-10.1019 -17.4141 -2.1453 0.9222
-9.9586 -17.4141 -2.1377 0.9225
-9.2564 -17.4145 -2.1016 0.9237
-9.1187 -17.4146 -2.0947 0.9240
-8.4435 -17.4149 -2.0624 0.9251
-8.3109 -17.4150 -2.0562 0.9253
-8.0481 -17.4151 -2.0443 0.9257
-7.9178 -17.4152 -2.0386 0.9259
-7.5312 -17.4154 -2.0219 0.9265
-7.4037 -17.4154 -2.0165 0.9267
-7.2769 -17.4155 -2.0113 0.9269
-7.1508 -17.4156 -2.0062 0.9271
-7.0252 -17.4156 -2.0011 0.9272
-6.1633 -17.4161 -1.9687 0.9284
-5.5638 -17.4164 -1.9483 0.9291
-5.4454 -17.4164 -1.9445 0.9292
-5.0927 -17.4166 -1.9336 0.9296
-4.7439 -17.4168 -1.9236 0.9300
-4.6284 -17.4168 -1.9204 0.9301
-4.3985 -17.4170 -1.9142 0.9303
-4.2841 -17.4170 -1.9113 0.9304
-4.1701 -17.4171 -1.9084 0.9305
-3.8300 -17.4172 -1.9003 0.9308
-3.7172 -17.4173 -1.8978 0.9309
-3.6047 -17.4173 -1.8953 0.9310
-3.2691 -17.4175 -1.8884 0.9312
-3.0465 -17.4176 -1.8842 0.9313
-2.9357 -17.4177 -1.8822 0.9314
-2.8250 -17.4178 -1.8803 0.9315
-2.7146 -17.4178 -1.8785 0.9315
-2.3845 -17.4180 -1.8734 0.9317
-2.1654 -17.4181 -1.8704 0.9318
-1.7292 -17.4183 -1.8652 0.9320
-1.6205 -17.4184 -1.8641 0.9320
-1.5119 -17.4184 -1.8631 0.9321
-1.4034 -17.4185 -1.8621 0.9321
-1.1868 -17.4186 -1.8604 0.9322
-1.0786 -17.4186 -1.8597 0.9322
-0.8625 -17.4187 -1.8584 0.9322
-0.6466 -17.4189 -1.8574 0.9323
-0.1077 -17.4191 -1.8562 0.9323
-0.0000 -17.4192 -1.8562 0.9323
0.2154 -17.4193 -1.8564 0.9323
0.3232 -17.4194 -1.8565 0.9323
0.5388 -17.4195 -1.8571 0.9323
0.6467 -17.4195 -1.8575 0.9323
1.1868 -17.4198 -1.8606 0.9322
1.2951 -17.4198 -1.8614 0.9321
1.4035 -17.4199 -1.8623 0.9321
1.6206 -17.4200 -1.8643 0.9320
1.7293 -17.4201 -1.8654 0.9320
2.0563 -17.4203 -1.8692 0.9319
2.1657 -17.4203 -1.8706 0.9318
2.2752 -17.4204 -1.8721 0.9318
2.3848 -17.4204 -1.8736 0.9317
2.4947 -17.4205 -1.8753 0.9317
2.6047 -17.4205 -1.8770 0.9316
3.0471 -17.4208 -1.8846 0.9313
3.2696 -17.4209 -1.8888 0.9312
3.3813 -17.4209 -1.8910 0.9311
3.4933 -17.4210 -1.8933 0.9310
3.7180 -17.4211 -1.8982 0.9308
3.9439 -17.4212 -1.9034 0.9307
4.5144 -17.4215 -1.9178 0.9302
4.5768 -17.2229 -1.8990 0.9308
4.5999 -16.4854 -1.8238 0.9335
4.6749 -15.9877 -1.7750 0.9352
4.6834 -15.6566 -1.7414 0.9364
4.5791 -14.6459 -1.6352 0.9401
4.5796 -14.0357 -1.5733 0.9423
4.5802 -13.4700 -1.5161 0.9444
4.5804 -13.2022 -1.4891 0.9453
4.5811 -12.4532 -1.4140 0.9480
4.5813 -12.2200 -1.3907 0.9489
4.5815 -11.9943 -1.3682 0.9497
4.5818 -11.5642 -1.3255 0.9512
4.5304 -11.2309 -1.2905 0.9525
4.5307 -10.8432 -1.2523 0.9538
4.5310 -10.4777 -1.2164 0.9551
4.5532 -10.3527 -1.2052 0.9555
4.5833 -9.9178 -1.1642 0.9570
4.5834 -9.7591 -1.1489 0.9576
4.5836 -9.6046 -1.1340 0.9581
4.5837 -9.4540 -1.1196 0.9586
4.5838 -9.3072 -1.1055 0.9591
4.5841 -9.0244 -1.0786 0.9601
4.5842 -8.8880 -1.0657 0.9606
4.5845 -8.4979 -1.0289 0.9619
4.5846 -8.3737 -1.0173 0.9623
4.5848 -8.1337 -0.9949 0.9631
4.5852 -7.6836 -0.9535 0.9646
4.5854 -7.4723 -0.9342 0.9653
4.5857 -7.0742 -0.8984 0.9667
4.5859 -6.8863 -0.8816 0.9673
4.5863 -6.4456 -0.8430 0.9687
4.5863 -6.3621 -0.8357 0.9689
4.5864 -6.2800 -0.8287 0.9692
4.5865 -6.1992 -0.8217 0.9695
4.5865 -6.1198 -0.8149 0.9697
4.5866 -6.0416 -0.8083 0.9699
4.5867 -5.8891 -0.7954 0.9704
4.5870 -5.5981 -0.7712 0.9713
4.5872 -5.3241 -0.7489 0.9721
4.5872 -5.2580 -0.7436 0.9723
4.5873 -5.1929 -0.7383 0.9725
4.5874 -5.0654 -0.7282 0.9729
4.5877 -4.7611 -0.7046 0.9738
4.5877 -4.7026 -0.7001 0.9739
4.5877 -4.6449 -0.6957 0.9741
4.5878 -4.5315 -0.6871 0.9744
4.5879 -4.4758 -0.6830 0.9745
4.5879 -4.4208 -0.6789 0.9747
4.5880 -4.2596 -0.6671 0.9751
4.5881 -4.2071 -0.6633 0.9753
4.5882 -4.0531 -0.6524 0.9757
4.5884 -3.8073 -0.6353 0.9763
4.5885 -3.7125 -0.6290 0.9765
4.5885 -3.6196 -0.6228 0.9768
4.5886 -3.5285 -0.6168 0.9770
4.5886 -3.4836 -0.6139 0.9771
4.5887 -3.4391 -0.6111 0.9772
4.5887 -3.3950 -0.6083 0.9773
4.5887 -3.3513 -0.6055 0.9774
4.5888 -3.2651 -0.6001 0.9776
4.5888 -3.2226 -0.5975 0.9777
4.5888 -3.1804 -0.5950 0.9778
4.5890 -2.9748 -0.5828 0.9782
4.5891 -2.8948 -0.5782 0.9784
4.5891 -2.8554 -0.5759 0.9785
4.5891 -2.8162 -0.5738 0.9786
4.5893 -2.6245 -0.5634 0.9790
4.5893 -2.5870 -0.5614 0.9790
4.5893 -2.5127 -0.5575 0.9792
4.5894 -2.4394 -0.5538 0.9793
4.5894 -2.4031 -0.5520 0.9794
4.5894 -2.3671 -0.5503 0.9794
4.7975 -2.3260 -0.5681 0.9788
5.0335 -2.3262 -0.5909 0.9779
5.1165 -2.3262 -0.5989 0.9776
5.2894 -2.3263 -0.6157 0.9770
5.3795 -2.3263 -0.6246 0.9767
5.4723 -2.3264 -0.6336 0.9764
5.6661 -2.3265 -0.6527 0.9757
5.8721 -2.3266 -0.6731 0.9749
5.9799 -2.3267 -0.6838 0.9745
6.2063 -2.3268 -0.7063 0.9737
6.3252 -2.3269 -0.7182 0.9733
6.4482 -2.3269 -0.7305 0.9728
6.7072 -2.3271 -0.7565 0.9718
6.8438 -2.3271 -0.7703 0.9713
6.9855 -2.3272 -0.7846 0.9708
7.1325 -2.3273 -0.7995 0.9703
7.6092 -2.3275 -0.8479 0.9685
7.9605 -2.3277 -0.8838 0.9672
8.7608 -2.3281 -0.9660 0.9642
8.9847 -2.3282 -0.9890 0.9634
9.2196 -2.3284 -1.0133 0.9625
9.9991 -2.3288 -1.0940 0.9595
10.2873 -2.3289 -1.1240 0.9585
10.5918 -2.3291 -1.1556 0.9573
10.9139 -2.3293 -1.1892 0.9561
11.6178 -2.3296 -1.2626 0.9535
12.0638 -2.3416 -1.3095 0.9518
24.3322 -4.4112 -2.6351 0.9053
24.3601 -4.2609 -2.6352 0.9053
24.3871 -4.1103 -2.6354 0.9053
24.4131 -3.9596 -2.6355 0.9053
24.4621 -3.6576 -2.6357 0.9053
24.5861 -2.7482 -2.6362 0.9053
24.6494 -2.1395 -2.6365 0.9053
24.6627 -1.9871 -2.6366 0.9053
24.6866 -1.6820 -2.6367 0.9053
24.6969 -1.5293 -2.6368 0.9053
24.7149 -1.2237 -2.6369 0.9053
24.7224 -1.0709 -2.6369 0.9053
24.7289 -0.9180 -2.6370 0.9052
24.7426 -0.4591 -2.6371 0.9052
24.7452 -0.3061 -2.6371 0.9052
24.7475 -0.0000 -2.6371 0.9052
24.7471 0.1530 -2.6371 0.9052
24.7458 0.3061 -2.6371 0.9052
24.7435 0.4591 -2.6371 0.9052
24.7402 0.6121 -2.6371 0.9052
24.7307 0.9181 -2.6371 0.9052
24.7245 1.0711 -2.6371 0.9052
24.7173 1.2238 -2.6371 0.9052
24.6898 1.6821 -2.6371 0.9052
24.6535 2.1398 -2.6370 0.9052
24.5138 3.3559 -2.6366 0.9053
24.4920 3.5074 -2.6365 0.9053
24.4453 3.8097 -2.6364 0.9053
11.3042 1.9772 -1.2229 0.9549
9.8641 1.9779 -1.0721 0.9603
9.2694 1.9782 -1.0100 0.9626
8.9971 1.9784 -0.9816 0.9636
8.4959 1.9786 -0.9296 0.9655
8.0452 1.9789 -0.8829 0.9672
7.8363 1.9790 -0.8613 0.9680
7.6375 1.9791 -0.8407 0.9688
7.4479 1.9792 -0.8212 0.9695
6.7699 1.9795 -0.7516 0.9720
6.6179 1.9796 -0.7361 0.9726
6.4721 1.9797 -0.7212 0.9731
6.0680 1.9799 -0.6802 0.9747
5.9433 1.9799 -0.6675 0.9751
5.7073 1.9801 -0.6437 0.9760
5.3831 1.9803 -0.6112 0.9772
5.0901 1.9804 -0.5820 0.9783
4.9985 1.9805 -0.5729 0.9786
4.8236 1.9805 -0.5557 0.9792
4.7401 1.9806 -0.5474 0.9795
4.5802 1.9807 -0.5318 0.9801
4.5036 1.9807 -0.5243 0.9804
4.4918 2.0087 -0.5243 0.9804
4.4918 2.0422 -0.5258 0.9803
4.4918 2.0758 -0.5273 0.9803
4.4918 2.1436 -0.5304 0.9802
4.4918 2.1778 -0.5319 0.9801
4.4919 2.2469 -0.5352 0.9800
4.4919 2.2817 -0.5369 0.9799
4.4919 2.3168 -0.5386 0.9799
4.4919 2.3521 -0.5403 0.9798
4.4919 2.4233 -0.5439 0.9797
4.4919 2.4956 -0.5476 0.9795
4.4919 2.5321 -0.5495 0.9795
4.4920 2.5688 -0.5514 0.9794
4.4920 2.6058 -0.5534 0.9793
4.4920 2.6430 -0.5554 0.9793
4.4920 2.6806 -0.5574 0.9792
4.4920 2.7565 -0.5616 0.9790
4.4920 2.7949 -0.5638 0.9789
4.4920 2.8726 -0.5682 0.9788
4.4921 2.9515 -0.5728 0.9786
4.4921 2.9915 -0.5751 0.9785
4.4921 3.1546 -0.5849 0.9782
4.4921 3.1963 -0.5875 0.9781
4.4921 3.2383 -0.5901 0.9780
4.4922 3.3236 -0.5955 0.9778
4.4922 3.3667 -0.5982 0.9777
4.4922 3.4544 -0.6039 0.9775
4.4922 3.4988 -0.6068 0.9774
4.4922 3.5889 -0.6127 0.9771
4.4923 3.6809 -0.6189 0.9769
4.4923 3.8224 -0.6285 0.9766
4.4923 3.8705 -0.6319 0.9764
4.4923 3.9684 -0.6387 0.9762
4.4923 4.0182 -0.6423 0.9760
4.4924 4.1193 -0.6495 0.9758
4.4924 4.2755 -0.6609 0.9754
4.4924 4.3827 -0.6688 0.9751
4.4925 4.4372 -0.6729 0.9749
4.4925 4.5484 -0.6812 0.9746
4.4925 4.7205 -0.6944 0.9741
4.4926 4.8389 -0.7036 0.9738
4.4926 4.9606 -0.7132 0.9734
4.4926 5.0227 -0.7181 0.9733
4.4926 5.0857 -0.7231 0.9731
4.4926 5.2143 -0.7334 0.9727
4.4926 5.2800 -0.7388 0.9725
4.4927 5.4143 -0.7497 0.9721
4.4927 5.4830 -0.7554 0.9719
4.4927 5.6235 -0.7670 0.9715
4.4927 5.6954 -0.7730 0.9712
4.4927 5.8426 -0.7854 0.9708
4.4928 5.9180 -0.7918 0.9706
4.4928 6.0725 -0.8049 0.9701
4.4928 6.1518 -0.8118 0.9698
4.4929 6.3977 -0.8331 0.9690
4.4929 6.5690 -0.8481 0.9685
4.4929 6.6570 -0.8558 0.9682
4.4929 6.7467 -0.8638 0.9679
4.4929 6.8380 -0.8719 0.9676
4.4929 6.9311 -0.8802 0.9673
4.4930 7.2212 -0.9063 0.9664
4.4930 7.3218 -0.9154 0.9660
4.4931 7.6361 -0.9441 0.9650
4.4931 7.7454 -0.9542 0.9646
4.4931 7.8569 -0.9645 0.9642
4.4931 7.9709 -0.9750 0.9639
4.4931 8.0875 -0.9859 0.9635
4.4932 8.4533 -1.0201 0.9622
4.4932 8.5810 -1.0322 0.9618
4.4933 8.8456 -1.0572 0.9609
4.4933 8.9828 -1.0703 0.9604
4.4933 9.2676 -1.0975 0.9594
4.4933 9.4155 -1.1117 0.9589
4.4934 9.5674 -1.1264 0.9584
4.4934 9.7232 -1.1414 0.9578
4.4934 9.8833 -1.1569 0.9573
4.4935 10.0479 -1.1729 0.9567
4.4935 10.3910 -1.2064 0.9555
4.4417 10.4481 -1.2098 0.9554
4.4417 10.6303 -1.2277 0.9547
4.4937 11.7645 -1.3420 0.9506
4.4938 12.2158 -1.3870 0.9490
4.4938 12.4530 -1.4108 0.9481
4.4952 12.9568 -1.4614 0.9463
4.4939 13.2163 -1.4875 0.9454
4.4940 13.7731 -1.5438 0.9434
4.4941 14.3738 -1.6048 0.9412
4.4941 14.6923 -1.6372 0.9401
4.4423 14.8508 -1.6518 0.9395
4.3926 15.0224 -1.6678 0.9390
4.1917 15.0226 -1.6620 0.9392
3.7939 15.0228 -1.6511 0.9396
3.6952 15.0228 -1.6486 0.9397
3.4987 15.0229 -1.6437 0.9398
3.3035 15.0230 -1.6391 0.9400
3.1223 15.0867 -1.6417 0.9399
3.0249 15.0856 -1.6395 0.9400
2.9278 15.0845 -1.6374 0.9401
2.7337 15.0793 -1.6331 0.9402
2.6378 15.0810 -1.6314 0.9403
2.1588 15.0753 -1.6228 0.9406
2.0636 15.0741 -1.6213 0.9406
1.9686 15.0730 -1.6198 0.9407
1.7790 15.0707 -1.6171 0.9408
1.4914 15.0239 -1.6088 0.9411
1.3040 15.0240 -1.6070 0.9411
0.9303 15.0242 -1.6041 0.9412
0.7439 15.0243 -1.6030 0.9413
0.5577 15.0244 -1.6021 0.9413
0.4647 15.0244 -1.6018 0.9413
0.3717 15.0245 -1.6015 0.9413
0.2788 15.0245 -1.6013 0.9413
0.1858 15.0246 -1.6012 0.9413
0.0000 15.0247 -1.6010 0.9414
-0.0929 15.0247 -1.6011 0.9414
-0.2788 15.0248 -1.6013 0.9413
-0.3718 15.0249 -1.6016 0.9413
-0.6508 15.0250 -1.6026 0.9413
-0.8372 15.0251 -1.6036 0.9413
-0.9304 15.0251 -1.6042 0.9412
-1.1171 15.0252 -1.6055 0.9412
-1.2106 15.0253 -1.6063 0.9412
-1.3042 15.0253 -1.6071 0.9411
-1.3978 15.0254 -1.6080 0.9411
-1.4916 15.0254 -1.6090 0.9411
-1.6795 15.0255 -1.6111 0.9410
-1.8680 15.0256 -1.6135 0.9409
-1.9624 15.0257 -1.6148 0.9409
-2.1444 14.9740 -1.6119 0.9410
-2.5503 15.1311 -1.6351 0.9401
-2.7172 14.9882 -1.6232 0.9406
-2.9092 14.9882 -1.6270 0.9404
-3.0055 14.9883 -1.6290 0.9404
-3.1021 14.9884 -1.6310 0.9403
-3.3932 14.9885 -1.6376 0.9401
-3.5887 14.9886 -1.6423 0.9399
-3.6868 14.9887 -1.6448 0.9398
-3.7853 14.9887 -1.6474 0.9397
-3.8841 14.9887 -1.6500 0.9396
-4.0826 14.9888 -1.6554 0.9394
-4.3829 14.9890 -1.6641 0.9391
-4.4837 14.9890 -1.6672 0.9390
-4.5691 14.9373 -1.6645 0.9391
-4.9032 15.0272 -1.6844 0.9384
-5.1097 15.0273 -1.6914 0.9381
-5.5281 15.0275 -1.7063 0.9376
-5.6339 15.0276 -1.7102 0.9375
-5.8731 15.0949 -1.7260 0.9369
-5.9809 15.0949 -1.7302 0.9368
-6.3726 14.9900 -1.7357 0.9366
-6.4824 14.9900 -1.7403 0.9364
-6.5927 14.9901 -1.7450 0.9362
-6.7037 14.9902 -1.7498 0.9361
-7.0404 14.9903 -1.7648 0.9356
-7.2681 14.9904 -1.7752 0.9352
-7.3829 14.9905 -1.7806 0.9350
-7.8496 14.9907 -1.8032 0.9342
-7.9681 14.9908 -1.8091 0.9340
-8.0875 14.9909 -1.8151 0.9338
-8.3285 14.9910 -1.8274 0.9333
-8.4503 14.9910 -1.8338 0.9331
-8.5729 14.9911 -1.8402 0.9329
-8.8208 14.9912 -1.8535 0.9324
-8.9461 14.9913 -1.8603 0.9322
-9.1996 14.9914 -1.8743 0.9317
-9.3277 14.9915 -1.8815 0.9314
-9.4568 14.9916 -1.8888 0.9312
-9.5870 14.9916 -1.8962 0.9309
-9.9493 14.9400 -1.9127 0.9303
-10.1892 15.0971 -1.9409 0.9294
-10.3257 15.0971 -1.9491 0.9291
-10.6022 15.0973 -1.9659 0.9285
-11.6368 14.9408 -2.0180 0.9266
-11.9781 14.9928 -2.0449 0.9257
-12.1308 14.9929 -2.0551 0.9254
-12.9182 14.9933 -2.1089 0.9235
-13.0790 14.9915 -2.1200 0.9231
-13.0299 14.7501 -2.0972 0.9239
-12.9222 14.2685 -2.0513 0.9255
-12.9740 14.1489 -2.0456 0.9257
-12.9741 13.9744 -2.0320 0.9262
-12.9742 13.6324 -2.0054 0.9271
-12.9742 13.4647 -1.9925 0.9275
-12.9743 13.1357 -1.9674 0.9284
-12.9743 12.8148 -1.9433 0.9293
-12.9744 12.5017 -1.9200 0.9301
-12.9932 12.3657 -1.9114 0.9304
-13.1552 12.3658 -1.9239 0.9299
-12.9745 12.0457 -1.8866 0.9313
-12.9747 11.4615 -1.8448 0.9327
-12.9747 11.3195 -1.8348 0.9331
-12.9748 11.1789 -1.8250 0.9334
-12.9748 11.0399 -1.8154 0.9338
-12.9748 10.9023 -1.8059 0.9341
-12.9749 10.6314 -1.7875 0.9347
-12.9749 10.4980 -1.7785 0.9351
-13.0802 10.1875 -1.7667 0.9355
-13.0802 10.0582 -1.7583 0.9358
-13.0803 9.6775 -1.7339 0.9366
-13.0803 9.5529 -1.7260 0.9369
-13.0313 9.1513 -1.6968 0.9380
-13.0805 9.0656 -1.6959 0.9380
-12.9236 8.6064 -1.6546 0.9395
-12.9755 8.4112 -1.6478 0.9397
-12.9755 8.1851 -1.6348 0.9402
-12.9756 8.0733 -1.6285 0.9404
-12.9756 7.9625 -1.6223 0.9406
-12.9757 7.6348 -1.6043 0.9412
-12.9757 7.5272 -1.5985 0.9414
-12.9759 7.1043 -1.5764 0.9422
-12.9759 7.0003 -1.5711 0.9424
-12.9760 6.7946 -1.5608 0.9428
-12.9760 6.6926 -1.5558 0.9430
-12.9760 6.5914 -1.5509 0.9431
-12.9761 6.3908 -1.5413 0.9435
-12.9762 6.0943 -1.5277 0.9440
-12.9762 5.9967 -1.5233 0.9441
-12.9763 5.8996 -1.5190 0.9443
-12.9763 5.8031 -1.5147 0.9444
-12.9764 5.6115 -1.5065 0.9447
-12.9765 5.3281 -1.4948 0.9451
-12.9765 5.2345 -1.4911 0.9453
-12.9766 5.0489 -1.4838 0.9455
-12.9248 4.8455 -1.4709 0.9460
-13.0819 4.8123 -1.4853 0.9455
-13.0819 4.5387 -1.4755 0.9458
-13.0820 4.4482 -1.4724 0.9459
-13.0352 4.3426 -1.4641 0.9462
-13.0821 4.2685 -1.4664 0.9461
-13.0822 4.0016 -1.4578 0.9465
-13.0331 3.7236 -1.4444 0.9469
-13.0823 3.5633 -1.4449 0.9469
-13.0824 3.4765 -1.4425 0.9470
-13.0825 3.3038 -1.4378 0.9472
-12.9255 3.1793 -1.4184 0.9479
-12.9773 3.1071 -1.4220 0.9477
-12.9774 2.9379 -1.4179 0.9479
-12.9775 2.7696 -1.4140 0.9480
-12.9776 2.6022 -1.4104 0.9481
-12.9777 2.3527 -1.4055 0.9483
-12.9777 2.2699 -1.4039 0.9484
-12.9778 2.1873 -1.4024 0.9484
-12.9778 2.1048 -1.4010 0.9485
-12.9778 2.0225 -1.3996 0.9485
-12.9779 1.9404 -1.3983 0.9486
-12.9779 1.8585 -1.3970 0.9486
-12.9780 1.6949 -1.3947 0.9487
-12.9780 1.6134 -1.3936 0.9488
-12.9781 1.5320 -1.3926 0.9488
-12.9781 1.4506 -1.3916 0.9488
-12.9781 1.3694 -1.3906 0.9489
-15.5348 1.3483 -1.6616 0.9392
-16.7466 1.3492 -1.7903 0.9346
-17.6457 1.3119 -1.8855 0.9313
-19.3115 1.3157 -2.0626 0.9251
-21.7051 1.2093 -2.3165 0.9163
-21.7118 1.0750 -2.3165 0.9163
-21.7228 0.8064 -2.3164 0.9163
-21.7307 0.5376 -2.3163 0.9163
-21.7333 0.4032 -2.3163 0.9163
-21.7352 0.2688 -2.3163 0.9163
-20.3479 -0.0000 -2.3212 0.9213
-12.9792 -0.1606 -1.4807 0.9491
-12.9793 -0.2408 -1.4809 0.9491
-12.9793 -0.3212 -1.4811 0.9491
-12.9794 -0.4819 -1.4817 0.9491
-12.9795 -0.6427 -1.4825 0.9490
-12.9796 -0.8843 -1.4841 0.9490
-12.9797 -0.9650 -1.4848 0.9489
-12.9797 -1.0458 -1.4855 0.9489
-12.9798 -1.1266 -1.4862 0.9489
-12.9798 -1.2886 -1.4880 0.9488
-12.9799 -1.3697 -1.4889 0.9488
-12.9799 -1.4509 -1.4899 0.9488
-12.9800 -1.5322 -1.4910 0.9487
-12.9801 -1.6953 -1.4933 0.9487
-12.9801 -1.7770 -1.4945 0.9486
-12.9284 -1.9331 -1.4912 0.9487
-13.0855 -2.1224 -1.5122 0.9480
-13.0855 -2.2055 -1.5138 0.9480
-13.0856 -2.3723 -1.5171 0.9479
-13.0857 -2.5399 -1.5206 0.9477
-13.0858 -2.6240 -1.5225 0.9477
-13.0858 -2.7083 -1.5244 0.9476
-13.0860 -2.8775 -1.5285 0.9475
-13.0370 -3.1214 -1.5292 0.9475
-13.0697 -3.3007 -1.5377 0.9472
-13.0290 -3.4624 -1.5379 0.9472
-12.9813 -3.7088 -1.5401 0.9471
-12.9814 -3.8831 -1.5457 0.9469
-12.9814 -3.9708 -1.5486 0.9468
-12.9817 -4.3248 -1.5609 0.9464
-12.9817 -4.4142 -1.5642 0.9463
-12.9818 -4.5941 -1.5709 0.9461
-12.9819 -4.6847 -1.5744 0.9460
-12.9820 -4.7756 -1.5780 0.9458
-12.9820 -4.8670 -1.5816 0.9457
-12.9821 -5.0510 -1.5891 0.9455
-12.9825 -5.6142 -1.6135 0.9446
-12.9827 -5.9026 -1.6269 0.9442
-12.9828 -5.9997 -1.6315 0.9440
-12.9828 -6.0975 -1.6362 0.9439
-12.9829 -6.1958 -1.6410 0.9437
-12.9830 -6.3942 -1.6509 0.9434
-12.9833 -6.6964 -1.6665 0.9429
-12.9835 -7.0045 -1.6829 0.9423
-12.9836 -7.1085 -1.6886 0.9421
-12.9319 -7.3954 -1.6994 0.9418
-13.0892 -7.7016 -1.7325 0.9407
-13.0892 -7.8111 -1.7388 0.9405
-13.0402 -7.8915 -1.7388 0.9405
-13.0895 -8.1443 -1.7586 0.9398
-13.0897 -8.3707 -1.7724 0.9394
-13.0899 -8.7172 -1.7941 0.9386
-12.9649 -8.9855 -1.7995 0.9385
-12.9851 -9.2394 -1.8180 0.9379
-12.9852 -9.3609 -1.8261 0.9376
-12.9853 -9.4836 -1.8343 0.9373
-12.9854 -9.6073 -1.8427 0.9370
-12.9855 -9.7323 -1.8512 0.9368
-12.9856 -9.8583 -1.8599 0.9365
-12.9859 -10.2438 -1.8868 0.9356
-12.9861 -10.5071 -1.9056 0.9350
-12.9862 -10.6408 -1.9152 0.9346
-12.9863 -10.7758 -1.9250 0.9343
-14.5695 -12.2423 -2.1709 0.9262
-14.4874 -12.3270 -2.1700 0.9263
-14.2126 -12.3994 -2.1516 0.9269
-13.8784 -12.2599 -2.1124 0.9282
-12.9876 -12.3604 -2.0453 0.9304
-12.9878 -12.6705 -2.0699 0.9296
-12.9882 -13.1499 -2.1084 0.9283
-12.9886 -13.6477 -2.1492 0.9270
-12.9889 -13.9904 -2.1778 0.9260
-12.9375 -14.4642 -2.2137 0.9248
-12.9379 -15.0163 -2.2611 0.9233
-12.9900 -15.2665 -2.2867 0.9225
-12.8384 -16.0697 -2.3464 0.9205
-12.7406 -16.1512 -2.3467 0.9205
-12.3445 -16.4710 -2.3481 0.9205
-11.7355 -16.9329 -2.3502 0.9204
-11.2151 -17.3009 -2.3520 0.9203
-11.1096 -17.3727 -2.3524 0.9203
-10.9847 -17.4136 -2.3487 0.9205
-10.8348 -17.4137 -2.3396 0.9207
-10.5384 -17.4139 -2.3219 0.9213
-9.9586 -17.4142 -2.2884 0.9224
-9.8162 -17.4142 -2.2804 0.9227
-9.6748 -17.4143 -2.2725 0.9229
-9.2564 -17.4145 -2.2498 0.9237
-9.1187 -17.4146 -2.2424 0.9239
-8.9820 -17.4146 -2.2353 0.9241
-8.5769 -17.4149 -2.2145 0.9248
-8.4435 -17.4149 -2.2078 0.9250
-8.1791 -17.4151 -2.1948 0.9255
-8.0481 -17.4151 -2.1885 0.9257
-7.4037 -17.4154 -2.1588 0.9266
-6.9004 -17.4157 -2.1370 0.9274
-6.7761 -17.4158 -2.1318 0.9275
-6.2848 -17.4160 -2.1121 0.9282
-6.1633 -17.4161 -2.1075 0.9283
-6.0424 -17.4161 -2.1029 0.9285
-5.9220 -17.4162 -2.0985 0.9286
-5.5638 -17.4164 -2.0857 0.9290
-5.0927 -17.4166 -2.0700 0.9296
-4.9760 -17.4167 -2.0663 0.9297
-4.7439 -17.4168 -2.0592 0.9299
-4.5133 -17.4169 -2.0525 0.9301
-4.3986 -17.4170 -2.0492 0.9302
-4.2842 -17.4170 -2.0461 0.9303
-4.1701 -17.4171 -2.0430 0.9304
-4.0564 -17.4171 -2.0400 0.9305
-3.9430 -17.4172 -2.0372 0.9306
-3.8299 -17.4172 -2.0344 0.9307
-3.6047 -17.4174 -2.0290 0.9309
-3.4926 -17.4174 -2.0265 0.9310
-3.3807 -17.4175 -2.0240 0.9311
-3.0465 -17.4177 -2.0171 0.9313
-2.9357 -17.4177 -2.0150 0.9314
-2.8250 -17.4178 -2.0129 0.9314
-2.7146 -17.4178 -2.0109 0.9315
-2.6043 -17.4179 -2.0090 0.9316
-2.4943 -17.4179 -2.0072 0.9316
-2.3845 -17.4180 -2.0055 0.9317
-2.1654 -17.4181 -2.0023 0.9318
-2.0561 -17.4182 -2.0008 0.9318
-1.9470 -17.4182 -1.9994 0.9319
-1.2950 -17.4185 -1.9925 0.9321
-1.0786 -17.4187 -1.9909 0.9322
-0.8625 -17.4188 -1.9895 0.9322
-0.7545 -17.4188 -1.9889 0.9322
-0.4310 -17.4190 -1.9877 0.9323
-0.2154 -17.4191 -1.9873 0.9323
0.1077 -17.4193 -1.9872 0.9323
0.3232 -17.4194 -1.9875 0.9323
0.5388 -17.4195 -1.9881 0.9322
0.6467 -17.4195 -1.9885 0.9322
0.7546 -17.4196 -1.9890 0.9322
0.8625 -17.4196 -1.9896 0.9322
0.9705 -17.4197 -1.9902 0.9322
1.1868 -17.4198 -1.9918 0.9321
1.2951 -17.4199 -1.9927 0.9321
1.4035 -17.4199 -1.9936 0.9321
1.6206 -17.4200 -1.9958 0.9320
1.7293 -17.4201 -1.9970 0.9319
1.8382 -17.4201 -1.9982 0.9319
1.9472 -17.4202 -1.9996 0.9319
2.0563 -17.4203 -2.0010 0.9318
2.2751 -17.4204 -2.0041 0.9317
2.6047 -17.4205 -2.0094 0.9315
2.7150 -17.4206 -2.0113 0.9315
2.9361 -17.4207 -2.0153 0.9313
3.0471 -17.4208 -2.0175 0.9313
3.2696 -17.4209 -2.0220 0.9311
3.4932 -17.4210 -2.0269 0.9310
3.6055 -17.4211 -2.0294 0.9309
3.7180 -17.4211 -2.0321 0.9308
3.8308 -17.4212 -2.0348 0.9307
4.0573 -17.4213 -2.0405 0.9305
4.1711 -17.4213 -2.0435 0.9304
4.2852 -17.4214 -2.0466 0.9303
4.5144 -17.4215 -2.0530 0.9301
4.5763 -17.2210 -2.0327 0.9308
4.5767 -16.8031 -1.9867 0.9323
4.6696 -16.3441 -1.9391 0.9339
4.6749 -15.9877 -1.9002 0.9351
4.5787 -14.6445 -1.7503 0.9401
4.5793 -14.0345 -1.6841 0.9423
4.5800 -13.2011 -1.5940 0.9453
4.5805 -12.6933 -1.5394 0.9471
4.5807 -12.4522 -1.5136 0.9480
4.5809 -12.2190 -1.4886 0.9488
4.5813 -11.7749 -1.4413 0.9504
4.5815 -11.5633 -1.4189 0.9512
4.6105 -11.2289 -1.3847 0.9523
4.6870 -11.2171 -1.3868 0.9522
4.6871 -11.0254 -1.3667 0.9529
4.6406 -10.7312 -1.3337 0.9540
4.5312 -9.9663 -1.2489 0.9569
4.5834 -9.4534 -1.1985 0.9586
4.5838 -9.0238 -1.1546 0.9601
4.5845 -8.2519 -1.0769 0.9627
4.5846 -8.1332 -1.0650 0.9631
4.5847 -8.0171 -1.0535 0.9635
4.5850 -7.5765 -1.0102 0.9650
4.5852 -7.3695 -0.9901 0.9657
4.5856 -6.9790 -0.9526 0.9669
4.5861 -6.3618 -0.8946 0.9689
4.5862 -6.2796 -0.8871 0.9692
4.5862 -6.1989 -0.8796 0.9694
4.5864 -6.0414 -0.8653 0.9699
4.5865 -5.8888 -0.8515 0.9704
4.5867 -5.6689 -0.8319 0.9711
4.5868 -5.5978 -0.8256 0.9713
4.5869 -5.3909 -0.8075 0.9719
4.5871 -5.1285 -0.7849 0.9727
4.5873 -5.0027 -0.7743 0.9730
4.5874 -4.8202 -0.7591 0.9736
4.5875 -4.7609 -0.7542 0.9737
4.5876 -4.5876 -0.7401 0.9742
4.5877 -4.4206 -0.7268 0.9747
4.5878 -4.3663 -0.7225 0.9748
4.5879 -4.2070 -0.7101 0.9753
4.5880 -4.1037 -0.7022 0.9755
4.5880 -4.0530 -0.6984 0.9757
4.5880 -4.0028 -0.6946 0.9758
4.5881 -3.9531 -0.6909 0.9759
4.5882 -3.8072 -0.6801 0.9763
4.5883 -3.7124 -0.6733 0.9765
4.5883 -3.6657 -0.6699 0.9766
4.5884 -3.5737 -0.6635 0.9769
4.5884 -3.5284 -0.6603 0.9770
4.5885 -3.4835 -0.6572 0.9771
4.5885 -3.4389 -0.6541 0.9772
4.5885 -3.3949 -0.6511 0.9773
4.5886 -3.3512 -0.6482 0.9774
4.5886 -3.2650 -0.6424 0.9776
4.5887 -3.2224 -0.6396 0.9777
4.5887 -3.1803 -0.6369 0.9778
4.5887 -3.1385 -0.6342 0.9779
4.5888 -3.0151 -0.6264 0.9781
4.5889 -2.8948 -0.6189 0.9784
4.5889 -2.8553 -0.6165 0.9785
4.5890 -2.8161 -0.6142 0.9786
4.5890 -2.7385 -0.6096 0.9787
4.5891 -2.7002 -0.6074 0.9788
4.5891 -2.5869 -0.6010 0.9790
4.5892 -2.4759 -0.5948 0.9792
4.5893 -2.3312 -0.5872 0.9795
4.7228 -2.3260 -0.6006 0.9790
4.8741 -2.3261 -0.6161 0.9785
5.1165 -2.3262 -0.6412 0.9776
5.3795 -2.3263 -0.6686 0.9767
5.4723 -2.3264 -0.6783 0.9763
5.5678 -2.3265 -0.6884 0.9760
5.6661 -2.3265 -0.6987 0.9756
5.7675 -2.3266 -0.7095 0.9753
5.8721 -2.3266 -0.7205 0.9749
5.9799 -2.3267 -0.7320 0.9745
6.0913 -2.3267 -0.7438 0.9741
6.2063 -2.3268 -0.7561 0.9737
6.9855 -2.3272 -0.8399 0.9708
7.6092 -2.3275 -0.9077 0.9685
7.7812 -2.3277 -0.9265 0.9678
7.9605 -2.3277 -0.9461 0.9672
8.3429 -2.3279 -0.9881 0.9657
8.5471 -2.3280 -1.0105 0.9650
8.7608 -2.3281 -1.0341 0.9642
9.9992 -2.3288 -1.1712 0.9595
10.5154 -2.3123 -1.2282 0.9576
11.6178 -2.3296 -1.3517 0.9534
22.7022 -3.9709 -2.6291 0.9114
22.7272 -3.8305 -2.6292 0.9114
22.7970 -3.4087 -2.6295 0.9114
22.8185 -3.2677 -2.6296 0.9114
22.8587 -2.9855 -2.6298 0.9114
22.9283 -2.4195 -2.6301 0.9114
22.9577 -2.1358 -2.6302 0.9114
22.9710 -1.9938 -2.6303 0.9114
23.0056 -1.5674 -2.6305 0.9113
23.0240 -1.2828 -2.6306 0.9113
23.0319 -1.1404 -2.6306 0.9113
23.0449 -0.8555 -2.6307 0.9113
23.0543 -0.5704 -2.6307 0.9113
23.0553 0.5704 -2.6309 0.9113
23.0513 0.7130 -2.6309 0.9113
23.0406 0.9980 -2.6308 0.9113
22.9868 1.8520 -2.6307 0.9113
22.9615 2.1361 -2.6307 0.9113
22.9475 2.2780 -2.6306 0.9113
22.8826 2.8447 -2.6304 0.9113
22.8446 3.1274 -2.6303 0.9113
22.8244 3.2686 -2.6303 0.9114
22.8031 3.4095 -2.6302 0.9114
11.7298 1.9770 -1.3570 0.9532
10.6225 1.9257 -1.2315 0.9575
9.8641 1.9779 -1.1477 0.9603
8.7396 1.9785 -1.0222 0.9646
8.4959 1.9787 -0.9951 0.9655
8.2647 1.9787 -0.9695 0.9664
8.0451 1.9789 -0.9451 0.9672
7.0939 1.9794 -0.8402 0.9708
6.9284 1.9795 -0.8220 0.9714
6.7699 1.9795 -0.8046 0.9720
6.3321 1.9797 -0.7568 0.9736
5.9433 1.9799 -0.7146 0.9751
5.5954 1.9801 -0.6771 0.9764
5.4875 1.9802 -0.6655 0.9768
5.1846 1.9804 -0.6331 0.9779
5.0900 1.9804 -0.6231 0.9783
4.9984 1.9804 -0.6133 0.9786
4.9097 1.9805 -0.6039 0.9789
4.8236 1.9805 -0.5948 0.9792
4.5036 1.9807 -0.5612 0.9804
4.4916 2.0421 -0.5629 0.9803
4.4917 2.1095 -0.5661 0.9802
4.4917 2.1435 -0.5678 0.9802
4.4917 2.1778 -0.5694 0.9801
4.4917 2.2122 -0.5712 0.9800
4.4917 2.3167 -0.5765 0.9799
4.4917 2.3520 -0.5784 0.9798
4.4918 2.4592 -0.5842 0.9796
4.4918 2.4955 -0.5862 0.9795
4.4918 2.5320 -0.5882 0.9795
4.4918 2.5687 -0.5903 0.9794
4.4918 2.6057 -0.5924 0.9793
4.4918 2.6430 -0.5945 0.9792
4.4918 2.6805 -0.5967 0.9792
4.4919 2.7948 -0.6035 0.9789
4.4919 2.8335 -0.6059 0.9788
4.4919 2.8725 -0.6082 0.9788
4.4919 2.9514 -0.6131 0.9786
4.4919 2.9914 -0.6157 0.9785
4.4920 3.0722 -0.6208 0.9783
4.4920 3.1132 -0.6235 0.9782
4.4920 3.1545 -0.6262 0.9781
4.4920 3.2382 -0.6317 0.9780
4.4920 3.2806 -0.6345 0.9779
4.4920 3.3666 -0.6404 0.9777
4.4921 3.4987 -0.6495 0.9773
4.4921 3.5435 -0.6527 0.9772
4.4921 3.5888 -0.6559 0.9771
4.4921 3.6808 -0.6625 0.9769
4.4921 3.7746 -0.6693 0.9767
4.4921 3.8222 -0.6728 0.9765
4.4922 3.9683 -0.6838 0.9762
4.4922 4.0180 -0.6875 0.9760
4.4922 4.0683 -0.6914 0.9759
4.4922 4.1192 -0.6953 0.9758
4.4922 4.1706 -0.6993 0.9756
4.4922 4.2227 -0.7033 0.9755
4.4923 4.4370 -0.7203 0.9749
4.4923 4.4923 -0.7247 0.9747
4.4923 4.5482 -0.7293 0.9746
4.4923 4.6622 -0.7386 0.9743
4.4923 4.7791 -0.7482 0.9739
4.4924 4.9604 -0.7634 0.9734
4.4924 5.0225 -0.7687 0.9732
4.4924 5.0855 -0.7741 0.9731
4.4924 5.1493 -0.7795 0.9729
4.4925 5.4141 -0.8026 0.9721
4.4925 5.4827 -0.8086 0.9719
4.4925 5.5524 -0.8148 0.9717
4.4925 5.6232 -0.8211 0.9714
4.4925 5.6951 -0.8275 0.9712
4.4925 5.8423 -0.8407 0.9708
4.4926 5.9177 -0.8476 0.9705
4.4926 5.9943 -0.8545 0.9703
4.4927 6.4823 -0.8997 0.9687
4.4927 6.5687 -0.9078 0.9685
4.4927 6.6567 -0.9161 0.9682
4.4927 6.9307 -0.9422 0.9673
4.4927 7.0255 -0.9513 0.9670
4.4929 7.7449 -1.0214 0.9646
4.4929 7.8565 -1.0324 0.9642
4.4929 7.9705 -1.0437 0.9638
4.4929 8.0871 -1.0554 0.9634
4.4929 8.4528 -1.0920 0.9622
4.4930 8.7112 -1.1181 0.9613
4.4930 8.8450 -1.1317 0.9608
4.4930 8.9822 -1.1457 0.9604
4.4930 9.2670 -1.1748 0.9594
4.4931 9.4149 -1.1901 0.9589
4.4413 9.7687 -1.2241 0.9577
4.4413 9.9313 -1.2411 0.9571
4.4413 10.0985 -1.2585 0.9566
4.5984 10.8166 -1.3408 0.9538
4.4687 10.8835 -1.3421 0.9537
4.4933 11.1389 -1.3702 0.9528
4.4933 11.5487 -1.4136 0.9513
4.4934 11.9854 -1.4602 0.9498
4.4934 12.4520 -1.5101 0.9481
4.4935 12.6975 -1.5365 0.9472
4.4953 12.9568 -1.5645 0.9463
4.4935 13.2152 -1.5923 0.9454
4.4936 13.4883 -1.6218 0.9444
4.4936 14.0664 -1.6845 0.9423
4.4936 14.3725 -1.7178 0.9412
4.4419 14.8494 -1.7681 0.9395
4.3927 15.0224 -1.7855 0.9389
4.1917 15.0226 -1.7792 0.9391
3.9921 15.0226 -1.7732 0.9393
3.8929 15.0227 -1.7703 0.9394
3.7939 15.0228 -1.7675 0.9395
3.5968 15.0229 -1.7622 0.9397
3.4987 15.0229 -1.7596 0.9398
3.4010 15.0229 -1.7571 0.9399
3.1995 14.9917 -1.7487 0.9402
3.1310 15.1282 -1.7623 0.9397
2.9363 15.1284 -1.7580 0.9398
2.8394 15.1284 -1.7559 0.9399
2.7337 15.0793 -1.7482 0.9402
2.5498 15.1285 -1.7501 0.9401
2.4537 15.1286 -1.7484 0.9402
2.3578 15.1286 -1.7466 0.9402
2.2621 15.1287 -1.7450 0.9403
2.1665 15.1287 -1.7434 0.9403
2.0708 15.1267 -1.7417 0.9404
1.8808 15.1289 -1.7391 0.9405
1.6911 15.1289 -1.7366 0.9406
1.4914 15.0239 -1.7223 0.9410
1.3977 15.0240 -1.7213 0.9411
1.3040 15.0240 -1.7203 0.9411
1.2104 15.0240 -1.7194 0.9411
1.1170 15.0241 -1.7186 0.9411
0.8371 15.0242 -1.7166 0.9412
0.7439 15.0243 -1.7160 0.9412
0.6508 15.0243 -1.7155 0.9413
0.5577 15.0244 -1.7151 0.9413
0.4647 15.0244 -1.7147 0.9413
0.1858 15.0246 -1.7141 0.9413
-0.0000 15.0247 -1.7140 0.9413
-0.0929 15.0247 -1.7140 0.9413
-0.1859 15.0247 -1.7141 0.9413
-0.2788 15.0248 -1.7143 0.9413
-0.4647 15.0249 -1.7148 0.9413
-0.5578 15.0249 -1.7152 0.9413
-0.9304 15.0251 -1.7173 0.9412
-1.1171 15.0252 -1.7187 0.9411
-1.4916 15.0254 -1.7225 0.9410
-1.7737 15.0256 -1.7260 0.9409
-1.9625 15.0257 -1.7286 0.9408
-2.2624 15.1310 -1.7453 0.9403
-2.5503 15.1311 -1.7504 0.9401
-4.3829 14.9890 -1.7815 0.9391
-4.4837 14.9890 -1.7848 0.9390
-4.5691 14.9373 -1.7819 0.9390
-5.4228 15.0274 -1.8225 0.9377
-5.6339 15.0275 -1.8308 0.9374
-5.7471 15.0457 -1.8373 0.9372
-5.8731 15.0949 -1.8477 0.9369
-5.9808 15.0949 -1.8522 0.9367
-6.0891 15.0950 -1.8568 0.9366
-6.2418 14.9381 -1.8469 0.9369
-6.3726 14.9900 -1.8581 0.9365
-6.4824 14.9900 -1.8630 0.9364
-6.8153 14.9902 -1.8785 0.9359
-6.9275 14.9903 -1.8838 0.9357
-7.1538 14.9904 -1.8948 0.9353
-7.2680 14.9904 -1.9004 0.9351
-7.4985 14.9905 -1.9121 0.9347
-7.6148 14.9906 -1.9180 0.9345
-7.9681 14.9908 -1.9367 0.9339
-8.6964 14.9911 -1.9770 0.9326
-8.9461 14.9913 -1.9915 0.9321
-9.0724 14.9913 -1.9989 0.9319
-9.1995 14.9914 -2.0065 0.9316
-9.3277 14.9915 -2.0142 0.9314
-9.7182 14.9917 -2.0381 0.9306
-9.8504 14.9917 -2.0463 0.9303
-10.1892 15.0971 -2.0777 0.9293
-10.3257 15.0971 -2.0865 0.9290
-10.4634 15.0972 -2.0954 0.9287
-10.6022 15.0973 -2.1045 0.9284
-11.0262 15.0975 -2.1327 0.9275
-11.1337 15.0484 -2.1354 0.9274
-11.6097 15.0978 -2.1726 0.9262
-11.6367 14.9408 -2.1603 0.9266
-12.1308 14.9929 -2.2000 0.9253
-12.5983 14.9931 -2.2340 0.9242
-12.7574 14.9932 -2.2457 0.9238
-12.9182 14.9933 -2.2577 0.9234
-12.9227 14.6287 -2.2266 0.9244
-12.9227 14.4476 -2.2112 0.9249
-12.9227 14.2691 -2.1961 0.9254
-12.9746 13.8029 -2.1610 0.9266
-12.9747 13.4653 -2.1331 0.9275
-12.9748 13.2997 -2.1196 0.9279
-12.9748 13.1362 -2.1063 0.9284
-12.9748 12.9748 -2.0932 0.9288
-12.9749 12.6578 -2.0678 0.9296
-12.9749 12.5021 -2.0554 0.9300
-12.9932 12.3657 -2.0462 0.9303
-13.1552 12.3658 -2.0596 0.9299
-12.9750 12.0461 -2.0197 0.9312
-12.9751 11.7508 -1.9969 0.9320
-12.9752 11.3199 -1.9643 0.9330
-12.9752 11.1793 -1.9538 0.9334
-12.9753 10.7666 -1.9234 0.9344
-12.9753 10.6318 -1.9136 0.9347
-12.9236 10.3249 -1.8870 0.9356
-13.0389 10.1554 -1.8853 0.9356
-13.0807 9.9305 -1.8735 0.9360
-13.0808 9.5532 -1.8478 0.9369
-13.0809 9.3074 -1.8314 0.9374
-13.0318 9.1516 -1.8166 0.9379
-13.0809 9.0659 -1.8156 0.9379
-13.0809 8.9467 -1.8079 0.9382
-12.9240 8.6067 -1.7713 0.9394
-12.9759 8.5258 -1.7712 0.9394
-12.9760 8.1853 -1.7501 0.9401
-12.9760 8.0736 -1.7434 0.9403
-12.9760 7.9627 -1.7367 0.9405
-12.9761 7.8527 -1.7302 0.9408
-12.9762 7.5275 -1.7113 0.9414
-12.9762 7.3145 -1.6992 0.9418
-12.9763 7.2092 -1.6934 0.9420
-12.9763 7.1045 -1.6876 0.9422
-12.9763 7.0006 -1.6820 0.9424
-12.9763 6.8973 -1.6764 0.9426
-12.9764 6.7948 -1.6709 0.9427
-12.9764 6.6928 -1.6656 0.9429
-12.9765 6.4910 -1.6552 0.9433
-12.9765 6.3910 -1.6501 0.9434
-12.9765 6.2916 -1.6451 0.9436
-12.9766 6.0945 -1.6355 0.9439
-12.9767 5.8998 -1.6261 0.9442
-12.9767 5.7072 -1.6172 0.9445
-12.9768 5.6117 -1.6128 0.9447
-12.9768 5.5167 -1.6086 0.9448
-12.9769 5.3282 -1.6003 0.9451
-12.9770 5.1416 -1.5923 0.9454
-12.9770 5.0490 -1.5885 0.9455
-12.9770 4.9568 -1.5847 0.9456
-13.0227 4.7906 -1.5829 0.9457
-13.0239 4.6998 -1.5795 0.9458
-13.0262 4.5193 -1.5729 0.9460
-13.0285 4.3404 -1.5665 0.9462
-13.0296 4.2514 -1.5635 0.9463
-13.0308 4.1628 -1.5605 0.9464
-13.0319 4.0745 -1.5576 0.9465
-13.0330 3.9865 -1.5547 0.9466
-13.0341 3.8989 -1.5520 0.9467
-13.0335 3.7237 -1.5463 0.9469
-13.0375 3.6378 -1.5441 0.9470
-12.9259 3.1794 -1.5185 0.9478
-12.9777 3.1072 -1.5223 0.9477
-12.9778 2.9380 -1.5179 0.9478
-12.9778 2.8537 -1.5158 0.9479
-12.9779 2.7697 -1.5138 0.9480
-12.9780 2.4357 -1.5063 0.9482
-12.9782 2.1049 -1.4998 0.9484
-12.9782 2.0226 -1.4984 0.9485
-12.9783 1.8585 -1.4956 0.9486
-12.9783 1.7767 -1.4943 0.9486
-12.9784 1.6950 -1.4931 0.9487
-12.9784 1.6134 -1.4919 0.9487
-12.9784 1.4507 -1.4897 0.9488
-13.5753 1.3476 -1.5562 0.9466
-15.5352 1.3484 -1.7789 0.9392
-17.6462 1.3119 -2.0186 0.9312
-20.3183 1.1320 -2.3214 0.9213
-20.3350 0.7548 -2.3213 0.9213
-20.3466 0.2516 -2.3212 0.9213
-20.3477 0.1258 -2.3212 0.9213
-13.3271 -0.0824 -1.6206 0.9477
-12.9796 -0.1606 -1.5785 0.9490
-12.9798 -0.4015 -1.5791 0.9490
-12.9798 -0.5623 -1.5799 0.9490
-12.9799 -0.6427 -1.5803 0.9490
-12.9799 -0.7232 -1.5808 0.9490
-12.9800 -0.9651 -1.5828 0.9489
-12.9801 -1.0458 -1.5835 0.9489
-12.9801 -1.1267 -1.5844 0.9489
-12.9802 -1.2076 -1.5852 0.9488
-12.9802 -1.2886 -1.5862 0.9488
-12.9805 -1.8589 -1.5946 0.9485
-13.0858 -2.0394 -1.6105 0.9480
-13.0859 -2.2056 -1.6137 0.9479
-13.0860 -2.3724 -1.6172 0.9478
-13.0369 -2.4469 -1.6130 0.9480
-13.0861 -2.5400 -1.6210 0.9477
-13.0862 -2.6241 -1.6230 0.9476
-13.0863 -2.8776 -1.6294 0.9474
-13.0864 -2.9626 -1.6316 0.9474
-13.0864 -3.0478 -1.6339 0.9473
-13.0866 -3.3049 -1.6413 0.9471
-13.0866 -3.3912 -1.6439 0.9470
-13.0867 -3.4777 -1.6466 0.9469
-13.0868 -3.5645 -1.6494 0.9468
-12.9298 -3.6078 -1.6324 0.9473
-12.9817 -3.7089 -1.6418 0.9471
-12.9818 -3.8833 -1.6477 0.9469
-12.9819 -4.0589 -1.6540 0.9467
-12.9822 -4.5041 -1.6710 0.9461
-12.9822 -4.5942 -1.6746 0.9460
-12.9824 -4.8672 -1.6860 0.9457
-12.9825 -4.9590 -1.6900 0.9455
-12.9826 -5.1439 -1.6981 0.9453
-12.9827 -5.2370 -1.7023 0.9452
-12.9832 -5.9999 -1.7392 0.9440
-12.9833 -6.1960 -1.7494 0.9437
-12.9834 -6.2949 -1.7546 0.9435
-12.9835 -6.3944 -1.7599 0.9434
-12.9835 -6.4946 -1.7653 0.9432
-12.9836 -6.5953 -1.7709 0.9430
-12.9837 -6.6966 -1.7765 0.9428
-12.9837 -6.7987 -1.7822 0.9427
-12.9838 -6.9013 -1.7881 0.9425
-12.9840 -7.2135 -1.8062 0.9419
-13.0895 -7.5933 -1.8402 0.9408
-13.0897 -7.8113 -1.8536 0.9404
-13.0406 -7.8918 -1.8536 0.9404
-13.0824 -8.1399 -1.8737 0.9398
-13.0400 -8.2258 -1.8748 0.9398
-13.0445 -8.5710 -1.8980 0.9390
-13.0477 -8.8060 -1.9142 0.9385
-12.9855 -9.1192 -1.9296 0.9381
-12.9860 -9.7326 -1.9734 0.9367
-12.9862 -9.9859 -1.9921 0.9361
-12.9866 -10.5075 -2.0314 0.9349
-12.9867 -10.6411 -2.0417 0.9346
-12.9868 -10.7761 -2.0521 0.9343
-14.4488 -12.2942 -2.3070 0.9264
-14.2692 -12.2943 -2.2904 0.9269
-14.0921 -12.2944 -2.2741 0.9274
-13.8789 -12.2603 -2.2519 0.9281
-13.2428 -12.2948 -2.1974 0.9298
-13.0797 -12.2949 -2.1829 0.9302
-12.9885 -12.8288 -2.2200 0.9291
-12.9886 -12.9886 -2.2337 0.9287
-12.9887 -13.1504 -2.2477 0.9282
-12.9889 -13.3142 -2.2619 0.9278
-12.9892 -13.6482 -2.2912 0.9269
-12.9893 -13.8185 -2.3062 0.9264
-12.2408 -14.9391 -2.3486 0.9251
-12.1498 -15.0165 -2.3489 0.9251
-12.0584 -15.0934 -2.3492 0.9251
-11.8740 -15.2455 -2.3499 0.9251
-11.7811 -15.3207 -2.3502 0.9251
-11.6878 -15.3955 -2.3505 0.9251
-11.5939 -15.4696 -2.3508 0.9251
-11.3097 -15.6886 -2.3518 0.9250
-11.2141 -15.7605 -2.3522 0.9250
-11.1180 -15.8318 -2.3525 0.9250
-11.0214 -15.9025 -2.3528 0.9250
-10.9245 -15.9726 -2.3532 0.9250
-10.6309 -16.1796 -2.3542 0.9250
-10.5321 -16.2474 -2.3545 0.9249
-10.4330 -16.3146 -2.3549 0.9249
-10.1330 -16.5127 -2.3559 0.9249
-10.0322 -16.5775 -2.3563 0.9249
-9.9310 -16.6418 -2.3566 0.9249
-9.7274 -16.7684 -2.3574 0.9249
-9.6250 -16.8308 -2.3577 0.9248
-9.5221 -16.8926 -2.3581 0.9248
-9.4189 -16.9537 -2.3584 0.9248
-9.0023 -17.1921 -2.3599 0.9248
-8.7917 -17.3076 -2.3606 0.9248
-8.5796 -17.4204 -2.3614 0.9247
-8.4435 -17.4149 -2.3535 0.9250
-8.3109 -17.4150 -2.3465 0.9252
-7.9178 -17.4152 -2.3263 0.9258
-7.6594 -17.4153 -2.3135 0.9262
-7.5312 -17.4154 -2.3073 0.9264
-7.0253 -17.4157 -2.2836 0.9271
-6.9004 -17.4157 -2.2780 0.9273
-6.7761 -17.4158 -2.2725 0.9275
-6.5293 -17.4159 -2.2618 0.9278
-6.4068 -17.4160 -2.2566 0.9280
-6.1633 -17.4161 -2.2466 0.9283
-5.9220 -17.4162 -2.2370 0.9286
-5.8021 -17.4163 -2.2323 0.9287
-5.4454 -17.4164 -2.2190 0.9291
-5.0927 -17.4166 -2.2066 0.9295
-4.9760 -17.4167 -2.2027 0.9296
-4.8598 -17.4167 -2.1988 0.9297
-4.7439 -17.4168 -2.1951 0.9298
-4.3986 -17.4170 -2.1845 0.9302
-4.2841 -17.4170 -2.1811 0.9303
-4.1701 -17.4171 -2.1778 0.9304
-4.0564 -17.4171 -2.1747 0.9305
-3.9430 -17.4172 -2.1716 0.9306
-3.6047 -17.4174 -2.1629 0.9308
-3.1577 -17.4176 -2.1526 0.9312
-3.0465 -17.4177 -2.1502 0.9312
-2.7146 -17.4179 -2.1436 0.9314
-2.3845 -17.4180 -2.1378 0.9316
-2.2749 -17.4181 -2.1361 0.9317
-2.1654 -17.4181 -2.1344 0.9317
-1.6205 -17.4184 -2.1273 0.9319
-1.5119 -17.4184 -2.1261 0.9320
-1.4034 -17.4185 -2.1250 0.9320
-1.2950 -17.4186 -2.1240 0.9320
-0.8625 -17.4188 -2.1208 0.9321
-0.6466 -17.4189 -2.1197 0.9322
-0.4310 -17.4190 -2.1189 0.9322
-0.3232 -17.4190 -2.1186 0.9322
-0.2154 -17.4191 -2.1184 0.9322
-0.1077 -17.4192 -2.1183 0.9322
0.1077 -17.4193 -2.1183 0.9322
0.2155 -17.4193 -2.1184 0.9322
0.4310 -17.4195 -2.1189 0.9322
0.5388 -17.4195 -2.1193 0.9322
1.1868 -17.4198 -2.1232 0.9321
1.2951 -17.4199 -2.1242 0.9320
1.7293 -17.4201 -2.1288 0.9319
1.8382 -17.4202 -2.1301 0.9318
2.0563 -17.4203 -2.1331 0.9318
2.1657 -17.4203 -2.1347 0.9317
2.7150 -17.4206 -2.1440 0.9314
2.8255 -17.4207 -2.1461 0.9314
2.9361 -17.4207 -2.1483 0.9313
3.1582 -17.4208 -2.1530 0.9311
3.2696 -17.4209 -2.1554 0.9311
3.4932 -17.4210 -2.1606 0.9309
3.7180 -17.4211 -2.1662 0.9307
4.1711 -17.4214 -2.1784 0.9304
4.2852 -17.4214 -2.1817 0.9303
4.5145 -17.4215 -2.1885 0.9300
4.5762 -16.8013 -2.1175 0.9322
4.5999 -16.4855 -2.0813 0.9334
4.6818 -16.3867 -2.0724 0.9336
4.6749 -15.9877 -2.0256 0.9351
4.6348 -15.4942 -1.9666 0.9369
4.5333 -14.8204 -1.8846 0.9395
4.5786 -14.3323 -1.8296 0.9412
4.5788 -14.0332 -1.7950 0.9423
4.5796 -13.2000 -1.6990 0.9453
4.5801 -12.6923 -1.6408 0.9471
4.5803 -12.4512 -1.6133 0.9479
4.5805 -12.2180 -1.5867 0.9488
4.5808 -11.9924 -1.5611 0.9496
4.5810 -11.7740 -1.5363 0.9504
4.5812 -11.5624 -1.5124 0.9511
4.5297 -11.2292 -1.4724 0.9524
4.6105 -11.2290 -1.4761 0.9523
4.6873 -10.4813 -1.3962 0.9548
4.6676 -10.1002 -1.3530 0.9562
4.5834 -9.1629 -1.2459 0.9596
4.5835 -9.0232 -1.2307 0.9600
4.5836 -8.8870 -1.2160 0.9605
4.5839 -8.6239 -1.1876 0.9614
4.5840 -8.4969 -1.1740 0.9618
4.5841 -8.3728 -1.1608 0.9623
4.5843 -8.1327 -1.1353 0.9631
4.5844 -8.0166 -1.1230 0.9635
4.5845 -7.9030 -1.1110 0.9639
4.5847 -7.6828 -1.0880 0.9646
4.5848 -7.5761 -1.0768 0.9649
4.5850 -7.3691 -1.0554 0.9656
4.5853 -7.0735 -1.0251 0.9666
4.5854 -6.9787 -1.0154 0.9669
4.5859 -6.3615 -0.9536 0.9689
4.5860 -6.1986 -0.9376 0.9694
4.5861 -6.1192 -0.9299 0.9697
4.5862 -6.0411 -0.9223 0.9699
4.5863 -5.8886 -0.9076 0.9704
4.5866 -5.5276 -0.8734 0.9715
4.5868 -5.3236 -0.8545 0.9721
4.5869 -5.1283 -0.8367 0.9727
4.5870 -5.0650 -0.8310 0.9728
4.5871 -5.0025 -0.8253 0.9730
4.5871 -4.9409 -0.8198 0.9732
4.5873 -4.7607 -0.8039 0.9737
4.5874 -4.6445 -0.7938 0.9740
4.5874 -4.5875 -0.7889 0.9742
4.5875 -4.5311 -0.7841 0.9744
4.5875 -4.4754 -0.7794 0.9745
4.5876 -4.3124 -0.7656 0.9749
4.5877 -4.2068 -0.7569 0.9752
4.5879 -4.0026 -0.7404 0.9758
4.5879 -3.9530 -0.7364 0.9759
4.5880 -3.9038 -0.7325 0.9760
4.5880 -3.8552 -0.7287 0.9761
4.5881 -3.7594 -0.7213 0.9764
4.5881 -3.7123 -0.7177 0.9765
4.5882 -3.6194 -0.7106 0.9767
4.5882 -3.5736 -0.7072 0.9768
4.5883 -3.5282 -0.7038 0.9769
4.5883 -3.4833 -0.7005 0.9771
4.5884 -3.3511 -0.6909 0.9774
4.5884 -3.3078 -0.6878 0.9775
4.5886 -3.1384 -0.6760 0.9778
4.5886 -3.0969 -0.6732 0.9779
4.5886 -3.0558 -0.6704 0.9780
4.5887 -2.9345 -0.6623 0.9783
4.5888 -2.8160 -0.6547 0.9785
4.5889 -2.7384 -0.6498 0.9787
4.5890 -2.5868 -0.6406 0.9790
4.5890 -2.5495 -0.6384 0.9791
4.5890 -2.5125 -0.6362 0.9791
4.5891 -2.4758 -0.6341 0.9792
4.5891 -2.4393 -0.6320 0.9793
4.5891 -2.4030 -0.6299 0.9793
4.5892 -2.3312 -0.6259 0.9795
4.6500 -2.3260 -0.6322 0.9793
4.7228 -2.3260 -0.6402 0.9790
4.7975 -2.3261 -0.6483 0.9787
4.9528 -2.3262 -0.6654 0.9782
5.4723 -2.3264 -0.7231 0.9763
5.7676 -2.3266 -0.7563 0.9753
5.8721 -2.3266 -0.7681 0.9749
5.9800 -2.3267 -0.7803 0.9745
6.0913 -2.3267 -0.7929 0.9741
6.3689 -2.2539 -0.8216 0.9731
7.2853 -2.3274 -0.9300 0.9697
7.9605 -2.3277 -1.0086 0.9671
8.1476 -2.3278 -1.0304 0.9664
8.5471 -2.3280 -1.0772 0.9649
8.9848 -2.3283 -1.1287 0.9633
9.4664 -2.3285 -1.1855 0.9615
10.0581 -2.2770 -1.2541 0.9593
10.3558 -2.2772 -1.2894 0.9582
10.9172 -2.3300 -1.3575 0.9560
12.0674 -2.3422 -1.4948 0.9517
21.2290 -3.8487 -2.6236 0.9167
21.2532 -3.7175 -2.6237 0.9167
21.2993 -3.4546 -2.6239 0.9167
21.3210 -3.3229 -2.6240 0.9167
21.3418 -3.1911 -2.6241 0.9167
21.3995 -2.7949 -2.6243 0.9167
21.4170 -2.6626 -2.6244 0.9167
21.4336 -2.5301 -2.6245 0.9167
21.4495 -2.3976 -2.6246 0.9167
21.4919 -1.9994 -2.6248 0.9167
21.5043 -1.8665 -2.6248 0.9167
21.5365 -1.4673 -2.6250 0.9167
21.5456 -1.3342 -2.6250 0.9167
21.5538 -1.2009 -2.6251 0.9167
21.5611 -1.0676 -2.6251 0.9167
21.5676 -0.9342 -2.6252 0.9167
21.5732 -0.8009 -2.6252 0.9167
21.5780 -0.6675 -2.6252 0.9167
21.5890 0.1335 -2.6253 0.9167
21.5858 0.4005 -2.6254 0.9167
21.5746 0.8009 -2.6254 0.9167
21.5188 1.7337 -2.6252 0.9167
21.5074 1.8668 -2.6252 0.9167
21.4952 1.9997 -2.6252 0.9167
21.4682 2.2654 -2.6251 0.9167
21.4534 2.3980 -2.6251 0.9167
21.3860 2.9277 -2.6249 0.9167
21.3670 3.0598 -2.6248 0.9167
21.3265 3.3238 -2.6247 0.9167
12.3750 2.0071 -1.5245 0.9507
10.6224 1.9257 -1.3128 0.9574
9.9235 1.9261 -1.2293 0.9601
8.9971 1.9784 -1.1202 0.9636
8.4959 1.9786 -1.0608 0.9655
8.0451 1.9789 -1.0075 0.9672
7.8363 1.9790 -0.9828 0.9680
7.0938 1.9794 -0.8956 0.9708
6.9283 1.9795 -0.8762 0.9714
6.7698 1.9795 -0.8577 0.9720
6.6179 1.9796 -0.8400 0.9725
6.3321 1.9797 -0.8068 0.9736
6.0679 1.9799 -0.7762 0.9746
5.9433 1.9799 -0.7618 0.9751
5.8231 1.9800 -0.7479 0.9755
5.7072 1.9801 -0.7346 0.9760
5.5954 1.9801 -0.7218 0.9764
5.4874 1.9802 -0.7094 0.9768
5.1846 1.9804 -0.6749 0.9779
4.7400 1.9806 -0.6247 0.9795
4.6589 1.9806 -0.6156 0.9798
4.5802 1.9806 -0.6068 0.9801
4.4915 2.0086 -0.5983 0.9804
4.4915 2.0420 -0.6000 0.9803
4.4915 2.0757 -0.6017 0.9803
4.4915 2.1095 -0.6034 0.9802
4.4916 2.1777 -0.6070 0.9801
4.4916 2.2121 -0.6088 0.9800
4.4916 2.2467 -0.6107 0.9800
4.4916 2.2815 -0.6126 0.9799
4.4916 2.3166 -0.6146 0.9798
4.4916 2.3519 -0.6165 0.9798
4.4917 2.5319 -0.6270 0.9794
4.4917 2.6056 -0.6315 0.9793
4.4917 2.6804 -0.6361 0.9791
4.4917 2.7182 -0.6384 0.9791
4.4917 2.7947 -0.6433 0.9789
4.4918 2.9513 -0.6536 0.9786
4.4918 2.9913 -0.6563 0.9785
4.4918 3.0315 -0.6590 0.9784
4.4918 3.0721 -0.6618 0.9783
4.4918 3.1544 -0.6675 0.9781
4.4919 3.2381 -0.6734 0.9779
4.4919 3.2805 -0.6764 0.9778
4.4919 3.4101 -0.6858 0.9775
4.4919 3.4541 -0.6891 0.9774
4.4919 3.4985 -0.6924 0.9773
4.4919 3.5887 -0.6992 0.9771
4.4920 3.7745 -0.7135 0.9766
4.4920 3.8221 -0.7172 0.9765
4.4920 3.8703 -0.7210 0.9764
4.4920 3.9189 -0.7249 0.9763
4.4920 4.0179 -0.7329 0.9760
4.4920 4.1190 -0.7411 0.9757
4.4921 4.3823 -0.7631 0.9750
4.4921 4.4369 -0.7678 0.9749
4.4921 4.6046 -0.7823 0.9744
4.4921 4.6620 -0.7873 0.9743
4.4922 4.9602 -0.8138 0.9734
4.4922 5.0223 -0.8194 0.9732
4.4922 5.1491 -0.8310 0.9728
4.4922 5.2795 -0.8430 0.9725
4.4923 5.4825 -0.8619 0.9718
4.4923 5.5522 -0.8685 0.9716
4.4923 5.6230 -0.8752 0.9714
4.4923 5.7679 -0.8890 0.9710
4.4923 5.8420 -0.8962 0.9707
4.4923 5.9174 -0.9035 0.9705
4.4923 5.9941 -0.9109 0.9703
4.4924 6.0720 -0.9185 0.9700
4.4924 6.1512 -0.9263 0.9698
4.4924 6.3137 -0.9423 0.9693
4.4924 6.4820 -0.9590 0.9687
4.4924 6.5684 -0.9677 0.9684
4.4925 6.6564 -0.9765 0.9682
4.4925 6.8373 -0.9949 0.9676
4.4925 7.4236 -1.0552 0.9656
4.4926 7.5284 -1.0661 0.9653
4.4926 7.7445 -1.0887 0.9646
4.4927 8.4523 -1.1640 0.9622
4.4927 8.7106 -1.1918 0.9613
4.4410 9.3058 -1.2539 0.9593
4.4410 9.4558 -1.2704 0.9588
4.4410 9.6098 -1.2873 0.9582
4.5980 10.1133 -1.3510 0.9562
4.5677 10.3857 -1.3797 0.9553
4.4687 10.8835 -1.4307 0.9537
4.4929 11.3398 -1.4833 0.9520
4.4930 11.5478 -1.5068 0.9513
4.4930 11.7626 -1.5312 0.9505
4.4930 11.9845 -1.5564 0.9497
4.4930 12.2138 -1.5826 0.9489
4.4930 12.4510 -1.6097 0.9481
4.4931 13.2140 -1.6972 0.9453
4.4932 14.6895 -1.8680 0.9400
4.3926 15.0224 -1.9033 0.9389
4.2920 15.0225 -1.8999 0.9390
4.1917 15.0225 -1.8966 0.9391
4.0917 15.0226 -1.8934 0.9392
3.8928 15.0227 -1.8872 0.9394
3.7939 15.0228 -1.8842 0.9395
3.6952 15.0228 -1.8813 0.9396
3.3034 15.0230 -1.8705 0.9399
3.1991 14.9897 -1.8639 0.9401
2.7337 15.0793 -1.8636 0.9401
2.4537 15.1286 -1.8637 0.9401
2.2621 15.1287 -1.8602 0.9402
2.1665 15.1287 -1.8585 0.9403
1.6911 15.1289 -1.8512 0.9405
1.5799 14.9721 -1.8308 0.9411
1.4914 15.0239 -1.8359 0.9410
1.3040 15.0240 -1.8338 0.9410
1.0236 15.0241 -1.8312 0.9411
0.9303 15.0242 -1.8305 0.9411
0.8371 15.0242 -1.8298 0.9412
0.7439 15.0243 -1.8292 0.9412
0.6508 15.0243 -1.8287 0.9412
0.4647 15.0244 -1.8279 0.9412
0.0929 15.0246 -1.8271 0.9413
0.0000 15.0246 -1.8271 0.9413
-0.3718 15.0248 -1.8276 0.9412
-0.7440 15.0250 -1.8293 0.9412
-0.8372 15.0251 -1.8299 0.9412
-1.0237 15.0252 -1.8314 0.9411
-1.1171 15.0252 -1.8322 0.9411
-1.3979 15.0254 -1.8350 0.9410
-1.6796 15.0255 -1.8385 0.9409
-1.8680 15.0256 -1.8412 0.9408
-2.0570 15.0257 -1.8442 0.9407
-2.3582 15.1310 -1.8622 0.9402
