ply
format ascii 1.0
element vertex 1591
property float32 x
property float32 y
property float32 z
property float32 I
end_header
4.1511 7.8096 -2.3724 0.9640
3.9565 7.9097 -2.3724 0.9640
3.9075 7.9340 -2.3724 0.9640
3.7596 8.0050 -2.3723 0.9640
3.7100 8.0280 -2.3723 0.9640
3.4599 8.1386 -2.3722 0.9640
3.3083 8.2013 -2.3722 0.9640
3.2575 8.2215 -2.3722 0.9640
3.1555 8.2611 -2.3722 0.9640
3.1043 8.2804 -2.3721 0.9640
3.0016 8.3180 -2.3721 0.9640
2.9501 8.3364 -2.3721 0.9640
2.8467 8.3721 -2.3721 0.9640
2.7949 8.3895 -2.3720 0.9640
2.6909 8.4233 -2.3720 0.9640
2.4817 8.4872 -2.3720 0.9640
2.4292 8.5025 -2.3720 0.9640
2.3765 8.5173 -2.3720 0.9640
2.3238 8.5319 -2.3720 0.9640
2.2711 8.5461 -2.3720 0.9640
2.1652 8.5736 -2.3720 0.9640
2.1121 8.5869 -2.3720 0.9640
2.0590 8.5998 -2.3721 0.9640
1.9525 8.6246 -2.3721 0.9640
1.8991 8.6366 -2.3721 0.9640
1.6312 8.6913 -2.3721 0.9640
1.5774 8.7012 -2.3721 0.9640
1.5236 8.7108 -2.3721 0.9640
1.4697 8.7201 -2.3721 0.9640
1.4157 8.7290 -2.3721 0.9640
1.3617 8.7377 -2.3721 0.9640
1.3077 8.7460 -2.3721 0.9640
1.0367 8.7823 -2.3722 0.9640
0.9824 8.7886 -2.3722 0.9640
0.8736 8.8001 -2.3722 0.9640
0.8192 8.8054 -2.3722 0.9640
0.7102 8.8149 -2.3722 0.9640
0.6556 8.8191 -2.3722 0.9640
0.4920 8.8299 -2.3723 0.9640
0.4373 8.8328 -2.3723 0.9640
0.3827 8.8353 -2.3723 0.9640
0.3281 8.8376 -2.3723 0.9640
0.2734 8.8395 -2.3723 0.9640
0.2187 8.8410 -2.3723 0.9640
0.1640 8.8422 -2.3723 0.9640
-0.0547 8.8437 -2.3723 0.9640
-0.1641 8.8424 -2.3724 0.9640
-0.2188 8.8412 -2.3724 0.9640
-0.2734 8.8398 -2.3724 0.9640
-0.3828 8.8358 -2.3724 0.9640
-0.4374 8.8333 -2.3724 0.9640
-0.5466 8.8272 -2.3724 0.9640
-0.7103 8.8157 -2.3724 0.9640
-0.7648 8.8111 -2.3724 0.9640
-0.8193 8.8063 -2.3724 0.9640
-0.8737 8.8011 -2.3725 0.9640
-0.9825 8.7896 -2.3725 0.9640
-1.1996 8.7628 -2.3725 0.9640
-1.2538 8.7552 -2.3725 0.9640
-1.3079 8.7473 -2.3725 0.9640
-1.3620 8.7391 -2.3725 0.9640
-1.4700 8.7217 -2.3726 0.9640
-1.6316 8.6930 -2.3726 0.9640
-1.8461 8.6501 -2.3726 0.9640
-1.9530 8.6267 -2.3726 0.9640
-2.0063 8.6145 -2.3726 0.9640
-2.1127 8.5891 -2.3727 0.9640
-2.2188 8.5623 -2.3727 0.9640
-2.2717 8.5485 -2.3727 0.9640
-2.3773 8.5198 -2.3727 0.9640
-2.5873 8.4585 -2.3727 0.9640
-2.6396 8.4424 -2.3728 0.9640
-2.7438 8.4092 -2.3728 0.9640
-2.7958 8.3921 -2.3728 0.9640
-2.8476 8.3747 -2.3728 0.9640
-2.8994 8.3569 -2.3728 0.9640
-3.0025 8.3205 -2.3728 0.9640
-3.0539 8.3018 -2.3728 0.9640
-3.1052 8.2828 -2.3728 0.9640
-3.1564 8.2635 -2.3728 0.9640
-3.2584 8.2239 -2.3729 0.9640
-3.3092 8.2036 -2.3729 0.9640
-3.3599 8.1830 -2.3729 0.9640
-3.5112 8.1194 -2.3729 0.9640
-3.5613 8.0975 -2.3729 0.9640
-3.6114 8.0754 -2.3729 0.9640
-3.7110 8.0302 -2.3730 0.9640
-3.7606 8.0071 -2.3730 0.9640
-4.2004 7.7858 -2.3731 0.9640
-4.2484 7.7597 -2.3731 0.9640
-4.2963 7.7333 -2.3731 0.9640
-4.3917 7.6796 -2.3731 0.9640
-4.4864 7.6248 -2.3731 0.9640
-4.6272 7.5404 -2.3731 0.9640
-4.6737 7.5116 -2.3732 0.9640
-4.7663 7.4533 -2.3732 0.9640
-4.8123 7.4237 -2.3732 0.9640
-4.8582 7.3938 -2.3732 0.9640
-4.9038 7.3637 -2.3732 0.9640
-4.9946 7.3026 -2.3732 0.9640
-5.0396 7.2715 -2.3732 0.9640
-5.0846 7.2403 -2.3732 0.9640
-5.2181 7.1448 -2.3733 0.9640
-5.2622 7.1124 -2.3733 0.9640
-5.3933 7.0137 -2.3733 0.9640
-5.4366 6.9802 -2.3733 0.9640
-5.5225 6.9125 -2.3733 0.9640
-5.5652 6.8782 -2.3734 0.9640
-5.6499 6.8089 -2.3734 0.9640
-5.6919 6.7739 -2.3734 0.9640
-5.7337 6.7386 -2.3734 0.9640
-5.7753 6.7030 -2.3734 0.9640
-5.8167 6.6672 -2.3734 0.9640
-5.8578 6.6311 -2.3734 0.9640
-5.8987 6.5948 -2.3734 0.9640
-6.0202 6.4843 -2.3735 0.9640
-6.1395 6.3716 -2.3735 0.9640
-6.1788 6.3335 -2.3735 0.9640
-6.2178 6.2952 -2.3735 0.9640
-6.2566 6.2566 -2.3735 0.9640
-6.2952 6.2178 -2.3735 0.9640
-6.3335 6.1787 -2.3735 0.9640
-6.3715 6.1394 -2.3735 0.9640
-6.4094 6.0998 -2.3735 0.9640
-6.6311 5.8578 -2.3734 0.9640
-6.6672 5.8166 -2.3734 0.9640
-6.7030 5.7753 -2.3734 0.9640
-6.8089 5.6499 -2.3734 0.9640
-6.8437 5.6076 -2.3734 0.9640
-6.9125 5.5225 -2.3733 0.9640
-6.9465 5.4796 -2.3733 0.9640
-7.0469 5.3498 -2.3733 0.9640
-7.0798 5.3061 -2.3733 0.9640
-7.1448 5.2181 -2.3733 0.9640
-7.1770 5.1738 -2.3733 0.9640
-7.3026 4.9946 -2.3733 0.9640
-7.3940 4.8582 -2.3732 0.9640
-7.4238 4.8124 -2.3732 0.9640
-7.5118 4.6738 -2.3732 0.9640
-7.6798 4.3918 -2.3731 0.9640
-7.7335 4.2965 -2.3731 0.9640
-7.7860 4.2005 -2.3731 0.9640
-7.8625 4.0552 -2.3731 0.9640
-7.8874 4.0065 -2.3731 0.9640
-7.9120 3.9577 -2.3731 0.9640
-7.9363 3.9087 -2.3731 0.9640
-8.0757 3.6115 -2.3730 0.9640
-8.0978 3.5614 -2.3730 0.9640
-8.2039 3.3094 -2.3730 0.9640
-8.2442 3.2076 -2.3730 0.9640
-8.2832 3.1054 -2.3729 0.9640
-8.3573 2.8995 -2.3729 0.9640
-8.3925 2.7959 -2.3729 0.9640
-8.4096 2.7439 -2.3729 0.9640
-8.4264 2.6919 -2.3729 0.9640
-8.4428 2.6397 -2.3729 0.9640
-8.4590 2.5874 -2.3729 0.9640
-8.4748 2.5351 -2.3729 0.9640
-8.4903 2.4826 -2.3728 0.9640
-8.5203 2.3774 -2.3728 0.9640
-8.5348 2.3246 -2.3728 0.9640
-8.5628 2.2189 -2.3728 0.9640
-8.6024 2.0596 -2.3728 0.9640
-8.6272 1.9531 -2.3728 0.9640
-8.6727 1.7391 -2.3727 0.9640
-8.7222 1.4701 -2.3727 0.9640
-8.7397 1.3621 -2.3727 0.9640
-8.7558 1.2539 -2.3727 0.9640
-8.7775 1.0912 -2.3726 0.9640
-8.7902 0.9825 -2.3726 0.9640
-8.7961 0.9282 -2.3726 0.9640
-8.8069 0.8193 -2.3726 0.9640
-8.8118 0.7648 -2.3726 0.9640
-8.8163 0.7103 -2.3726 0.9640
-8.8205 0.6558 -2.3726 0.9640
-8.8339 0.4374 -2.3726 0.9640
-8.8364 0.3828 -2.3726 0.9640
-8.8431 0.1641 -2.3725 0.9640
-8.8444 0.0547 -2.3725 0.9640
-8.5892 0.0000 -2.3725 0.9650
-8.5891 -0.0531 -2.3725 0.9650
-8.5885 -0.1062 -2.3725 0.9650
-8.5877 -0.1594 -2.3725 0.9650
-8.5865 -0.2125 -2.3725 0.9650
-8.5850 -0.2656 -2.3725 0.9650
-8.5832 -0.3186 -2.3725 0.9650
-8.5757 -0.4778 -2.3725 0.9650
-8.5726 -0.5308 -2.3725 0.9650
-8.5691 -0.5838 -2.3724 0.9650
-8.5612 -0.6898 -2.3724 0.9650
-8.5519 -0.7956 -2.3724 0.9650
-8.5414 -0.9013 -2.3724 0.9650
-8.5296 -1.0069 -2.3724 0.9650
-8.5164 -1.1123 -2.3724 0.9650
-8.5093 -1.1649 -2.3724 0.9650
-8.5020 -1.2175 -2.3724 0.9650
-8.4862 -1.3226 -2.3724 0.9650
-8.4692 -1.4274 -2.3723 0.9650
-8.4209 -1.6886 -2.3723 0.9650
-8.4102 -1.7406 -2.3723 0.9650
-8.3880 -1.8445 -2.3723 0.9650
-8.3764 -1.8963 -2.3723 0.9650
-8.3269 -2.1029 -2.3723 0.9650
-8.3002 -2.2057 -2.3723 0.9650
-8.2864 -2.2570 -2.3723 0.9650
-8.2723 -2.3082 -2.3722 0.9650
-8.2578 -2.3593 -2.3722 0.9650
-8.2430 -2.4103 -2.3722 0.9650
-8.1968 -2.5628 -2.3722 0.9650
-8.1479 -2.7143 -2.3722 0.9650
-8.1136 -2.8149 -2.3722 0.9650
-8.0960 -2.8650 -2.3722 0.9650
-8.0782 -2.9150 -2.3722 0.9650
-8.0600 -2.9649 -2.3722 0.9650
-8.0226 -3.0644 -2.3722 0.9650
-8.0035 -3.1139 -2.3722 0.9650
-7.9443 -3.2618 -2.3721 0.9650
-7.9239 -3.3109 -2.3721 0.9650
-7.8611 -3.4573 -2.3721 0.9650
-7.8396 -3.5058 -2.3721 0.9650
-7.7955 -3.6025 -2.3721 0.9650
-7.7731 -3.6506 -2.3721 0.9650
-7.7273 -3.7465 -2.3721 0.9650
-7.7040 -3.7942 -2.3721 0.9650
-7.6804 -3.8418 -2.3721 0.9650
-7.6564 -3.8892 -2.3721 0.9650
-7.6077 -3.9836 -2.3721 0.9650
-7.5579 -4.0773 -2.3721 0.9650
-7.5325 -4.1240 -2.3721 0.9650
-7.5068 -4.1705 -2.3720 0.9650
-7.4281 -4.3091 -2.3720 0.9650
-7.4012 -4.3550 -2.3720 0.9650
-7.3742 -4.4005 -2.3720 0.9650
-7.3469 -4.4461 -2.3720 0.9650
-7.2346 -4.6264 -2.3720 0.9650
-7.2059 -4.6710 -2.3720 0.9650
-7.1179 -4.8038 -2.3720 0.9650
-7.0881 -4.8478 -2.3720 0.9650
-7.0579 -4.8916 -2.3720 0.9650
-7.0275 -4.9351 -2.3720 0.9650
-6.9660 -5.0216 -2.3720 0.9650
-6.9348 -5.0646 -2.3720 0.9650
-6.9033 -5.1074 -2.3720 0.9650
-6.8396 -5.1923 -2.3720 0.9650
-6.7748 -5.2765 -2.3720 0.9650
-6.7421 -5.3183 -2.3720 0.9650
-6.6757 -5.4013 -2.3720 0.9650
-6.6422 -5.4425 -2.3719 0.9650
-6.5744 -5.5242 -2.3719 0.9650
-6.5056 -5.6050 -2.3719 0.9650
-6.4357 -5.6851 -2.3719 0.9650
-6.4004 -5.7247 -2.3719 0.9650
-6.3649 -5.7642 -2.3719 0.9650
-6.2569 -5.8813 -2.3719 0.9650
-6.1836 -5.9583 -2.3719 0.9650
-6.1466 -5.9963 -2.3719 0.9650
-5.9964 -6.1465 -2.3719 0.9650
-5.9199 -6.2202 -2.3719 0.9650
-5.7248 -6.4003 -2.3719 0.9650
-5.5647 -6.5399 -2.3719 0.9650
-5.4834 -6.6083 -2.3719 0.9650
-5.4424 -6.6421 -2.3719 0.9650
-5.4012 -6.6756 -2.3719 0.9650
-5.2344 -6.8071 -2.3719 0.9650
-5.1922 -6.8393 -2.3719 0.9650
-5.1498 -6.8713 -2.3719 0.9650
-5.1072 -6.9030 -2.3719 0.9650
-5.0214 -6.9657 -2.3719 0.9650
-4.8476 -7.0877 -2.3719 0.9650
-4.7153 -7.1764 -2.3719 0.9650
-4.5813 -7.2627 -2.3719 0.9650
-4.4912 -7.3188 -2.3719 0.9650
-4.4458 -7.3464 -2.3719 0.9650
-4.2166 -7.4804 -2.3719 0.9650
-4.1237 -7.5319 -2.3719 0.9650
-4.0771 -7.5573 -2.3719 0.9650
-3.9362 -7.6316 -2.3719 0.9650
-3.7939 -7.7033 -2.3719 0.9650
-3.7462 -7.7267 -2.3719 0.9650
-3.6022 -7.7948 -2.3719 0.9650
-3.5539 -7.8170 -2.3719 0.9650
-3.5055 -7.8388 -2.3719 0.9650
-3.4570 -7.8603 -2.3719 0.9650
-3.1136 -8.0026 -2.3719 0.9650
-3.0641 -8.0217 -2.3719 0.9650
-2.8647 -8.0950 -2.3719 0.9650
-2.8146 -8.1126 -2.3719 0.9650
-2.7141 -8.1468 -2.3719 0.9650
-2.6636 -8.1635 -2.3719 0.9650
-2.6131 -8.1798 -2.3719 0.9650
-2.5625 -8.1958 -2.3719 0.9650
-2.5117 -8.2115 -2.3719 0.9650
-2.3079 -8.2711 -2.3719 0.9650
-2.2567 -8.2852 -2.3719 0.9650
-2.2054 -8.2990 -2.3719 0.9650
-2.1541 -8.3125 -2.3719 0.9650
-1.9995 -8.3511 -2.3719 0.9650
-1.9478 -8.3633 -2.3719 0.9650
-1.8960 -8.3752 -2.3719 0.9650
-1.8442 -8.3868 -2.3719 0.9650
-1.7923 -8.3980 -2.3719 0.9650
-1.7403 -8.4089 -2.3719 0.9650
-1.6883 -8.4196 -2.3719 0.9650
-1.6362 -8.4298 -2.3719 0.9650
-1.5840 -8.4398 -2.3720 0.9650
-1.4272 -8.4678 -2.3720 0.9650
-1.3224 -8.4848 -2.3720 0.9650
-1.2173 -8.5005 -2.3720 0.9650
-1.0067 -8.5280 -2.3720 0.9650
-0.9539 -8.5341 -2.3720 0.9650
-0.9011 -8.5399 -2.3720 0.9650
-0.7955 -8.5504 -2.3720 0.9650
-0.6896 -8.5596 -2.3720 0.9650
-0.6367 -8.5637 -2.3720 0.9650
-0.5307 -8.5710 -2.3720 0.9650
-0.4777 -8.5741 -2.3720 0.9650
-0.4247 -8.5769 -2.3720 0.9650
-0.2655 -8.5833 -2.3720 0.9650
-0.2124 -8.5848 -2.3720 0.9650
-0.1062 -8.5868 -2.3720 0.9650
-0.0531 -8.5873 -2.3720 0.9650
0.0000 -8.5875 -2.3720 0.9650
0.2655 -8.5835 -2.3721 0.9650
0.4247 -8.5771 -2.3721 0.9650
0.5308 -8.5712 -2.3721 0.9650
0.5837 -8.5678 -2.3721 0.9650
0.6896 -8.5600 -2.3721 0.9650
0.7426 -8.5555 -2.3721 0.9650
0.9012 -8.5403 -2.3721 0.9650
0.9540 -8.5346 -2.3721 0.9650
1.0068 -8.5286 -2.3721 0.9650
1.1121 -8.5155 -2.3721 0.9650
1.1648 -8.5085 -2.3721 0.9650
1.2174 -8.5012 -2.3721 0.9650
1.3749 -8.4771 -2.3722 0.9650
1.4273 -8.4685 -2.3722 0.9650
1.4796 -8.4595 -2.3722 0.9650
1.5319 -8.4502 -2.3722 0.9650
1.5842 -8.4406 -2.3722 0.9650
1.6363 -8.4307 -2.3722 0.9650
1.6884 -8.4204 -2.3722 0.9650
1.7925 -8.3989 -2.3722 0.9650
1.8962 -8.3761 -2.3722 0.9650
2.1029 -8.3267 -2.3722 0.9650
2.2570 -8.2863 -2.3722 0.9650
2.3081 -8.2723 -2.3723 0.9650
2.3593 -8.2579 -2.3723 0.9650
2.4103 -8.2431 -2.3723 0.9650
2.5121 -8.2127 -2.3723 0.9650
2.5629 -8.1971 -2.3723 0.9650
2.6135 -8.1811 -2.3723 0.9650
2.8151 -8.1140 -2.3723 0.9650
2.9152 -8.0786 -2.3723 0.9650
2.9652 -8.0604 -2.3723 0.9650
3.0646 -8.0232 -2.3723 0.9650
3.1636 -7.9847 -2.3724 0.9650
3.2130 -7.9650 -2.3724 0.9650
3.3602 -7.9041 -2.3724 0.9650
3.5063 -7.8405 -2.3724 0.9650
3.5547 -7.8187 -2.3724 0.9650
3.6512 -7.7741 -2.3724 0.9650
3.7471 -7.7284 -2.3724 0.9650
3.9843 -7.6090 -2.3725 0.9650
4.0312 -7.5842 -2.3725 0.9650
4.1248 -7.5338 -2.3725 0.9650
4.1713 -7.5082 -2.3725 0.9650
4.2177 -7.4822 -2.3725 0.9650
4.2639 -7.4561 -2.3725 0.9650
4.3099 -7.4296 -2.3725 0.9650
4.4924 -7.3208 -2.3725 0.9650
4.5376 -7.2929 -2.3725 0.9650
4.5826 -7.2647 -2.3725 0.9650
4.8491 -7.0898 -2.3726 0.9650
4.8521 -7.0010 -2.3529 0.9653
4.8521 -6.9093 -2.3321 0.9656
4.8521 -6.2298 -2.1812 0.9678
4.8521 -6.1510 -2.1640 0.9680
4.8521 -6.0734 -2.1472 0.9683
4.8521 -5.9970 -2.1308 0.9685
4.8004 -5.8585 -2.0921 0.9691
4.8266 -5.8168 -2.0878 0.9691
4.9573 -5.7536 -2.0978 0.9690
4.9573 -5.6822 -2.0829 0.9692
4.9573 -5.6118 -2.0683 0.9694
4.9573 -5.5423 -2.0539 0.9696
4.9573 -5.4738 -2.0399 0.9698
4.9382 -5.3189 -2.0048 0.9703
4.9573 -5.2738 -1.9993 0.9704
4.9092 -4.8489 -1.9060 0.9718
4.9294 -4.8089 -1.9022 0.9718
4.9082 -4.7294 -1.8827 0.9721
4.9258 -4.6880 -1.8783 0.9722
4.9573 -4.6599 -1.8793 0.9722
4.9573 -4.4896 -1.8474 0.9726
4.9573 -4.3792 -1.8271 0.9729
4.8004 -4.1880 -1.7597 0.9739
4.8522 -4.0262 -1.7416 0.9742
4.8522 -3.9758 -1.7327 0.9743
4.8522 -3.9259 -1.7240 0.9744
4.8522 -3.8276 -1.7071 0.9747
4.8522 -3.7312 -1.6907 0.9749
4.8522 -3.5899 -1.6672 0.9753
4.8522 -3.3629 -1.6307 0.9758
4.8522 -3.1882 -1.6037 0.9762
4.8522 -3.1454 -1.5973 0.9763
4.8522 -3.1029 -1.5909 0.9764
4.8522 -2.9776 -1.5725 0.9767
4.8522 -2.8956 -1.5608 0.9768
4.8522 -2.8148 -1.5495 0.9770
4.8522 -2.6958 -1.5332 0.9772
4.8522 -2.6566 -1.5280 0.9773
4.8522 -2.6178 -1.5229 0.9774
4.8522 -2.5791 -1.5179 0.9775
4.8522 -2.5027 -1.5081 0.9776
4.8522 -2.4271 -1.4986 0.9777
4.8522 -2.3526 -1.4895 0.9779
4.8691 -2.3237 -1.4903 0.9779
4.9476 -2.3237 -1.5099 0.9776
5.0282 -2.3237 -1.5300 0.9773
5.2834 -2.3237 -1.5943 0.9763
5.3734 -2.3237 -1.6171 0.9760
5.4659 -2.3237 -1.6406 0.9757
5.5612 -2.3237 -1.6648 0.9753
5.7428 -2.3166 -1.7105 0.9746
5.7428 -2.2754 -1.7063 0.9747
6.2790 -2.3984 -1.8566 0.9725
6.4646 -2.3781 -1.9026 0.9718
6.8634 -2.4289 -2.0110 0.9702
7.2907 -2.4289 -2.1227 0.9686
7.4078 -2.4171 -2.1523 0.9682
7.4078 -2.3161 -2.1439 0.9683
7.4274 -2.2719 -2.1454 0.9683
7.9469 -2.3237 -2.2870 0.9662
8.3271 -2.1030 -2.3723 0.9650
8.3524 -1.9998 -2.3723 0.9650
8.3646 -1.9481 -2.3723 0.9650
8.3765 -1.8963 -2.3723 0.9650
8.3992 -1.7926 -2.3723 0.9650
8.4207 -1.6886 -2.3723 0.9650
8.4505 -1.5320 -2.3723 0.9650
8.4774 -1.3750 -2.3722 0.9650
8.4857 -1.3225 -2.3722 0.9650
8.4937 -1.2700 -2.3722 0.9650
8.5087 -1.1649 -2.3722 0.9650
8.5155 -1.1122 -2.3721 0.9650
8.5223 -1.0595 -2.3722 0.9650
8.5287 -1.0068 -2.3722 0.9650
8.5461 -0.8484 -2.3722 0.9650
8.5512 -0.7955 -2.3722 0.9650
8.5560 -0.7427 -2.3722 0.9650
8.5647 -0.6368 -2.3723 0.9650
8.5720 -0.5308 -2.3723 0.9650
8.5752 -0.4778 -2.3723 0.9650
8.5888 -0.0000 -2.3724 0.9650
8.5883 0.1062 -2.3724 0.9650
8.5811 0.3717 -2.3725 0.9650
8.5787 0.4248 -2.3725 0.9650
8.5694 0.5838 -2.3725 0.9650
8.5657 0.6368 -2.3726 0.9650
8.5616 0.6898 -2.3726 0.9650
8.5572 0.7427 -2.3726 0.9650
8.5525 0.7956 -2.3726 0.9650
8.5421 0.9014 -2.3726 0.9650
8.5363 0.9542 -2.3726 0.9650
8.5240 1.0597 -2.3726 0.9650
8.5173 1.1124 -2.3726 0.9650
8.5030 1.2176 -2.3727 0.9650
8.4953 1.2702 -2.3727 0.9650
8.4703 1.4276 -2.3727 0.9650
8.4614 1.4800 -2.3727 0.9650
8.4425 1.5845 -2.3727 0.9650
8.4326 1.6367 -2.3727 0.9650
8.3781 1.8967 -2.3728 0.9650
8.3662 1.9485 -2.3728 0.9650
7.8518 1.9829 -2.2369 0.9670
7.1410 2.0881 -2.0551 0.9696
6.8100 2.0371 -1.9634 0.9709
6.6303 2.0281 -1.9152 0.9716
5.6428 1.9577 -1.6498 0.9755
5.6033 1.9829 -1.6418 0.9756
5.3904 1.9829 -1.5865 0.9764
5.1913 1.9829 -1.5350 0.9772
5.0047 1.9829 -1.4870 0.9779
4.9157 1.9829 -1.4641 0.9782
4.8294 1.9829 -1.4421 0.9786
4.7522 1.9857 -1.4226 0.9789
4.7522 2.0203 -1.4264 0.9788
4.7522 2.0551 -1.4301 0.9787
4.7522 2.1252 -1.4379 0.9786
4.7522 2.1606 -1.4420 0.9786
4.7522 2.1962 -1.4461 0.9785
4.7522 2.2319 -1.4502 0.9784
4.7522 2.3771 -1.4677 0.9782
4.7522 2.4140 -1.4723 0.9781
4.7522 2.4511 -1.4770 0.9781
4.7522 2.5260 -1.4866 0.9779
4.7522 2.6019 -1.4965 0.9778
4.7522 2.6402 -1.5016 0.9777
4.7522 2.7176 -1.5121 0.9775
4.7522 2.7962 -1.5230 0.9774
4.7522 2.8759 -1.5343 0.9772
4.7522 2.9162 -1.5401 0.9771
4.7522 3.0390 -1.5581 0.9769
4.7522 3.0806 -1.5643 0.9768
4.7522 3.2073 -1.5836 0.9765
4.7522 3.4258 -1.6182 0.9760
4.7522 3.4707 -1.6255 0.9759
4.7522 3.5616 -1.6404 0.9757
4.7522 3.6077 -1.6481 0.9755
4.7522 3.7487 -1.6719 0.9752
4.7522 3.7966 -1.6801 0.9751
4.8573 4.0814 -1.7525 0.9740
4.8573 4.1330 -1.7617 0.9739
4.8573 4.1850 -1.7710 0.9737
4.8573 4.3446 -1.8001 0.9733
4.8082 4.3545 -1.7918 0.9734
4.8573 4.6227 -1.8522 0.9726
4.8573 4.6803 -1.8632 0.9724
4.8573 4.7386 -1.8744 0.9722
4.8573 4.8573 -1.8974 0.9719
4.8025 5.0461 -1.9242 0.9715
4.8017 5.1082 -1.9365 0.9713
4.8009 5.1711 -1.9491 0.9711
4.8572 5.3633 -1.9987 0.9704
4.8572 5.4304 -2.0125 0.9702
4.7773 5.4759 -2.0073 0.9703
4.7180 5.4759 -1.9966 0.9705
4.7521 5.6554 -2.0404 0.9698
4.7521 6.1014 -2.1362 0.9684
4.7521 6.1798 -2.1533 0.9682
4.7521 6.4230 -2.2069 0.9674
4.7521 6.5068 -2.2256 0.9671
4.7520 6.9479 -2.3251 0.9657
4.7520 7.0410 -2.3464 0.9654
4.7166 7.1783 -2.3725 0.9650
4.6721 7.2073 -2.3725 0.9650
4.5825 7.2645 -2.3725 0.9650
4.5375 7.2927 -2.3725 0.9650
4.4469 7.3481 -2.3725 0.9650
4.3556 7.4025 -2.3724 0.9650
4.3098 7.4293 -2.3724 0.9650
4.1246 7.5334 -2.3724 0.9650
4.0311 7.5838 -2.3723 0.9650
3.9840 7.6085 -2.3723 0.9650
3.9369 7.6330 -2.3723 0.9650
3.7468 7.7279 -2.3723 0.9650
3.6989 7.7509 -2.3723 0.9650
3.6509 7.7735 -2.3722 0.9650
3.6027 7.7959 -2.3722 0.9650
3.5060 7.8398 -2.3722 0.9650
3.4574 7.8613 -2.3722 0.9650
3.3599 7.9033 -2.3722 0.9650
3.3109 7.9239 -2.3721 0.9650
3.2619 7.9442 -2.3721 0.9650
3.0643 8.0223 -2.3721 0.9650
3.0146 8.0410 -2.3721 0.9650
2.9648 8.0594 -2.3720 0.9650
2.8147 8.1129 -2.3720 0.9650
2.7644 8.1301 -2.3720 0.9650
2.7141 8.1470 -2.3720 0.9650
2.6637 8.1638 -2.3720 0.9650
2.5119 8.2119 -2.3720 0.9650
2.3591 8.2571 -2.3720 0.9650
2.0512 8.3391 -2.3721 0.9650
1.9996 8.3516 -2.3721 0.9650
1.6884 8.4202 -2.3721 0.9650
1.5319 8.4501 -2.3721 0.9650
1.4796 8.4594 -2.3722 0.9650
1.2700 8.4936 -2.3722 0.9650
1.1122 8.5157 -2.3722 0.9650
1.0595 8.5225 -2.3722 0.9650
1.0068 8.5289 -2.3722 0.9650
0.9540 8.5350 -2.3722 0.9650
0.9012 8.5407 -2.3722 0.9650
0.8484 8.5462 -2.3722 0.9650
0.5838 8.5684 -2.3723 0.9650
0.5308 8.5719 -2.3723 0.9650
0.4777 8.5751 -2.3723 0.9650
0.4247 8.5779 -2.3723 0.9650
0.3717 8.5804 -2.3723 0.9650
0.3186 8.5826 -2.3723 0.9650
0.2124 8.5859 -2.3723 0.9650
0.1062 8.5879 -2.3723 0.9650
0.0531 8.5884 -2.3723 0.9650
-0.2655 8.5846 -2.3724 0.9650
-0.3186 8.5829 -2.3724 0.9650
-0.3717 8.5808 -2.3724 0.9650
-0.4248 8.5783 -2.3724 0.9650
-0.4778 8.5756 -2.3724 0.9650
-0.5308 8.5725 -2.3724 0.9650
-0.5838 8.5691 -2.3724 0.9650
-0.6368 8.5653 -2.3725 0.9650
-0.6898 8.5612 -2.3725 0.9650
-0.7427 8.5568 -2.3725 0.9650
-0.7956 8.5521 -2.3725 0.9650
-0.8485 8.5471 -2.3725 0.9650
-1.0597 8.5236 -2.3725 0.9650
-1.2702 8.4949 -2.3726 0.9650
-1.3227 8.4869 -2.3726 0.9650
-1.3752 8.4786 -2.3726 0.9650
-1.4276 8.4699 -2.3726 0.9650
-1.4800 8.4610 -2.3726 0.9650
-1.5322 8.4517 -2.3726 0.9650
-1.5845 8.4421 -2.3726 0.9650
-1.6367 8.4322 -2.3726 0.9650
-1.6888 8.4219 -2.3726 0.9650
-1.7928 8.4004 -2.3726 0.9650
-1.8966 8.3777 -2.3727 0.9650
-2.1547 8.3152 -2.3727 0.9650
-2.2061 8.3018 -2.3727 0.9650
-2.2574 8.2880 -2.3727 0.9650
-2.3598 8.2595 -2.3727 0.9650
-2.4618 8.2297 -2.3728 0.9650
-2.6646 8.1664 -2.3728 0.9650
-2.7151 8.1498 -2.3728 0.9650
-2.7655 8.1329 -2.3728 0.9650
-2.8157 8.1157 -2.3728 0.9650
-2.8658 8.0982 -2.3728 0.9650
-2.9658 8.0622 -2.3728 0.9650
-3.0156 8.0437 -2.3729 0.9650
-3.0653 8.0249 -2.3729 0.9650
-3.1149 8.0059 -2.3729 0.9650
-3.2137 7.9668 -2.3729 0.9650
-3.2629 7.9468 -2.3729 0.9650
-3.3120 7.9265 -2.3729 0.9650
-3.4098 7.8850 -2.3729 0.9650
-3.4586 7.8638 -2.3729 0.9650
-3.5071 7.8423 -2.3729 0.9650
-3.5556 7.8205 -2.3730 0.9650
-3.6039 7.7984 -2.3730 0.9650
-3.7480 7.7303 -2.3730 0.9650
-4.0322 7.5861 -2.3731 0.9650
-4.0791 7.5610 -2.3731 0.9650
-4.2649 7.4579 -2.3731 0.9650
-4.3569 7.4047 -2.3731 0.9650
-4.4027 7.3776 -2.3731 0.9650
-4.4936 7.3227 -2.3731 0.9650
-4.5838 7.2666 -2.3732 0.9650
-4.6287 7.2381 -2.3732 0.9650
-4.7179 7.1804 -2.3732 0.9650
-4.7623 7.1511 -2.3732 0.9650
-4.8504 7.0917 -2.3732 0.9650
-4.8941 7.0616 -2.3732 0.9650
-4.9812 7.0006 -2.3733 0.9650
-5.0244 6.9697 -2.3733 0.9650
-5.1529 6.8754 -2.3733 0.9650
-5.1953 6.8434 -2.3733 0.9650
-5.2796 6.7787 -2.3733 0.9650
-5.4457 6.6461 -2.3734 0.9650
-5.7284 6.4044 -2.3734 0.9650
-5.7679 6.3689 -2.3734 0.9650
-5.8463 6.2971 -2.3735 0.9650
-5.8852 6.2608 -2.3735 0.9650
-5.9622 6.1876 -2.3735 0.9650
-6.0383 6.1134 -2.3735 0.9650
-6.0760 6.0759 -2.3735 0.9650
-6.1134 6.0382 -2.3735 0.9650
-6.1876 5.9621 -2.3735 0.9650
-6.2243 5.9237 -2.3734 0.9650
-6.2608 5.8851 -2.3734 0.9650
-6.2971 5.8462 -2.3734 0.9650
-6.3688 5.7679 -2.3734 0.9650
-6.4044 5.7284 -2.3734 0.9650
-6.4396 5.6886 -2.3734 0.9650
-6.4747 5.6487 -2.3734 0.9650
-6.5095 5.6085 -2.3734 0.9650
-6.5440 5.5681 -2.3734 0.9650
-6.5783 5.5275 -2.3734 0.9650
-6.6123 5.4867 -2.3734 0.9650
-6.6461 5.4457 -2.3734 0.9650
-6.6796 5.4045 -2.3733 0.9650
-6.7129 5.3630 -2.3733 0.9650
-6.7787 5.2796 -2.3733 0.9650
-6.8434 5.1953 -2.3733 0.9650
-6.8754 5.1529 -2.3733 0.9650
-6.9386 5.0674 -2.3733 0.9650
-6.9698 5.0244 -2.3733 0.9650
-7.0006 4.9812 -2.3733 0.9650
-7.1805 4.7179 -2.3732 0.9650
-7.2095 4.6734 -2.3732 0.9650
-7.2383 4.6287 -2.3732 0.9650
-7.2667 4.5839 -2.3732 0.9650
-7.2949 4.5388 -2.3732 0.9650
-7.4048 4.3570 -2.3732 0.9650
-7.4843 4.2188 -2.3731 0.9650
-7.5102 4.1724 -2.3731 0.9650
-7.5359 4.1259 -2.3731 0.9650
-7.5612 4.0792 -2.3731 0.9650
-7.5863 4.0323 -2.3731 0.9650
-7.6110 3.9853 -2.3731 0.9650
-7.6355 3.9382 -2.3731 0.9650
-7.6597 3.8909 -2.3731 0.9650
-7.6836 3.8434 -2.3731 0.9650
-7.7072 3.7958 -2.3731 0.9650
-7.7305 3.7480 -2.3731 0.9650
-7.7762 3.6521 -2.3730 0.9650
-7.7986 3.6040 -2.3730 0.9650
-7.8207 3.5556 -2.3730 0.9650
-7.8853 3.4099 -2.3730 0.9650
-7.9268 3.3121 -2.3730 0.9650
-7.9471 3.2630 -2.3730 0.9650
-8.0440 3.0157 -2.3729 0.9650
-8.0985 2.8659 -2.3729 0.9650
-8.1333 2.7655 -2.3729 0.9650
-8.1502 2.7152 -2.3729 0.9650
-8.1668 2.6647 -2.3729 0.9650
-8.1831 2.6142 -2.3729 0.9650
-8.2599 2.3599 -2.3728 0.9650
-8.2743 2.3087 -2.3728 0.9650
-8.2884 2.2575 -2.3728 0.9650
-8.3022 2.2062 -2.3728 0.9650
-8.3156 2.1548 -2.3728 0.9650
-8.3416 2.0518 -2.3728 0.9650
-8.4118 1.7409 -2.3728 0.9650
-8.4224 1.6888 -2.3727 0.9650
-8.4326 1.6367 -2.3727 0.9650
-8.4522 1.5323 -2.3727 0.9650
-8.4615 1.4800 -2.3727 0.9650
-8.4791 1.3752 -2.3727 0.9650
-8.4874 1.3227 -2.3727 0.9650
-8.4954 1.2702 -2.3727 0.9650
-8.5031 1.2177 -2.3727 0.9650
-8.5174 1.1124 -2.3727 0.9650
-8.5241 1.0597 -2.3727 0.9650
-8.5476 0.8485 -2.3726 0.9650
-8.5527 0.7956 -2.3726 0.9650
-8.5574 0.7427 -2.3726 0.9650
-8.5618 0.6898 -2.3726 0.9650
-8.5659 0.6368 -2.3726 0.9650
-8.5696 0.5838 -2.3726 0.9650
-8.5789 0.4248 -2.3726 0.9650
-8.5867 0.2124 -2.3725 0.9650
-8.5886 0.1062 -2.3725 0.9650
-8.5891 0.0531 -2.3725 0.9650
-8.3471 -0.0516 -2.3725 0.9659
-8.3432 -0.2581 -2.3725 0.9659
-8.3414 -0.3097 -2.3725 0.9659
-8.3393 -0.3612 -2.3725 0.9659
-8.3369 -0.4128 -2.3725 0.9659
-8.3278 -0.5674 -2.3725 0.9659
-8.3240 -0.6189 -2.3725 0.9659
-8.3157 -0.7218 -2.3724 0.9659
-8.3008 -0.8759 -2.3724 0.9659
-8.2952 -0.9272 -2.3724 0.9659
-8.2831 -1.0298 -2.3724 0.9659
-8.2765 -1.0810 -2.3724 0.9659
-8.2697 -1.1321 -2.3724 0.9659
-8.2472 -1.2853 -2.3724 0.9659
-8.2306 -1.3872 -2.3724 0.9659
-8.2219 -1.4381 -2.3724 0.9659
-8.1734 -1.6916 -2.3723 0.9659
-8.1627 -1.7421 -2.3723 0.9659
-8.1518 -1.7925 -2.3723 0.9659
-8.1290 -1.8932 -2.3723 0.9659
-8.1171 -1.9434 -2.3723 0.9659
-8.1049 -1.9936 -2.3723 0.9659
-8.0796 -2.0937 -2.3723 0.9659
-8.0530 -2.1934 -2.3723 0.9659
-8.0393 -2.2432 -2.3723 0.9659
-8.0252 -2.2929 -2.3723 0.9659
-8.0109 -2.3424 -2.3723 0.9659
-7.9962 -2.3919 -2.3723 0.9659
-7.9660 -2.4906 -2.3722 0.9659
-7.9504 -2.5399 -2.3722 0.9659
-7.9346 -2.5890 -2.3722 0.9659
-7.9184 -2.6380 -2.3722 0.9659
-7.9019 -2.6869 -2.3722 0.9659
-7.8506 -2.8330 -2.3722 0.9659
-7.7967 -2.9781 -2.3722 0.9659
-7.7592 -3.0743 -2.3722 0.9659
-7.6808 -3.2653 -2.3722 0.9659
-7.6604 -3.3127 -2.3722 0.9659
-7.5543 -3.5478 -2.3721 0.9659
-7.5322 -3.5945 -2.3721 0.9659
-7.4871 -3.6874 -2.3721 0.9659
-7.4641 -3.7336 -2.3721 0.9659
-7.4173 -3.8257 -2.3721 0.9659
-7.3694 -3.9171 -2.3721 0.9659
-7.3451 -3.9626 -2.3721 0.9659
-7.3205 -4.0078 -2.3721 0.9659
-7.2448 -4.1430 -2.3721 0.9659
-7.1929 -4.2324 -2.3721 0.9659
-7.1666 -4.2767 -2.3721 0.9659
-7.0309 -4.4961 -2.3721 0.9659
-6.9748 -4.5827 -2.3720 0.9659
-6.9462 -4.6258 -2.3720 0.9659
-6.8592 -4.7538 -2.3720 0.9659
-6.8297 -4.7961 -2.3720 0.9659
-6.7999 -4.8383 -2.3720 0.9659
-6.7698 -4.8802 -2.3720 0.9659
-6.7395 -4.9221 -2.3720 0.9659
-6.7089 -4.9636 -2.3720 0.9659
-6.6157 -5.0872 -2.3720 0.9659
-6.5841 -5.1280 -2.3720 0.9659
-6.5522 -5.1686 -2.3720 0.9659
-6.4223 -5.3291 -2.3720 0.9659
-6.3893 -5.3687 -2.3720 0.9659
-6.3223 -5.4473 -2.3720 0.9659
-6.2885 -5.4863 -2.3720 0.9659
-6.2545 -5.5251 -2.3720 0.9659
-6.1856 -5.6020 -2.3720 0.9659
-6.1509 -5.6401 -2.3720 0.9659
-6.0806 -5.7158 -2.3720 0.9659
-6.0452 -5.7533 -2.3720 0.9659
-5.9010 -5.9010 -2.3720 0.9659
-5.8644 -5.9374 -2.3720 0.9659
-5.8275 -5.9735 -2.3720 0.9659
-5.7532 -6.0451 -2.3720 0.9659
-5.6780 -6.1158 -2.3720 0.9659
-5.6401 -6.1508 -2.3719 0.9659
-5.6019 -6.1856 -2.3719 0.9659
-5.5250 -6.2544 -2.3719 0.9659
-5.4862 -6.2884 -2.3719 0.9659
-5.4472 -6.3222 -2.3719 0.9659
-5.4080 -6.3558 -2.3719 0.9659
-5.3289 -6.4222 -2.3719 0.9659
-5.2491 -6.4876 -2.3719 0.9659
-5.1685 -6.5520 -2.3719 0.9659
-5.1279 -6.5838 -2.3719 0.9659
-5.0460 -6.6468 -2.3719 0.9659
-5.0048 -6.6778 -2.3719 0.9659
-4.9635 -6.7087 -2.3719 0.9659
-4.7959 -6.8294 -2.3719 0.9659
-4.6684 -6.9171 -2.3719 0.9659
-4.6256 -6.9459 -2.3719 0.9659
-4.5825 -6.9743 -2.3719 0.9659
-4.5393 -7.0026 -2.3719 0.9659
-4.4523 -7.0582 -2.3719 0.9659
-4.4086 -7.0856 -2.3719 0.9659
-4.3647 -7.1127 -2.3719 0.9659
-4.3206 -7.1395 -2.3719 0.9659
-4.2764 -7.1661 -2.3719 0.9659
-4.2321 -7.1924 -2.3719 0.9659
-4.1874 -7.2185 -2.3719 0.9659
-4.1427 -7.2442 -2.3719 0.9659
-4.0077 -7.3198 -2.3719 0.9659
-3.9168 -7.3688 -2.3719 0.9659
-3.8712 -7.3929 -2.3719 0.9659
-3.8254 -7.4167 -2.3719 0.9659
-3.7333 -7.4635 -2.3719 0.9659
-3.6871 -7.4864 -2.3719 0.9659
-3.6408 -7.5091 -2.3719 0.9659
-3.5942 -7.5314 -2.3719 0.9659
-3.5476 -7.5535 -2.3719 0.9659
-3.5008 -7.5753 -2.3719 0.9659
-3.4539 -7.5968 -2.3719 0.9659
-3.4068 -7.6181 -2.3719 0.9659
-3.2174 -7.7000 -2.3719 0.9659
-3.1219 -7.7392 -2.3719 0.9659
-3.0259 -7.7772 -2.3719 0.9659
-2.9778 -7.7958 -2.3719 0.9659
-2.9295 -7.8141 -2.3719 0.9659
-2.8327 -7.8497 -2.3719 0.9659
-2.7353 -7.8842 -2.3719 0.9659
-2.6866 -7.9009 -2.3719 0.9659
-2.6376 -7.9174 -2.3719 0.9659
-2.5886 -7.9336 -2.3719 0.9659
-2.4903 -7.9650 -2.3719 0.9659
-2.4410 -7.9802 -2.3719 0.9659
-2.3916 -7.9952 -2.3719 0.9659
-2.3421 -8.0098 -2.3720 0.9659
-2.2926 -8.0242 -2.3720 0.9659
-2.2429 -8.0382 -2.3720 0.9659
-2.1433 -8.0653 -2.3720 0.9659
-2.0934 -8.0785 -2.3720 0.9659
-1.9432 -8.1159 -2.3720 0.9659
-1.8929 -8.1278 -2.3720 0.9659
-1.7923 -8.1506 -2.3720 0.9659
-1.7418 -8.1615 -2.3720 0.9659
-1.6913 -8.1721 -2.3720 0.9659
-1.6407 -8.1824 -2.3720 0.9659
-1.5902 -8.1925 -2.3720 0.9659
-1.5395 -8.2021 -2.3720 0.9659
-1.4887 -8.2115 -2.3720 0.9659
-1.4379 -8.2206 -2.3720 0.9659
-1.3870 -8.2293 -2.3720 0.9659
-1.2851 -8.2458 -2.3720 0.9659
-1.2341 -8.2537 -2.3720 0.9659
-1.1830 -8.2611 -2.3720 0.9659
-0.9271 -8.2938 -2.3720 0.9659
-0.7730 -8.3096 -2.3720 0.9659
-0.7216 -8.3142 -2.3720 0.9659
-0.6702 -8.3186 -2.3720 0.9659
-0.5158 -8.3296 -2.3720 0.9659
-0.4127 -8.3354 -2.3720 0.9659
-0.3096 -8.3399 -2.3721 0.9659
-0.2580 -8.3416 -2.3721 0.9659
-0.2064 -8.3431 -2.3721 0.9659
-0.1548 -8.3442 -2.3721 0.9659
-0.1032 -8.3450 -2.3721 0.9659
0.0000 -8.3457 -2.3721 0.9659
0.0516 -8.3455 -2.3721 0.9659
0.2064 -8.3432 -2.3721 0.9659
0.2580 -8.3418 -2.3721 0.9659
0.5673 -8.3265 -2.3721 0.9659
0.6188 -8.3229 -2.3721 0.9659
0.6702 -8.3189 -2.3721 0.9659
0.7217 -8.3146 -2.3721 0.9659
0.7730 -8.3100 -2.3721 0.9659
0.9271 -8.2943 -2.3722 0.9659
0.9784 -8.2884 -2.3722 0.9659
1.0296 -8.2822 -2.3722 0.9659
1.3362 -8.2384 -2.3722 0.9659
1.5396 -8.2029 -2.3722 0.9659
1.5903 -8.1932 -2.3722 0.9659
1.6409 -8.1833 -2.3722 0.9659
1.8428 -8.1402 -2.3722 0.9659
1.9935 -8.1047 -2.3723 0.9659
2.0436 -8.0922 -2.3723 0.9659
2.1436 -8.0664 -2.3723 0.9659
2.1934 -8.0530 -2.3723 0.9659
2.2929 -8.0253 -2.3723 0.9659
2.3919 -7.9963 -2.3723 0.9659
2.4413 -7.9814 -2.3723 0.9659
2.4907 -7.9662 -2.3723 0.9659
2.5399 -7.9507 -2.3723 0.9659
2.5890 -7.9348 -2.3723 0.9659
2.7358 -7.8855 -2.3723 0.9659
2.7845 -7.8684 -2.3723 0.9659
2.8331 -7.8511 -2.3723 0.9659
2.9300 -7.8155 -2.3724 0.9659
3.0745 -7.7598 -2.3724 0.9659
3.1225 -7.7407 -2.3724 0.9659
3.2656 -7.6815 -2.3724 0.9659
3.3130 -7.6612 -2.3724 0.9659
3.4075 -7.6196 -2.3724 0.9659
3.4546 -7.5984 -2.3724 0.9659
3.5015 -7.5770 -2.3724 0.9659
3.6879 -7.4881 -2.3725 0.9659
3.8262 -7.4185 -2.3725 0.9659
3.8720 -7.3946 -2.3725 0.9659
3.9632 -7.3462 -2.3725 0.9659
4.0086 -7.3216 -2.3725 0.9659
4.0538 -7.2967 -2.3725 0.9659
4.0988 -7.2715 -2.3725 0.9659
4.1438 -7.2460 -2.3725 0.9659
4.1885 -7.2203 -2.3725 0.9659
4.3218 -7.1414 -2.3725 0.9659
4.4098 -7.0875 -2.3726 0.9659
4.4536 -7.0601 -2.3726 0.9659
4.4971 -7.0324 -2.3726 0.9659
4.6697 -6.9191 -2.3726 0.9659
4.7550 -6.8609 -2.3726 0.9659
4.7973 -6.8313 -2.3726 0.9659
4.8396 -6.8016 -2.3726 0.9659
4.8521 -6.7307 -2.3583 0.9661
4.8521 -6.6437 -2.3383 0.9664
4.8521 -6.4741 -2.2996 0.9669
4.8521 -6.1510 -2.2268 0.9679
4.8521 -6.0734 -2.2095 0.9682
4.8521 -5.9970 -2.1926 0.9684
4.8266 -5.8168 -2.1483 0.9691
4.9573 -5.4738 -2.0990 0.9698
4.9082 -5.3527 -2.0642 0.9703
4.9573 -5.1448 -2.0307 0.9707
4.9573 -5.0815 -2.0178 0.9709
4.9573 -5.0190 -2.0051 0.9711
4.9573 -4.9573 -1.9926 0.9713
4.9099 -4.7900 -1.9496 0.9719
4.9082 -4.7294 -1.9373 0.9721
4.9114 -4.6742 -1.9271 0.9722
4.9121 -4.6174 -1.9161 0.9724
4.9328 -4.5232 -1.9022 0.9726
4.9573 -4.4341 -1.8904 0.9727
4.8186 -4.1517 -1.8078 0.9739
4.8522 -4.1286 -1.8108 0.9739
4.8522 -4.0772 -1.8014 0.9740
4.8522 -4.0262 -1.7921 0.9741
4.8522 -3.9758 -1.7830 0.9743
4.8522 -3.8276 -1.7566 0.9746
4.8522 -3.7792 -1.7481 0.9747
4.8522 -3.5899 -1.7156 0.9752
4.8522 -3.4979 -1.7001 0.9754
4.8522 -3.4525 -1.6926 0.9755
4.8522 -3.3187 -1.6709 0.9759
4.8522 -3.2313 -1.6570 0.9760
4.8522 -3.1454 -1.6436 0.9762
4.8522 -3.0609 -1.6306 0.9764
4.8522 -3.0190 -1.6243 0.9765
4.8522 -2.9776 -1.6181 0.9766
4.8522 -2.8956 -1.6060 0.9768
4.8522 -2.7352 -1.5832 0.9771
4.8522 -2.6957 -1.5777 0.9772
4.8522 -2.6178 -1.5670 0.9773
4.8522 -2.4648 -1.5469 0.9776
4.8522 -2.4271 -1.5421 0.9777
4.8522 -2.3898 -1.5373 0.9778
4.9476 -2.3237 -1.5536 0.9775
5.1110 -2.3237 -1.5958 0.9769
5.1960 -2.3237 -1.6178 0.9766
5.5612 -2.3237 -1.7131 0.9752
5.7428 -2.2754 -1.7557 0.9746
6.2426 -2.4288 -1.9039 0.9725
6.2533 -2.3886 -1.9026 0.9725
6.7308 -2.4288 -2.0338 0.9707
6.8634 -2.4289 -2.0693 0.9702
7.2907 -2.4289 -2.1842 0.9685
7.4275 -2.2719 -2.2076 0.9682
7.7683 -2.3237 -2.3046 0.9668
8.0257 -2.2930 -2.3724 0.9659
8.0397 -2.2433 -2.3724 0.9659
8.0534 -2.1935 -2.3724 0.9659
8.0798 -2.0937 -2.3724 0.9659
8.0926 -2.0437 -2.3724 0.9659
8.1050 -1.9937 -2.3724 0.9659
8.1172 -1.9435 -2.3723 0.9659
8.1290 -1.8932 -2.3723 0.9659
8.1406 -1.8429 -2.3723 0.9659
8.1518 -1.7925 -2.3723 0.9659
8.1836 -1.6410 -2.3723 0.9659
8.2125 -1.4889 -2.3723 0.9659
8.2620 -1.1831 -2.3722 0.9659
8.2945 -0.9272 -2.3722 0.9659
8.3000 -0.8758 -2.3722 0.9659
8.3053 -0.8245 -2.3722 0.9659
8.3100 -0.7731 -2.3721 0.9659
8.3147 -0.7217 -2.3722 0.9659
8.3384 -0.3612 -2.3722 0.9659
8.3438 -0.2065 -2.3723 0.9659
8.3450 -0.1549 -2.3723 0.9659
8.3463 -0.0516 -2.3723 0.9659
8.3464 0.0516 -2.3723 0.9659
8.3460 0.1032 -2.3724 0.9659
8.3442 0.2064 -2.3724 0.9659
8.3410 0.3096 -2.3724 0.9659
8.3390 0.3612 -2.3724 0.9659
8.3340 0.4643 -2.3724 0.9659
8.3310 0.5158 -2.3724 0.9659
8.3277 0.5674 -2.3724 0.9659
8.3240 0.6188 -2.3725 0.9659
8.3158 0.7218 -2.3725 0.9659
8.3063 0.8246 -2.3725 0.9659
8.3011 0.8759 -2.3725 0.9659
8.2770 1.0810 -2.3725 0.9659
8.2702 1.1322 -2.3725 0.9659
8.2556 1.2344 -2.3726 0.9659
8.2227 1.4382 -2.3726 0.9659
8.2043 1.5398 -2.3726 0.9659
8.1946 1.5905 -2.3726 0.9659
8.1847 1.6412 -2.3726 0.9659
8.1744 1.6918 -2.3726 0.9659
8.1638 1.7423 -2.3726 0.9659
8.1529 1.7928 -2.3726 0.9659
8.1301 1.8935 -2.3727 0.9659
8.1183 1.9437 -2.3727 0.9659
8.0614 1.9829 -2.3596 0.9661
7.8518 1.9829 -2.3018 0.9669
7.3077 1.9420 -2.1492 0.9690
7.3077 2.0879 -2.1602 0.9689
6.2152 2.0279 -1.8582 0.9732
6.1790 2.0585 -1.8511 0.9733
5.6428 1.9577 -1.6976 0.9755
5.6033 1.9829 -1.6894 0.9756
5.3904 1.9829 -1.6325 0.9764
5.2892 1.9829 -1.6055 0.9768
5.0047 1.9829 -1.5301 0.9779
4.9157 1.9829 -1.5066 0.9782
4.7522 1.9857 -1.4639 0.9788
4.7522 2.0203 -1.4677 0.9788
4.7522 2.0551 -1.4716 0.9787
4.7522 2.0900 -1.4756 0.9786
4.7522 2.1252 -1.4796 0.9786
4.7522 2.1606 -1.4838 0.9785
4.7522 2.2319 -1.4923 0.9784
4.7522 2.3041 -1.5011 0.9783
4.7522 2.3771 -1.5103 0.9781
4.7522 2.4140 -1.5150 0.9781
4.7522 2.4511 -1.5198 0.9780
4.7522 2.4884 -1.5247 0.9779
4.7522 2.5260 -1.5297 0.9779
4.7522 2.5638 -1.5347 0.9778
4.7522 2.6019 -1.5399 0.9777
4.7522 2.6402 -1.5452 0.9776
4.7522 2.9162 -1.5848 0.9771
4.7522 2.9568 -1.5908 0.9770
4.7522 2.9977 -1.5970 0.9769
4.7522 3.0806 -1.6097 0.9767
4.7522 3.1647 -1.6228 0.9765
4.7522 3.2073 -1.6296 0.9764
4.7522 3.2503 -1.6364 0.9763
4.7522 3.2936 -1.6434 0.9762
4.7522 3.4706 -1.6726 0.9758
4.7522 3.5159 -1.6802 0.9757
4.7522 3.6077 -1.6958 0.9755
4.7522 3.6543 -1.7039 0.9754
4.7522 3.7012 -1.7120 0.9753
4.7522 3.7487 -1.7204 0.9751
4.7004 3.8514 -1.7272 0.9750
4.8573 4.1850 -1.8223 0.9737
4.8573 4.2376 -1.8321 0.9736
4.8573 4.5096 -1.8838 0.9728
4.8062 4.7471 -1.9201 0.9723
4.8055 4.8055 -1.9316 0.9721
4.8565 4.9781 -1.9767 0.9715
4.8572 5.2971 -2.0427 0.9706
4.8572 5.4304 -2.0708 0.9702
4.7521 5.7270 -2.1152 0.9695
4.7521 5.7996 -2.1311 0.9693
4.7521 5.9481 -2.1639 0.9688
4.7521 6.1014 -2.1981 0.9684
4.7520 6.5919 -2.3097 0.9668
4.7520 6.6786 -2.3297 0.9665
4.7520 6.7668 -2.3502 0.9662
4.7122 6.8897 -2.3725 0.9659
4.6694 6.9187 -2.3724 0.9659
4.4532 7.0596 -2.3724 0.9659
4.3655 7.1140 -2.3724 0.9659
4.2772 7.1674 -2.3723 0.9659
4.2327 7.1937 -2.3723 0.9659
4.1434 7.2454 -2.3723 0.9659
4.0534 7.2960 -2.3723 0.9659
3.8716 7.3939 -2.3722 0.9659
3.6411 7.5099 -2.3722 0.9659
3.5479 7.5542 -2.3722 0.9659
3.5011 7.5760 -2.3721 0.9659
3.4542 7.5975 -2.3721 0.9659
3.3599 7.6395 -2.3721 0.9659
3.3125 7.6601 -2.3721 0.9659
3.1698 7.7201 -2.3720 0.9659
3.1220 7.7395 -2.3720 0.9659
3.0741 7.7586 -2.3720 0.9659
3.0260 7.7774 -2.3720 0.9659
2.9779 7.7960 -2.3720 0.9659
2.8812 7.8323 -2.3720 0.9659
2.7842 7.8674 -2.3720 0.9659
2.6867 7.9013 -2.3720 0.9659
2.6378 7.9177 -2.3720 0.9659
2.5887 7.9339 -2.3721 0.9659
2.4411 7.9806 -2.3721 0.9659
2.3917 7.9956 -2.3721 0.9659
2.3422 8.0103 -2.3721 0.9659
2.1932 8.0524 -2.3721 0.9659
2.1434 8.0658 -2.3721 0.9659
2.0935 8.0789 -2.3721 0.9659
1.9934 8.1042 -2.3721 0.9659
1.9433 8.1164 -2.3721 0.9659
1.7924 8.1512 -2.3721 0.9659
1.6409 8.1831 -2.3722 0.9659
1.5395 8.2028 -2.3722 0.9659
1.4888 8.2122 -2.3722 0.9659
1.4380 8.2212 -2.3722 0.9659
1.3871 8.2300 -2.3722 0.9659
1.1831 8.2619 -2.3722 0.9659
1.0809 8.2759 -2.3722 0.9659
1.0296 8.2825 -2.3722 0.9659
0.9784 8.2887 -2.3722 0.9659
0.8245 8.3055 -2.3723 0.9659
0.7731 8.3105 -2.3723 0.9659
0.7217 8.3151 -2.3723 0.9659
0.6188 8.3234 -2.3723 0.9659
0.5159 8.3305 -2.3723 0.9659
0.4128 8.3363 -2.3723 0.9659
0.3612 8.3387 -2.3723 0.9659
0.3097 8.3408 -2.3723 0.9659
0.2580 8.3426 -2.3723 0.9659
0.1548 8.3452 -2.3724 0.9659
0.0000 8.3467 -2.3724 0.9659
-0.1032 8.3462 -2.3724 0.9659
-0.2064 8.3443 -2.3724 0.9659
-0.2581 8.3429 -2.3724 0.9659
-0.3097 8.3412 -2.3724 0.9659
-0.3612 8.3391 -2.3724 0.9659
-0.4128 8.3367 -2.3724 0.9659
-0.4644 8.3341 -2.3725 0.9659
-0.5159 8.3311 -2.3725 0.9659
-0.5674 8.3277 -2.3725 0.9659
-0.6189 8.3241 -2.3725 0.9659
-0.7218 8.3158 -2.3725 0.9659
-0.7732 8.3113 -2.3725 0.9659
-0.8246 8.3063 -2.3725 0.9659
-0.9786 8.2897 -2.3725 0.9659
-1.1833 8.2631 -2.3726 0.9659
-1.2344 8.2556 -2.3726 0.9659
-1.2854 8.2479 -2.3726 0.9659
-1.3364 8.2398 -2.3726 0.9659
-1.4891 8.2137 -2.3726 0.9659
-1.5906 8.1947 -2.3726 0.9659
-1.6412 8.1847 -2.3726 0.9659
-1.6918 8.1744 -2.3726 0.9659
-1.8432 8.1417 -2.3727 0.9659
-1.9438 8.1184 -2.3727 0.9659
-1.9939 8.1062 -2.3727 0.9659
-2.0440 8.0938 -2.3727 0.9659
-2.0940 8.0810 -2.3727 0.9659
-2.1440 8.0679 -2.3727 0.9659
-2.2436 8.0408 -2.3727 0.9659
-2.2933 8.0268 -2.3728 0.9659
-2.3429 8.0125 -2.3728 0.9659
-2.4419 7.9830 -2.3728 0.9659
-2.5404 7.9523 -2.3728 0.9659
-2.5896 7.9364 -2.3728 0.9659
-2.6386 7.9203 -2.3728 0.9659
-2.7364 7.8871 -2.3728 0.9659
-2.7851 7.8701 -2.3728 0.9659
-2.8337 7.8527 -2.3728 0.9659
-2.8823 7.8351 -2.3729 0.9659
-2.9307 7.8171 -2.3729 0.9659
-2.9790 7.7989 -2.3729 0.9659
-3.0271 7.7804 -2.3729 0.9659
-3.0752 7.7615 -2.3729 0.9659
-3.1232 7.7424 -2.3729 0.9659
-3.1710 7.7229 -2.3729 0.9659
-3.2187 7.7032 -2.3729 0.9659
-3.2663 7.6832 -2.3729 0.9659
-3.3138 7.6629 -2.3729 0.9659
-3.5023 7.5787 -2.3730 0.9659
-3.5492 7.5569 -2.3730 0.9659
-3.5959 7.5348 -2.3730 0.9659
-3.6424 7.5125 -2.3730 0.9659
-3.6888 7.4899 -2.3730 0.9659
-3.7812 7.4437 -2.3730 0.9659
-3.8271 7.4202 -2.3730 0.9659
-3.8730 7.3964 -2.3731 0.9659
-3.9187 7.3724 -2.3731 0.9659
-4.0548 7.2985 -2.3731 0.9659
-4.1448 7.2479 -2.3731 0.9659
-4.1896 7.2221 -2.3731 0.9659
-4.2342 7.1961 -2.3731 0.9659
-4.3670 7.1164 -2.3732 0.9659
-4.4109 7.0893 -2.3732 0.9659
-4.4983 7.0342 -2.3732 0.9659
-4.5850 6.9781 -2.3732 0.9659
-4.6281 6.9496 -2.3732 0.9659
-4.6710 6.9209 -2.3732 0.9659
-4.7137 6.8919 -2.3732 0.9659
-4.9663 6.7125 -2.3733 0.9659
-5.1715 6.5558 -2.3733 0.9659
-5.2120 6.5238 -2.3733 0.9659
-5.2523 6.4915 -2.3734 0.9659
-5.2923 6.4588 -2.3734 0.9659
-5.3322 6.4261 -2.3734 0.9659
-5.4113 6.3596 -2.3734 0.9659
-5.5284 6.2582 -2.3734 0.9659
-5.6054 6.1894 -2.3734 0.9659
-5.6436 6.1547 -2.3734 0.9659
-5.6816 6.1197 -2.3735 0.9659
-5.7194 6.0845 -2.3735 0.9659
-5.7943 6.0133 -2.3735 0.9659
-5.9047 5.9047 -2.3735 0.9659
-5.9412 5.8681 -2.3735 0.9659
-6.0132 5.7941 -2.3734 0.9659
-6.1546 5.6435 -2.3734 0.9659
-6.1894 5.6054 -2.3734 0.9659
-6.2239 5.5670 -2.3734 0.9659
-6.2922 5.4895 -2.3734 0.9659
-6.3261 5.4505 -2.3734 0.9659
-6.3929 5.3718 -2.3734 0.9659
-6.4261 5.3321 -2.3734 0.9659
-6.4588 5.2923 -2.3733 0.9659
-6.6193 5.0900 -2.3733 0.9659
-6.6506 5.0489 -2.3733 0.9659
-6.7125 4.9662 -2.3733 0.9659
-6.7430 4.9246 -2.3733 0.9659
-6.8034 4.8408 -2.3733 0.9659
-6.8627 4.7563 -2.3733 0.9659
-6.9210 4.6710 -2.3732 0.9659
-7.0063 4.5418 -2.3732 0.9659
-7.0343 4.4983 -2.3732 0.9659
-7.0620 4.4547 -2.3732 0.9659
-7.1962 4.2342 -2.3732 0.9659
-7.2222 4.1896 -2.3732 0.9659
-7.2480 4.1449 -2.3731 0.9659
-7.2734 4.0999 -2.3731 0.9659
-7.3235 4.0096 -2.3731 0.9659
-7.3966 3.8731 -2.3731 0.9659
-7.4204 3.8272 -2.3731 0.9659
-7.4439 3.7812 -2.3731 0.9659
-7.4900 3.6889 -2.3731 0.9659
-7.5127 3.6425 -2.3731 0.9659
-7.5351 3.5959 -2.3731 0.9659
-7.5571 3.5492 -2.3730 0.9659
-7.5789 3.5024 -2.3730 0.9659
-7.6216 3.4084 -2.3730 0.9659
-7.6425 3.3612 -2.3730 0.9659
-7.6834 3.2664 -2.3730 0.9659
-7.7232 3.1711 -2.3730 0.9659
-7.7426 3.1233 -2.3730 0.9659
-7.7806 3.0273 -2.3730 0.9659
-7.8354 2.8824 -2.3729 0.9659
-7.8530 2.8338 -2.3729 0.9659
-7.8704 2.7852 -2.3729 0.9659
-7.9042 2.6876 -2.3729 0.9659
-7.9206 2.6387 -2.3729 0.9659
-7.9368 2.5896 -2.3729 0.9659
-7.9681 2.4913 -2.3729 0.9659
-7.9834 2.4419 -2.3729 0.9659
-8.0129 2.3430 -2.3729 0.9659
-8.0272 2.2934 -2.3729 0.9659
-8.0814 2.0941 -2.3728 0.9659
-8.0942 2.0441 -2.3728 0.9659
-8.1306 1.8936 -2.3728 0.9659
-8.1851 1.6413 -2.3728 0.9659
-8.1951 1.5906 -2.3728 0.9659
-8.2048 1.5399 -2.3727 0.9659
-8.2141 1.4891 -2.3727 0.9659
-8.2231 1.4383 -2.3727 0.9659
-8.2403 1.3365 -2.3727 0.9659
-8.2636 1.1834 -2.3727 0.9659
-8.2707 1.1322 -2.3727 0.9659
-8.2775 1.0810 -2.3727 0.9659
-8.2902 0.9786 -2.3727 0.9659
-8.3069 0.8246 -2.3726 0.9659
-8.3164 0.7218 -2.3726 0.9659
-8.3206 0.6704 -2.3726 0.9659
-8.3346 0.4644 -2.3726 0.9659
-8.3373 0.4128 -2.3726 0.9659
-8.3396 0.3612 -2.3726 0.9659
-8.3417 0.3096 -2.3726 0.9659
-8.3434 0.2581 -2.3726 0.9659
-8.3459 0.1548 -2.3726 0.9659
-8.1177 -0.0000 -2.3726 0.9667
-8.1120 -0.3011 -2.3725 0.9667
-8.1099 -0.3513 -2.3725 0.9667
-8.0870 -0.7019 -2.3725 0.9667
-8.0725 -0.8518 -2.3724 0.9667
-8.0671 -0.9017 -2.3724 0.9667
-8.0613 -0.9516 -2.3724 0.9667
-8.0553 -1.0014 -2.3724 0.9667
-8.0489 -1.0512 -2.3724 0.9667
-8.0352 -1.1507 -2.3724 0.9667
-8.0279 -1.2004 -2.3724 0.9667
-7.9957 -1.3985 -2.3724 0.9667
-7.9869 -1.4480 -2.3724 0.9667
-7.9586 -1.5959 -2.3724 0.9667
-7.9276 -1.7432 -2.3723 0.9667
-7.8938 -1.8900 -2.3723 0.9667
-7.8819 -1.9387 -2.3723 0.9667
-7.8698 -1.9875 -2.3723 0.9667
-7.8446 -2.0846 -2.3723 0.9667
-7.8182 -2.1815 -2.3723 0.9667
-7.8045 -2.2298 -2.3723 0.9667
-7.7906 -2.2780 -2.3723 0.9667
-7.7617 -2.3742 -2.3723 0.9667
-7.7469 -2.4221 -2.3723 0.9667
-7.7318 -2.4700 -2.3723 0.9667
-7.7006 -2.5654 -2.3723 0.9667
-7.6846 -2.6130 -2.3723 0.9667
-7.6682 -2.6604 -2.3722 0.9667
-7.6516 -2.7078 -2.3722 0.9667
-7.5642 -2.9430 -2.3722 0.9667
-7.5458 -2.9898 -2.3722 0.9667
-7.5272 -3.0363 -2.3722 0.9667
-7.5082 -3.0828 -2.3722 0.9667
-7.4890 -3.1292 -2.3722 0.9667
-7.4695 -3.1755 -2.3722 0.9667
-7.4497 -3.2216 -2.3722 0.9667
-7.4297 -3.2676 -2.3722 0.9667
-7.4093 -3.3135 -2.3722 0.9667
-7.3886 -3.3592 -2.3722 0.9667
-7.3677 -3.4048 -2.3722 0.9667
-7.2362 -3.6758 -2.3721 0.9667
-7.2133 -3.7205 -2.3721 0.9667
-7.1667 -3.8094 -2.3721 0.9667
-7.1191 -3.8977 -2.3721 0.9667
-7.0703 -3.9854 -2.3721 0.9667
-7.0455 -4.0291 -2.3721 0.9667
-7.0204 -4.0726 -2.3721 0.9667
-6.9951 -4.1159 -2.3721 0.9667
-6.9695 -4.1591 -2.3721 0.9667
-6.9175 -4.2449 -2.3721 0.9667
-6.8911 -4.2876 -2.3721 0.9667
-6.8645 -4.3302 -2.3721 0.9667
-6.8376 -4.3725 -2.3721 0.9667
-6.8104 -4.4147 -2.3721 0.9667
-6.7829 -4.4568 -2.3721 0.9667
-6.7273 -4.5403 -2.3721 0.9667
-6.6991 -4.5818 -2.3721 0.9667
-6.6706 -4.6231 -2.3721 0.9667
-6.6419 -4.6643 -2.3721 0.9667
-6.6129 -4.7053 -2.3721 0.9667
-6.5837 -4.7461 -2.3721 0.9667
-6.5244 -4.8271 -2.3721 0.9667
-6.4642 -4.9074 -2.3720 0.9667
-6.3720 -5.0265 -2.3720 0.9667
-6.3408 -5.0658 -2.3720 0.9667
-6.2777 -5.1438 -2.3720 0.9667
-6.2457 -5.1825 -2.3720 0.9667
-6.1811 -5.2594 -2.3720 0.9667
-6.1156 -5.3354 -2.3720 0.9667
-6.0825 -5.3731 -2.3720 0.9667
-6.0155 -5.4479 -2.3720 0.9667
-5.9477 -5.5219 -2.3720 0.9667
-5.8789 -5.5950 -2.3720 0.9667
-5.8442 -5.6313 -2.3720 0.9667
-5.7741 -5.7031 -2.3720 0.9667
-5.7031 -5.7741 -2.3720 0.9667
-5.5950 -5.8789 -2.3720 0.9667
-5.5585 -5.9134 -2.3720 0.9667
-5.5218 -5.9476 -2.3720 0.9667
-5.4479 -6.0155 -2.3720 0.9667
-5.4105 -6.0490 -2.3720 0.9667
-5.3353 -6.1155 -2.3720 0.9667
-5.2974 -6.1484 -2.3720 0.9667
-5.2593 -6.1810 -2.3720 0.9667
-5.1047 -6.3092 -2.3720 0.9667
-5.0656 -6.3406 -2.3720 0.9667
-4.9073 -6.4640 -2.3720 0.9667
-4.8672 -6.4942 -2.3720 0.9667
-4.8269 -6.5242 -2.3720 0.9667
-4.7865 -6.5539 -2.3720 0.9667
-4.7459 -6.5834 -2.3720 0.9667
-4.6641 -6.6415 -2.3720 0.9667
-4.5401 -6.7269 -2.3720 0.9667
-4.4984 -6.7549 -2.3720 0.9667
-4.4565 -6.7826 -2.3720 0.9667
-4.4145 -6.8100 -2.3720 0.9667
-4.3723 -6.8371 -2.3720 0.9667
-4.2447 -6.9171 -2.3720 0.9667
-4.2018 -6.9432 -2.3720 0.9667
-4.1588 -6.9691 -2.3720 0.9667
-4.1156 -6.9946 -2.3720 0.9667
-4.0288 -7.0450 -2.3720 0.9667
-3.9413 -7.0943 -2.3720 0.9667
-3.8974 -7.1185 -2.3720 0.9667
-3.8090 -7.1662 -2.3720 0.9667
-3.7201 -7.2128 -2.3720 0.9667
-3.5406 -7.3026 -2.3720 0.9667
-3.4954 -7.3243 -2.3720 0.9667
-3.1752 -7.4688 -2.3720 0.9667
-3.1289 -7.4883 -2.3720 0.9667
-2.9895 -7.5450 -2.3720 0.9667
-2.9427 -7.5634 -2.3720 0.9667
-2.8959 -7.5814 -2.3720 0.9667
-2.8019 -7.6167 -2.3720 0.9667
-2.7075 -7.6507 -2.3720 0.9667
-2.6601 -7.6673 -2.3720 0.9667
-2.5651 -7.6997 -2.3720 0.9667
-2.5175 -7.7154 -2.3720 0.9667
-2.4697 -7.7308 -2.3720 0.9667
-2.4218 -7.7459 -2.3720 0.9667
-2.3259 -7.7753 -2.3720 0.9667
-2.2777 -7.7896 -2.3720 0.9667
-2.0843 -7.8435 -2.3720 0.9667
-1.9872 -7.8687 -2.3720 0.9667
-1.9385 -7.8809 -2.3720 0.9667
-1.8409 -7.9043 -2.3720 0.9667
-1.7430 -7.9264 -2.3720 0.9667
-1.6448 -7.9474 -2.3720 0.9667
-1.5956 -7.9574 -2.3720 0.9667
-1.4971 -7.9766 -2.3720 0.9667
-1.2498 -8.0191 -2.3720 0.9667
-1.0511 -8.0476 -2.3720 0.9667
-1.0013 -8.0539 -2.3720 0.9667
-0.9514 -8.0600 -2.3720 0.9667
-0.9016 -8.0657 -2.3720 0.9667
-0.8517 -8.0712 -2.3721 0.9667
-0.7518 -8.0811 -2.3721 0.9667
-0.6518 -8.0898 -2.3721 0.9667
-0.4515 -8.1035 -2.3721 0.9667
-0.4014 -8.1061 -2.3721 0.9667
-0.3512 -8.1085 -2.3721 0.9667
-0.2007 -8.1136 -2.3721 0.9667
0.0000 -8.1162 -2.3721 0.9667
0.0502 -8.1160 -2.3721 0.9667
0.1004 -8.1156 -2.3721 0.9667
0.1506 -8.1148 -2.3721 0.9667
0.4515 -8.1037 -2.3721 0.9667
0.5517 -8.0975 -2.3721 0.9667
0.7019 -8.0859 -2.3722 0.9667
0.9016 -8.0662 -2.3722 0.9667
1.0511 -8.0481 -2.3722 0.9667
1.2499 -8.0197 -2.3722 0.9667
1.2994 -8.0118 -2.3722 0.9667
1.3984 -7.9952 -2.3722 0.9667
1.4479 -7.9864 -2.3722 0.9667
1.4972 -7.9773 -2.3722 0.9667
1.5466 -7.9679 -2.3722 0.9667
1.6449 -7.9482 -2.3722 0.9667
1.6941 -7.9379 -2.3723 0.9667
1.7431 -7.9273 -2.3723 0.9667
1.7922 -7.9164 -2.3723 0.9667
1.9387 -7.8818 -2.3723 0.9667
1.9874 -7.8697 -2.3723 0.9667
2.0846 -7.8445 -2.3723 0.9667
2.1331 -7.8315 -2.3723 0.9667
2.1815 -7.8182 -2.3723 0.9667
2.3262 -7.7764 -2.3723 0.9667
2.3742 -7.7619 -2.3723 0.9667
2.5178 -7.7166 -2.3723 0.9667
2.5655 -7.7009 -2.3723 0.9667
2.6131 -7.6849 -2.3723 0.9667
2.6606 -7.6686 -2.3724 0.9667
2.7079 -7.6520 -2.3724 0.9667
2.8494 -7.6005 -2.3724 0.9667
2.9433 -7.5647 -2.3724 0.9667
3.0366 -7.5278 -2.3724 0.9667
3.0831 -7.5089 -2.3724 0.9667
3.2679 -7.4304 -2.3724 0.9667
3.3138 -7.4101 -2.3724 0.9667
3.4052 -7.3685 -2.3724 0.9667
3.4507 -7.3474 -2.3725 0.9667
3.4961 -7.3259 -2.3725 0.9667
3.5414 -7.3042 -2.3725 0.9667
3.7210 -7.2144 -2.3725 0.9667
3.8983 -7.1202 -2.3725 0.9667
3.9423 -7.0960 -2.3725 0.9667
3.9861 -7.0715 -2.3725 0.9667
4.0298 -7.0467 -2.3725 0.9667
4.0733 -7.0217 -2.3725 0.9667
4.2029 -6.9450 -2.3726 0.9667
4.2458 -6.9189 -2.3726 0.9667
4.3311 -6.8659 -2.3726 0.9667
4.4577 -6.7844 -2.3726 0.9667
4.5413 -6.7288 -2.3726 0.9667
4.5829 -6.7006 -2.3726 0.9667
4.6654 -6.6434 -2.3726 0.9667
4.7064 -6.6145 -2.3726 0.9667
4.7472 -6.5852 -2.3726 0.9667
4.7879 -6.5558 -2.3727 0.9667
4.8284 -6.5261 -2.3727 0.9667
4.8521 -6.2298 -2.3079 0.9676
4.8521 -6.0734 -2.2720 0.9681
4.8521 -5.9970 -2.2546 0.9684
4.8003 -5.8585 -2.2136 0.9689
4.8156 -5.8035 -2.2041 0.9691
4.8870 -5.7435 -2.2041 0.9691
4.9573 -5.6117 -2.1884 0.9693
4.9573 -5.5423 -2.1733 0.9695
4.9573 -5.4738 -2.1584 0.9697
4.9382 -5.3190 -2.1213 0.9702
4.9573 -5.2738 -2.1154 0.9703
4.9573 -5.2088 -2.1016 0.9705
4.9573 -5.0815 -2.0748 0.9708
4.9573 -5.0190 -2.0618 0.9710
4.9573 -4.8964 -2.0365 0.9714
4.9573 -4.8362 -2.0241 0.9716
4.9082 -4.7294 -1.9921 0.9720
4.9258 -4.6880 -1.9875 0.9721
4.9573 -4.6598 -1.9885 0.9720
4.9573 -4.6024 -1.9770 0.9722
4.9141 -4.4505 -1.9377 0.9727
4.9155 -4.3423 -1.9169 0.9730
4.8004 -4.1880 -1.8619 0.9738
4.8186 -4.1517 -1.8590 0.9738
4.8522 -4.1286 -1.8620 0.9738
4.8522 -4.0262 -1.8428 0.9741
4.8522 -3.9758 -1.8334 0.9742
4.8522 -3.8276 -1.8063 0.9746
4.8522 -3.7792 -1.7975 0.9747
4.8522 -3.6837 -1.7805 0.9749
4.8522 -3.5437 -1.7561 0.9753
4.8522 -3.4979 -1.7482 0.9754
4.8522 -3.4525 -1.7405 0.9755
4.8522 -3.3187 -1.7181 0.9758
4.8522 -3.2313 -1.7038 0.9760
4.8522 -3.1882 -1.6969 0.9761
4.8522 -3.1454 -1.6901 0.9762
4.8522 -3.0608 -1.6767 0.9764
4.8522 -2.9776 -1.6639 0.9766
4.8522 -2.8956 -1.6515 0.9767
4.8522 -2.8551 -1.6454 0.9768
4.8522 -2.8148 -1.6395 0.9769
4.8522 -2.6957 -1.6223 0.9771
4.8522 -2.6566 -1.6168 0.9772
4.8522 -2.6177 -1.6114 0.9773
4.8522 -2.5027 -1.5957 0.9775
4.8522 -2.4648 -1.5906 0.9776
4.8522 -2.3897 -1.5808 0.9777
5.1110 -2.3237 -1.6409 0.9769
5.1960 -2.3237 -1.6636 0.9766
5.2834 -2.3237 -1.6869 0.9762
5.3734 -2.3237 -1.7110 0.9759
5.5612 -2.3237 -1.7616 0.9752
5.6593 -2.3237 -1.7881 0.9748
5.7427 -2.3165 -1.8099 0.9745
6.0673 -2.3606 -1.9028 0.9732
6.3182 -2.3687 -1.9721 0.9723
6.8634 -2.4289 -2.1279 0.9701
7.1418 -2.4284 -2.2047 0.9691
7.1567 -2.3842 -2.2047 0.9691
7.1713 -2.3399 -2.2047 0.9691
7.4275 -2.2719 -2.2701 0.9681
7.7683 -2.3238 -2.3698 0.9668
7.8186 -2.1816 -2.3724 0.9667
7.8318 -2.1332 -2.3724 0.9667
7.8576 -2.0362 -2.3724 0.9667
7.8821 -1.9388 -2.3724 0.9667
7.8940 -1.8900 -2.3724 0.9667
7.9276 -1.7432 -2.3724 0.9667
7.9585 -1.5958 -2.3723 0.9667
7.9682 -1.5466 -2.3723 0.9667
7.9776 -1.4973 -2.3723 0.9667
7.9867 -1.4479 -2.3723 0.9667
8.0121 -1.2995 -2.3723 0.9667
8.0199 -1.2499 -2.3723 0.9667
8.0275 -1.2003 -2.3723 0.9667
8.0606 -0.9515 -2.3722 0.9667
8.0663 -0.9017 -2.3722 0.9667
8.0718 -0.8518 -2.3722 0.9667
8.0903 -0.6518 -2.3722 0.9667
8.0977 -0.5517 -2.3722 0.9667
