ply
format ascii 1.0
element vertex 1555
property float32 x
property float32 y
property float32 z
property float32 I
end_header
-12.7138 5.4980 -0.1335 0.9461
-12.7138 5.3123 -0.1328 0.9464
-12.7138 5.2202 -0.1325 0.9465
-12.6620 4.8365 -0.1307 0.9472
-12.8190 4.8058 -0.1320 0.9467
-12.8190 4.7156 -0.1317 0.9468
-12.8190 4.6258 -0.1314 0.9469
-12.8190 4.5365 -0.1311 0.9471
-12.8189 4.4474 -0.1308 0.9472
-12.7699 4.3421 -0.1301 0.9475
-12.8190 4.2706 -0.1303 0.9474
-12.8190 4.1826 -0.1300 0.9475
-12.8190 3.9211 -0.1292 0.9478
-12.8189 3.8345 -0.1290 0.9479
-12.7699 3.7340 -0.1283 0.9482
-12.8190 3.6624 -0.1285 0.9481
-12.8190 3.5768 -0.1283 0.9482
-12.6620 3.1977 -0.1259 0.9491
-12.7138 3.1273 -0.1262 0.9490
-12.7138 2.8782 -0.1257 0.9492
-12.7138 2.7134 -0.1253 0.9493
-12.7138 2.5494 -0.1250 0.9495
-12.7138 2.3862 -0.1247 0.9496
-12.7138 2.3049 -0.1246 0.9496
-12.7138 2.2238 -0.1244 0.9497
-12.7138 2.1429 -0.1243 0.9497
-12.7138 2.0621 -0.1242 0.9498
-12.7138 1.4211 -0.1233 0.9501
-13.5053 1.3407 -0.1308 0.9472
-15.2695 1.3253 -0.1478 0.9405
-16.6402 1.3407 -0.1610 0.9354
-62.0152 3.8400 -0.5990 0.7799
-61.7224 3.4389 -0.5960 0.7809
-61.1455 2.6486 -0.5901 0.7828
-60.5158 2.2464 -0.5838 0.7849
-60.2693 1.8642 -0.5813 0.7857
-60.7269 0.3755 -0.5855 0.7843
-60.7346 -0.0000 -1.0366 0.7843
-12.7138 -0.1573 -0.2170 0.9504
-12.7138 -0.2359 -0.2170 0.9504
-12.7138 -0.3933 -0.2171 0.9504
-12.7138 -0.5507 -0.2172 0.9504
-12.7138 -0.8662 -0.2175 0.9503
-12.7138 -1.1828 -0.2179 0.9502
-12.7138 -1.2621 -0.2181 0.9502
-12.7138 -1.4211 -0.2183 0.9501
-12.7138 -1.5008 -0.2185 0.9501
-12.7138 -1.5806 -0.2187 0.9500
-12.7138 -1.7405 -0.2190 0.9500
-12.7138 -1.8207 -0.2192 0.9499
-12.7138 -1.9010 -0.2194 0.9499
-12.8189 -2.1605 -0.2219 0.9493
-12.8189 -2.2422 -0.2221 0.9493
-12.8189 -2.3240 -0.2223 0.9492
-12.8189 -2.4059 -0.2226 0.9492
-12.7698 -2.4786 -0.2220 0.9493
-12.8189 -2.5704 -0.2231 0.9490
-12.8189 -2.6530 -0.2234 0.9490
-12.8189 -2.7358 -0.2237 0.9489
-12.8189 -2.9020 -0.2243 0.9488
-12.8189 -3.1531 -0.2253 0.9486
-12.8189 -3.2373 -0.2256 0.9485
-12.8189 -3.4915 -0.2268 0.9482
-12.8189 -3.5768 -0.2271 0.9482
-12.6620 -3.6176 -0.2248 0.9487
-12.7137 -3.7176 -0.2261 0.9484
-12.7138 -3.8031 -0.2265 0.9483
-12.7138 -3.8889 -0.2269 0.9482
-12.7137 -4.2355 -0.2287 0.9478
-12.7137 -4.3230 -0.2292 0.9477
-12.7137 -4.4109 -0.2297 0.9476
-12.7137 -4.4992 -0.2302 0.9475
-12.7137 -4.6769 -0.2312 0.9472
-12.7137 -4.7664 -0.2317 0.9471
-12.7137 -5.0374 -0.2334 0.9468
-12.7137 -5.1285 -0.2340 0.9466
-12.7137 -5.2202 -0.2346 0.9465
-12.7137 -5.4980 -0.2364 0.9461
-12.7137 -5.5916 -0.2370 0.9460
-12.7137 -5.7803 -0.2384 0.9457
-12.7137 -6.0674 -0.2404 0.9452
-12.7137 -6.3596 -0.2426 0.9447
-12.7137 -6.4582 -0.2434 0.9445
-12.7137 -6.6573 -0.2449 0.9442
-12.7137 -6.7578 -0.2457 0.9440
-12.7137 -7.2706 -0.2500 0.9431
-12.6620 -7.3452 -0.2498 0.9431
-12.8189 -7.6497 -0.2548 0.9420
-12.8189 -8.0863 -0.2587 0.9412
-12.8189 -8.1975 -0.2597 0.9409
-12.8189 -8.6516 -0.2639 0.9400
-12.8046 -8.9921 -0.2670 0.9393
-12.6619 -9.0094 -0.2652 0.9397
-12.7137 -9.1652 -0.2675 0.9392
-12.7137 -9.2852 -0.2687 0.9390
-12.7137 -9.5285 -0.2712 0.9384
-12.7137 -9.6519 -0.2724 0.9381
-12.7137 -9.7764 -0.2737 0.9379
-12.7137 -10.1572 -0.2777 0.9370
-14.1519 -12.3465 -0.3205 0.9276
-14.0445 -12.4066 -0.3198 0.9278
-13.8706 -12.4066 -0.3176 0.9283
-13.5831 -12.3014 -0.3128 0.9293
-13.4154 -12.3014 -0.3106 0.9298
-13.0867 -12.3014 -0.3065 0.9307
-12.9256 -12.3014 -0.3045 0.9311
-12.7666 -12.3014 -0.3026 0.9315
-12.7137 -12.7137 -0.3069 0.9306
-12.7137 -12.8719 -0.3088 0.9302
-12.7137 -13.3588 -0.3147 0.9289
-12.7137 -13.5253 -0.3168 0.9284
-12.7137 -13.8650 -0.3211 0.9275
-12.7137 -14.0383 -0.3232 0.9270
-12.6619 -14.1561 -0.3242 0.9268
-12.7854 -14.4733 -0.3296 0.9257
-12.6958 -14.5523 -0.3296 0.9257
-12.6619 -14.6959 -0.3311 0.9253
-12.6619 -15.0688 -0.3359 0.9243
-12.6619 -15.2594 -0.3384 0.9237
-12.6619 -15.8488 -0.3462 0.9221
-12.7137 -16.7468 -0.3589 0.9193
-12.7137 -17.4082 -0.3679 0.9174
-12.7137 -17.6361 -0.3711 0.9167
-12.7137 -17.8680 -0.3743 0.9160
-12.7137 -18.5887 -0.3844 0.9138
-12.7137 -18.8376 -0.3879 0.9131
-12.7137 -19.3495 -0.3951 0.9115
-10.8381 -17.4191 -0.3501 0.9212
-10.3949 -17.4191 -0.3462 0.9221
-9.9614 -17.4191 -0.3425 0.9229
-9.6775 -17.4191 -0.3401 0.9234
-9.5370 -17.4191 -0.3389 0.9236
-9.3975 -17.4191 -0.3378 0.9239
-9.1211 -17.4191 -0.3356 0.9244
-8.8484 -17.4191 -0.3334 0.9248
-8.7133 -17.4191 -0.3324 0.9250
-8.4455 -17.4191 -0.3304 0.9255
-8.1810 -17.4191 -0.3284 0.9259
-8.0499 -17.4191 -0.3275 0.9261
-7.7899 -17.4191 -0.3257 0.9265
-7.4053 -17.4191 -0.3230 0.9271
-7.1522 -17.4191 -0.3214 0.9274
-7.0267 -17.4191 -0.3206 0.9276
-6.7774 -17.4191 -0.3190 0.9280
-6.6536 -17.4191 -0.3182 0.9281
-6.5305 -17.4191 -0.3175 0.9283
-6.0435 -17.4191 -0.3147 0.9289
-5.9230 -17.4191 -0.3140 0.9290
-5.8031 -17.4191 -0.3134 0.9292
-5.4462 -17.4191 -0.3115 0.9296
-5.3282 -17.4191 -0.3109 0.9297
-4.9767 -17.4191 -0.3092 0.9301
-4.8604 -17.4191 -0.3087 0.9302
-4.7445 -17.4191 -0.3081 0.9303
-4.5138 -17.4191 -0.3071 0.9305
-4.3991 -17.4191 -0.3066 0.9306
-4.2846 -17.4191 -0.3062 0.9308
-4.0568 -17.4191 -0.3052 0.9309
-3.9434 -17.4191 -0.3048 0.9310
-3.8304 -17.4191 -0.3044 0.9311
-3.1579 -17.4191 -0.3021 0.9316
-2.9359 -17.4191 -0.3015 0.9318
-2.7148 -17.4191 -0.3009 0.9319
-2.6045 -17.4191 -0.3006 0.9320
-2.4945 -17.4191 -0.3003 0.9320
-2.2750 -17.4191 -0.2998 0.9321
-2.0562 -17.4191 -0.2994 0.9322
-1.9471 -17.4191 -0.2991 0.9323
-1.6205 -17.4191 -0.2986 0.9324
-1.5119 -17.4191 -0.2984 0.9324
-1.4034 -17.4191 -0.2983 0.9325
-1.2951 -17.4191 -0.2981 0.9325
-1.0786 -17.4191 -0.2979 0.9326
-0.3232 -17.4191 -0.2973 0.9327
0.1077 -17.4191 -0.2973 0.9327
0.5388 -17.4191 -0.2974 0.9327
0.7545 -17.4191 -0.2976 0.9326
0.8625 -17.4191 -0.2977 0.9326
0.9705 -17.4191 -0.2978 0.9326
1.5119 -17.4191 -0.2984 0.9324
1.7292 -17.4191 -0.2988 0.9324
1.8381 -17.4191 -0.2989 0.9323
2.0562 -17.4190 -0.2994 0.9322
2.3847 -17.4190 -0.3001 0.9321
2.7147 -17.4191 -0.3009 0.9319
2.8252 -17.4190 -0.3012 0.9318
3.1579 -17.4191 -0.3021 0.9316
3.2693 -17.4190 -0.3025 0.9316
3.3810 -17.4191 -0.3028 0.9315
3.4929 -17.4190 -0.3032 0.9314
3.8304 -17.4191 -0.3044 0.9311
4.1705 -17.4190 -0.3057 0.9309
4.2846 -17.4190 -0.3062 0.9308
4.3990 -17.4191 -0.3066 0.9306
4.9085 -15.3651 -0.2753 0.9375
4.8349 -14.8179 -0.2660 0.9395
4.8524 -14.5656 -0.2620 0.9404
4.8524 -14.2707 -0.2573 0.9415
4.8524 -13.9863 -0.2527 0.9425
4.8524 -13.4468 -0.2440 0.9444
4.8524 -12.7036 -0.2321 0.9471
4.8524 -12.0292 -0.2214 0.9494
4.8524 -11.6131 -0.2148 0.9509
4.8006 -11.2923 -0.2094 0.9521
4.9576 -10.7277 -0.2017 0.9538
4.9576 -10.5557 -0.1990 0.9544
4.9576 -10.0661 -0.1915 0.9561
4.8524 -9.5526 -0.1829 0.9580
4.8524 -9.2669 -0.1785 0.9590
4.8524 -9.1291 -0.1764 0.9595
4.8524 -8.8628 -0.1724 0.9604
4.8524 -8.6083 -0.1687 0.9612
4.8524 -8.4852 -0.1668 0.9617
4.8524 -8.3648 -0.1650 0.9621
4.8524 -8.2468 -0.1633 0.9624
4.8524 -8.0182 -0.1600 0.9632
4.8524 -7.7988 -0.1568 0.9639
4.8524 -7.6924 -0.1552 0.9643
4.8524 -7.4855 -0.1523 0.9649
4.8524 -7.3851 -0.1508 0.9653
4.8524 -7.2865 -0.1494 0.9656
4.8524 -7.1897 -0.1480 0.9659
4.8524 -7.0947 -0.1467 0.9662
4.8524 -6.9097 -0.1441 0.9668
4.8524 -6.7312 -0.1416 0.9673
4.8524 -6.4745 -0.1381 0.9681
4.8524 -6.3103 -0.1359 0.9687
4.8524 -6.0737 -0.1327 0.9694
4.8265 -5.8166 -0.1290 0.9702
4.8875 -5.8166 -0.1297 0.9701
4.9575 -5.6121 -0.1278 0.9705
4.9576 -5.5426 -0.1269 0.9707
4.9381 -5.3188 -0.1239 0.9714
4.9576 -5.2740 -0.1235 0.9715
4.9576 -4.9576 -0.1197 0.9723
4.9576 -4.8966 -0.1189 0.9725
4.9085 -4.7296 -0.1163 0.9731
4.9576 -4.6027 -0.1155 0.9733
4.9576 -4.5459 -0.1148 0.9734
4.9575 -4.4898 -0.1142 0.9736
4.9575 -4.4343 -0.1135 0.9737
4.9576 -4.3794 -0.1129 0.9739
4.8524 -4.1288 -0.1087 0.9748
4.8524 -4.0264 -0.1076 0.9751
4.8524 -3.9760 -0.1071 0.9752
4.8524 -3.8767 -0.1060 0.9755
4.8524 -3.7313 -0.1045 0.9758
4.8524 -3.6367 -0.1035 0.9760
4.8524 -3.2749 -0.0999 0.9769
4.8524 -3.1883 -0.0991 0.9770
4.8524 -3.1455 -0.0987 0.9771
4.8524 -3.0609 -0.0979 0.9773
4.8524 -2.9365 -0.0968 0.9776
4.8524 -2.8551 -0.0961 0.9777
4.8524 -2.8149 -0.0957 0.9778
4.8524 -2.7749 -0.0954 0.9779
4.8524 -2.7352 -0.0951 0.9780
4.8524 -2.6958 -0.0947 0.9780
4.8524 -2.6178 -0.0941 0.9782
4.8524 -2.5408 -0.0935 0.9783
4.8524 -2.5027 -0.0932 0.9784
4.8524 -2.4649 -0.0929 0.9785
4.8524 -2.3898 -0.0923 0.9786
5.0279 -2.3236 -0.0945 0.9781
5.1957 -2.3236 -0.0971 0.9775
5.2831 -2.3236 -0.0985 0.9772
5.4656 -2.3236 -0.1014 0.9765
5.5609 -2.3235 -0.1029 0.9762
5.6590 -2.3235 -0.1044 0.9758
5.7430 -2.3166 -0.1057 0.9755
6.2422 -2.4287 -0.1143 0.9736
6.3179 -2.3686 -0.1152 0.9734
6.7303 -2.4287 -0.1221 0.9718
6.8629 -2.4287 -0.1242 0.9713
6.9103 -2.3975 -0.1248 0.9712
7.2902 -2.4287 -0.1311 0.9697
7.4080 -2.3666 -0.1327 0.9694
7.4269 -2.2718 -0.1326 0.9694
8.1327 -2.3236 -0.1444 0.9667
8.3273 -2.3236 -0.1476 0.9660
8.7436 -2.3236 -0.1544 0.9645
8.9666 -2.3236 -0.1581 0.9636
9.4462 -2.3235 -0.1660 0.9618
9.5181 -2.2789 -0.1670 0.9616
11.0448 -2.4287 -0.1930 0.9558
11.1832 -2.3145 -0.1949 0.9553
11.5874 -2.3235 -0.2017 0.9538
49.7789 -8.3899 -0.8616 0.8171
51.5049 -8.3536 -0.8905 0.8116
53.5792 -8.3503 -0.9255 0.8050
41.0739 -5.3644 -0.7070 0.8473
40.9965 -5.0966 -0.7051 0.8477
40.9870 -4.8383 -0.7044 0.8478
40.9756 -4.3238 -0.7032 0.8480
40.9697 -3.8114 -0.7022 0.8482
40.9580 -3.0451 -0.7010 0.8485
40.9506 -2.5357 -0.7002 0.8486
40.9612 -2.0281 -0.6999 0.8487
41.1747 -1.7836 -0.7034 0.8480
49.7654 -0.9234 -0.8495 0.8194
49.7159 0.0000 -0.8485 0.8196
49.7159 0.3075 -0.8485 0.8196
49.7159 0.9225 -0.8486 0.8196
49.7159 1.2301 -0.8488 0.8196
49.7159 1.5378 -0.8489 0.8196
49.7159 2.1535 -0.8493 0.8195
40.3995 3.0036 -0.6914 0.8504
40.8858 3.2941 -0.7001 0.8487
50.1087 4.3493 -0.8584 0.8177
48.2436 4.4881 -0.8269 0.8238
49.7159 5.2461 -0.8532 0.8187
49.7292 5.5587 -0.8540 0.8186
12.6220 2.0472 -0.2182 0.9501
11.0832 2.0802 -0.1925 0.9559
9.4181 1.9492 -0.1641 0.9623
8.7596 1.9830 -0.1533 0.9647
8.5147 1.9830 -0.1492 0.9656
8.2825 1.9830 -0.1454 0.9665
7.8523 1.9830 -0.1382 0.9681
7.6526 1.9830 -0.1349 0.9689
7.3080 1.9905 -0.1293 0.9702
6.8103 2.0372 -0.1213 0.9720
6.8268 2.0882 -0.1218 0.9718
5.6430 1.9578 -0.1019 0.9764
5.6036 1.9830 -0.1014 0.9765
5.4953 1.9830 -0.0997 0.9769
5.3906 1.9830 -0.0980 0.9773
5.1915 1.9830 -0.0948 0.9780
5.0968 1.9830 -0.0933 0.9784
4.9159 1.9830 -0.0905 0.9790
4.8296 1.9830 -0.0891 0.9793
4.7524 1.9857 -0.0879 0.9796
4.7524 2.0204 -0.0881 0.9796
4.7524 2.0901 -0.0886 0.9794
4.7524 2.2320 -0.0896 0.9792
4.7524 2.2680 -0.0899 0.9792
4.7524 2.3772 -0.0907 0.9790
4.7524 2.4141 -0.0910 0.9789
4.7524 2.4512 -0.0913 0.9788
4.7524 2.4885 -0.0916 0.9788
4.7524 2.5639 -0.0922 0.9786
4.7524 2.6019 -0.0925 0.9786
4.7524 2.6789 -0.0931 0.9784
4.7524 2.7569 -0.0938 0.9783
4.7524 2.8760 -0.0948 0.9780
4.7524 2.9569 -0.0955 0.9779
4.7524 2.9979 -0.0959 0.9778
4.7524 3.0391 -0.0963 0.9777
4.7524 3.2074 -0.0979 0.9773
4.7524 3.2504 -0.0983 0.9772
4.7524 3.4259 -0.1000 0.9768
4.7524 3.4708 -0.1004 0.9767
4.7524 3.5618 -0.1014 0.9765
4.7524 3.6079 -0.1018 0.9764
4.7524 3.7014 -0.1028 0.9762
4.7102 3.8110 -0.1034 0.9761
4.7006 3.8516 -0.1037 0.9760
4.8575 4.0816 -0.1083 0.9749
4.8575 4.1331 -0.1089 0.9748
4.8575 4.2910 -0.1106 0.9744
4.8575 4.3448 -0.1112 0.9743
4.8575 4.5660 -0.1138 0.9737
4.8575 4.6229 -0.1144 0.9735
4.8575 4.6805 -0.1151 0.9734
4.8575 4.7388 -0.1158 0.9732
4.8575 4.8575 -0.1172 0.9729
4.8575 4.9180 -0.1180 0.9727
4.8084 4.9902 -0.1183 0.9727
4.8575 5.1040 -0.1203 0.9722
4.8575 5.1676 -0.1210 0.9720
4.8575 5.2321 -0.1218 0.9718
4.8575 5.2974 -0.1227 0.9717
4.8575 5.3636 -0.1235 0.9715
4.8375 5.4761 -0.1247 0.9712
4.7523 5.8736 -0.1289 0.9702
4.7523 5.9485 -0.1299 0.9700
4.7523 6.1017 -0.1320 0.9695
4.7523 6.1802 -0.1331 0.9693
4.7523 6.2599 -0.1341 0.9690
4.7523 6.3409 -0.1352 0.9688
4.7523 6.5071 -0.1375 0.9683
4.7523 6.6790 -0.1399 0.9677
4.7523 6.8570 -0.1424 0.9672
4.7523 7.0414 -0.1450 0.9666
4.7523 7.1362 -0.1463 0.9663
4.7523 7.2328 -0.1477 0.9660
4.7523 7.3312 -0.1491 0.9657
4.7523 7.5337 -0.1520 0.9650
4.7523 7.6380 -0.1535 0.9647
4.7523 7.7443 -0.1551 0.9643
4.7523 8.1922 -0.1616 0.9628
4.7523 8.4308 -0.1652 0.9620
4.7523 8.5540 -0.1670 0.9616
4.7523 8.9408 -0.1728 0.9603
4.7523 9.0758 -0.1748 0.9598
4.8574 9.7108 -0.1853 0.9575
4.8084 9.7631 -0.1857 0.9574
4.8574 10.3426 -0.1950 0.9553
4.8574 10.8618 -0.2031 0.9535
4.7523 11.5742 -0.2135 0.9512
4.7523 11.7810 -0.2168 0.9504
4.7523 11.9942 -0.2202 0.9497
4.7523 12.2143 -0.2237 0.9489
4.7523 12.4414 -0.2273 0.9481
4.7523 13.1693 -0.2389 0.9455
4.7523 13.9761 -0.2519 0.9427
4.7523 14.5647 -0.2615 0.9405
4.7239 14.7872 -0.2649 0.9398
4.6976 15.0248 -0.2687 0.9390
4.4944 15.0248 -0.2677 0.9392
4.3933 15.0248 -0.2672 0.9393
4.2926 15.0248 -0.2667 0.9394
3.9927 15.0248 -0.2653 0.9397
3.8934 15.0248 -0.2649 0.9398
3.4871 14.9730 -0.2624 0.9403
3.3270 15.1299 -0.2644 0.9399
2.8397 15.1299 -0.2627 0.9403
2.6463 15.1299 -0.2621 0.9404
2.4539 15.1299 -0.2616 0.9405
2.3504 15.0808 -0.2605 0.9408
2.2622 15.1299 -0.2611 0.9406
2.0712 15.1299 -0.2606 0.9407
1.9760 15.1299 -0.2604 0.9408
1.7736 15.0248 -0.2582 0.9413
1.5854 15.0248 -0.2579 0.9413
1.4915 15.0247 -0.2577 0.9414
0.8371 15.0247 -0.2568 0.9416
0.7439 15.0247 -0.2567 0.9416
0.6508 15.0248 -0.2567 0.9416
0.4647 15.0247 -0.2566 0.9416
0.3717 15.0247 -0.2565 0.9416
0.2788 15.0247 -0.2565 0.9417
0.1858 15.0247 -0.2564 0.9417
0.0929 15.0247 -0.2564 0.9417
-0.0000 15.0247 -0.2564 0.9417
-0.1859 15.0247 -0.2564 0.9417
-0.2788 15.0247 -0.2565 0.9417
-0.3718 15.0247 -0.2565 0.9416
-0.5578 15.0247 -0.2566 0.9416
-0.7439 15.0247 -0.2567 0.9416
-0.9304 15.0247 -0.2569 0.9416
-1.0237 15.0247 -0.2570 0.9415
-1.1171 15.0247 -0.2571 0.9415
-1.2105 15.0247 -0.2573 0.9415
-1.3978 15.0247 -0.2575 0.9414
-1.6795 15.0247 -0.2580 0.9413
-1.7736 15.0247 -0.2582 0.9413
-1.8643 14.9957 -0.2579 0.9413
-1.9761 15.1299 -0.2604 0.9408
-2.1667 15.1299 -0.2609 0.9407
-2.5259 14.9868 -0.2594 0.9410
-2.7170 14.9868 -0.2599 0.9409
-2.9089 14.9868 -0.2606 0.9408
-3.1017 14.9868 -0.2612 0.9406
-3.2955 14.9868 -0.2619 0.9405
-3.3928 14.9868 -0.2623 0.9404
-3.8836 14.9868 -0.2642 0.9399
-4.1818 14.9868 -0.2656 0.9397
-4.2776 14.9721 -0.2658 0.9396
-4.3933 15.0247 -0.2672 0.9393
-4.4944 15.0247 -0.2677 0.9392
-4.5958 15.0247 -0.2682 0.9391
-4.9024 15.0247 -0.2697 0.9387
-5.1088 15.0247 -0.2708 0.9385
-5.3171 15.0247 -0.2720 0.9382
-5.5518 15.0919 -0.2745 0.9377
-5.7647 15.0919 -0.2757 0.9374
-6.0246 14.9350 -0.2749 0.9376
-6.1535 14.9868 -0.2765 0.9372
-6.4810 14.9868 -0.2787 0.9368
-6.5912 14.9868 -0.2794 0.9366
-6.7022 14.9868 -0.2802 0.9364
-6.8137 14.9868 -0.2810 0.9363
-7.1521 14.9868 -0.2834 0.9357
-7.2662 14.9868 -0.2843 0.9355
-7.3811 14.9868 -0.2851 0.9354
-7.4966 14.9868 -0.2860 0.9352
-7.6128 14.9868 -0.2869 0.9350
-7.7298 14.9868 -0.2878 0.9348
-7.8475 14.9868 -0.2887 0.9346
-7.9660 14.9868 -0.2897 0.9344
-8.0852 14.9868 -0.2906 0.9341
-8.2053 14.9868 -0.2916 0.9339
-8.6939 14.9868 -0.2957 0.9330
-8.9434 14.9868 -0.2979 0.9326
-9.1967 14.9868 -0.3001 0.9321
-9.4538 14.9868 -0.3024 0.9316
-9.9162 15.0919 -0.3082 0.9303
-10.0504 15.0919 -0.3095 0.9300
-10.3221 15.0919 -0.3121 0.9295
-10.4597 15.0919 -0.3134 0.9292
-10.7384 15.0919 -0.3161 0.9286
-10.8547 15.0574 -0.3168 0.9284
-11.0221 15.0919 -0.3190 0.9280
-11.3525 14.9538 -0.3204 0.9276
-11.5243 14.9867 -0.3227 0.9272
-11.6725 14.9867 -0.3242 0.9268
-12.1258 14.9867 -0.3290 0.9258
-12.4356 14.9867 -0.3324 0.9250
-12.7792 14.6479 -0.3318 0.9252
-12.8190 14.5114 -0.3305 0.9255
-12.7139 13.6942 -0.3189 0.9280
-12.7139 12.8721 -0.3088 0.9302
-12.7139 12.7139 -0.3069 0.9306
-12.7139 12.5575 -0.3050 0.9310
-12.8264 12.3591 -0.3040 0.9312
-12.7139 11.6581 -0.2944 0.9333
-12.7138 11.2311 -0.2895 0.9344
-12.7138 10.9542 -0.2864 0.9351
-12.7138 10.8179 -0.2849 0.9354
-12.7138 10.5496 -0.2820 0.9360
-12.8190 10.2413 -0.2800 0.9365
-12.8190 9.7318 -0.2747 0.9376
-12.8190 9.6074 -0.2734 0.9379
-12.8190 9.4842 -0.2722 0.9382
-12.8190 9.3621 -0.2709 0.9385
-12.8190 9.2410 -0.2697 0.9387
-12.8101 9.1148 -0.2684 0.9390
-12.8190 9.0022 -0.2673 0.9393
-12.7107 8.5786 -0.2617 0.9405
-12.7138 8.4667 -0.2607 0.9407
-12.7138 8.2416 -0.2586 0.9412
-12.7138 8.1303 -0.2576 0.9414
-12.7138 7.9105 -0.2556 0.9419
-12.7138 7.8019 -0.2546 0.9421
-12.7138 7.5870 -0.2527 0.9425
-12.7138 7.4808 -0.2518 0.9427
-12.7138 7.3753 -0.2509 0.9429
-12.7138 7.2706 -0.2500 0.9431
-12.7138 7.1667 -0.2491 0.9433
-12.7138 7.0634 -0.2482 0.9435
-12.7138 6.9608 -0.2474 0.9437
-12.7138 6.7578 -0.2457 0.9440
-12.7138 6.6573 -0.2449 0.9442
-12.7138 6.4582 -0.2434 0.9445
-12.7138 6.3596 -0.2426 0.9447
-12.7138 6.2616 -0.2419 0.9449
-12.7138 6.1642 -0.2411 0.9450
-12.7138 6.0674 -0.2404 0.9452
-12.7138 5.7803 -0.2384 0.9457
-12.7138 5.6857 -0.2377 0.9458
-12.7138 5.5916 -0.2370 0.9460
-12.7138 5.2202 -0.2346 0.9465
-12.7138 5.1286 -0.2340 0.9466
-12.8190 4.8059 -0.2337 0.9467
-12.8190 4.6258 -0.2326 0.9469
-12.8190 4.2706 -0.2306 0.9474
-12.7698 3.7340 -0.2271 0.9482
-12.8190 3.6625 -0.2275 0.9481
-12.8190 3.5768 -0.2271 0.9482
-12.6620 3.1977 -0.2229 0.9491
-12.7138 3.1273 -0.2235 0.9490
-12.7138 3.0440 -0.2231 0.9490
-12.7138 2.9610 -0.2228 0.9491
-12.7138 2.6313 -0.2216 0.9494
-12.7138 2.5494 -0.2213 0.9494
-12.7138 2.4677 -0.2210 0.9495
-12.7138 2.3862 -0.2208 0.9496
-12.7138 2.3049 -0.2205 0.9496
-12.7138 2.2238 -0.2203 0.9497
-12.7138 2.1428 -0.2200 0.9497
-12.7138 1.9814 -0.2196 0.9498
-12.7138 1.9010 -0.2194 0.9499
-12.7138 1.8207 -0.2192 0.9499
-12.7138 1.5806 -0.2187 0.9500
-12.7138 1.5008 -0.2185 0.9501
-13.5052 1.3407 -0.2316 0.9472
-15.2695 1.4205 -0.2617 0.9405
-16.6401 1.3407 -0.2849 0.9354
-17.3796 1.2921 -0.2974 0.9327
-19.0446 1.2975 -0.3258 0.9265
-62.0153 3.8400 -1.0604 0.7799
-61.7225 3.4389 -1.0551 0.7809
-61.4326 3.0417 -1.0498 0.7819
-61.1456 2.6486 -1.0446 0.7828
-60.5159 2.2465 -1.0335 0.7848
-60.2694 1.8642 -1.0291 0.7857
-60.7194 0.7510 -1.0364 0.7843
-60.7270 0.3755 -1.0364 0.7843
-13.6044 -0.0841 -0.3332 0.9470
-12.7138 -0.1573 -0.3114 0.9504
-12.7138 -0.3146 -0.3115 0.9504
-12.7138 -0.3933 -0.3116 0.9504
-12.7138 -0.6295 -0.3118 0.9503
-12.7138 -1.1035 -0.3126 0.9502
-12.7138 -1.3416 -0.3132 0.9501
-12.7138 -1.4211 -0.3134 0.9501
-12.7138 -1.6605 -0.3141 0.9500
-12.7138 -1.8207 -0.3146 0.9499
-12.8189 -2.0791 -0.3181 0.9494
-12.8189 -2.1606 -0.3184 0.9493
-12.8189 -2.2422 -0.3188 0.9493
-12.8189 -2.6530 -0.3207 0.9490
-12.8189 -2.8188 -0.3215 0.9488
-12.8189 -3.0692 -0.3229 0.9486
-12.8189 -3.1531 -0.3234 0.9486
-12.8189 -3.3218 -0.3244 0.9484
-12.8189 -3.4065 -0.3249 0.9483
-12.6620 -3.6176 -0.3226 0.9487
-12.7138 -3.7176 -0.3245 0.9484
-12.7138 -3.9750 -0.3263 0.9481
-12.7138 -4.1483 -0.3276 0.9479
-12.7138 -4.2355 -0.3282 0.9478
-12.7138 -4.3231 -0.3289 0.9477
-12.7138 -4.4109 -0.3296 0.9476
-12.7138 -4.4992 -0.3303 0.9475
-12.7138 -4.5879 -0.3311 0.9474
-12.7138 -4.6769 -0.3318 0.9472
-12.7138 -4.7664 -0.3326 0.9471
-12.7137 -5.0374 -0.3350 0.9468
-12.7137 -5.1286 -0.3358 0.9466
-12.7137 -5.4980 -0.3393 0.9461
-12.7138 -5.5916 -0.3402 0.9459
-12.7137 -5.6857 -0.3411 0.9458
-12.7138 -5.8754 -0.3431 0.9455
-12.7137 -5.9711 -0.3441 0.9453
-12.7138 -6.2616 -0.3471 0.9449
-12.7137 -6.3596 -0.3482 0.9447
-12.7137 -6.4582 -0.3493 0.9445
-12.7137 -6.7578 -0.3527 0.9440
-12.7137 -6.8589 -0.3539 0.9438
-12.7137 -6.9608 -0.3550 0.9437
-12.7137 -7.0633 -0.3563 0.9435
-12.6620 -7.6626 -0.3625 0.9425
-12.6620 -7.7700 -0.3639 0.9423
-12.6619 -8.3196 -0.3711 0.9412
-12.6620 -8.4322 -0.3726 0.9409
-12.6620 -8.6601 -0.3758 0.9405
-12.7138 -9.2852 -0.3856 0.9390
-12.7138 -9.5286 -0.3892 0.9384
-12.7137 -9.9021 -0.3947 0.9376
-12.7137 -10.0291 -0.3967 0.9373
-12.7137 -10.1573 -0.3986 0.9370
-12.7137 -10.4175 -0.4026 0.9363
-12.7137 -10.5496 -0.4047 0.9360
-12.7137 -10.6830 -0.4068 0.9357
-12.7137 -10.8178 -0.4089 0.9354
-13.8121 -12.2013 -0.4514 0.9289
-13.6411 -12.2013 -0.4483 0.9294
-13.4725 -12.2013 -0.4452 0.9299
-12.8204 -12.2013 -0.4335 0.9316
-12.6136 -12.3053 -0.4316 0.9319
-12.6136 -12.4585 -0.4343 0.9315
-12.6136 -12.6136 -0.4369 0.9311
-12.6136 -12.9295 -0.4425 0.9303
-12.6136 -13.4188 -0.4511 0.9290
-12.6136 -13.7558 -0.4572 0.9280
-12.6136 -14.1020 -0.4634 0.9271
-12.6136 -14.2788 -0.4667 0.9266
-12.6136 -14.8242 -0.4768 0.9251
-12.7137 -15.3219 -0.4877 0.9234
-12.7137 -15.5162 -0.4914 0.9229
-12.7137 -15.9137 -0.4989 0.9217
-12.7138 -16.3237 -0.5068 0.9205
-12.7137 -16.7469 -0.5150 0.9193
-12.7138 -17.1841 -0.5236 0.9180
-12.7138 -18.1041 -0.5419 0.9153
-12.7137 -18.3443 -0.5467 0.9146
-12.7137 -18.8377 -0.5567 0.9131
-12.7137 -19.3496 -0.5671 0.9115
-11.1393 -17.4191 -0.5065 0.9206
-10.5416 -17.4191 -0.4987 0.9218
-10.3950 -17.4191 -0.4969 0.9220
-9.9614 -17.4191 -0.4915 0.9228
-9.8190 -17.4191 -0.4898 0.9231
-9.6775 -17.4191 -0.4881 0.9234
-8.9843 -17.4191 -0.4801 0.9246
-8.7133 -17.4191 -0.4771 0.9250
-8.5790 -17.4191 -0.4756 0.9252
-8.3129 -17.4191 -0.4728 0.9257
-8.0499 -17.4191 -0.4700 0.9261
-7.7899 -17.4191 -0.4674 0.9265
-7.5328 -17.4191 -0.4649 0.9269
-7.4053 -17.4191 -0.4636 0.9271
-7.2784 -17.4191 -0.4624 0.9272
-6.9017 -17.4191 -0.4590 0.9278
-6.7774 -17.4191 -0.4578 0.9279
-6.5305 -17.4191 -0.4557 0.9283
-6.4079 -17.4191 -0.4546 0.9284
-6.2859 -17.4191 -0.4536 0.9286
-6.1644 -17.4191 -0.4526 0.9287
-5.8031 -17.4191 -0.4497 0.9292
-5.5647 -17.4191 -0.4479 0.9294
-5.3282 -17.4191 -0.4462 0.9297
-5.2106 -17.4191 -0.4454 0.9298
-5.0934 -17.4191 -0.4445 0.9300
-4.9767 -17.4191 -0.4438 0.9301
-4.8604 -17.4191 -0.4430 0.9302
-4.7445 -17.4191 -0.4422 0.9303
-4.5138 -17.4191 -0.4408 0.9305
-4.1706 -17.4191 -0.4387 0.9308
-3.9434 -17.4191 -0.4375 0.9310
-3.8304 -17.4191 -0.4369 0.9311
-3.6051 -17.4191 -0.4357 0.9313
-3.4929 -17.4191 -0.4352 0.9314
-3.3810 -17.4191 -0.4346 0.9315
-3.2693 -17.4191 -0.4341 0.9315
-3.1579 -17.4191 -0.4336 0.9316
-3.0468 -17.4191 -0.4332 0.9317
-2.6045 -17.4191 -0.4314 0.9320
-2.4945 -17.4191 -0.4310 0.9320
-2.2750 -17.4191 -0.4303 0.9321
-1.5119 -17.4191 -0.4283 0.9324
-1.2951 -17.4191 -0.4279 0.9325
-1.1868 -17.4191 -0.4277 0.9325
-1.0786 -17.4191 -0.4275 0.9326
-0.5388 -17.4191 -0.4269 0.9326
-0.3232 -17.4191 -0.4268 0.9327
0.0000 -17.4191 -0.4267 0.9327
0.4310 -17.4191 -0.4268 0.9327
0.7545 -17.4191 -0.4271 0.9326
1.1868 -17.4191 -0.4277 0.9325
1.2951 -17.4191 -0.4279 0.9325
1.4034 -17.4191 -0.4281 0.9325
1.5119 -17.4191 -0.4283 0.9324
1.6205 -17.4191 -0.4285 0.9324
1.7292 -17.4191 -0.4288 0.9324
1.9471 -17.4191 -0.4293 0.9323
2.0562 -17.4191 -0.4296 0.9322
2.1655 -17.4191 -0.4300 0.9322
2.4945 -17.4191 -0.4310 0.9320
2.6045 -17.4191 -0.4314 0.9320
2.7148 -17.4191 -0.4318 0.9319
2.8252 -17.4191 -0.4323 0.9318
3.0468 -17.4191 -0.4332 0.9317
3.4929 -17.4191 -0.4352 0.9314
3.6051 -17.4190 -0.4357 0.9313
3.9434 -17.4191 -0.4375 0.9310
4.0568 -17.4191 -0.4381 0.9309
4.1705 -17.4191 -0.4387 0.9308
4.2846 -17.4191 -0.4394 0.9307
4.7523 -17.0315 -0.4331 0.9317
4.7523 -16.6335 -0.4237 0.9331
4.8006 -16.4177 -0.4190 0.9338
4.8006 -16.0486 -0.4103 0.9352
4.8006 -15.6944 -0.4020 0.9364
4.8006 -15.3543 -0.3941 0.9377
4.8524 -14.5655 -0.3761 0.9404
4.8524 -13.9862 -0.3626 0.9425
4.8524 -13.4468 -0.3502 0.9444
4.8524 -12.7036 -0.3331 0.9470
4.8524 -12.2470 -0.3227 0.9487
4.8524 -12.0292 -0.3177 0.9494
4.8524 -11.8180 -0.3129 0.9502
4.8524 -11.6131 -0.3083 0.9509
4.8006 -11.2923 -0.3006 0.9521
4.9576 -11.0856 -0.2975 0.9526
4.9576 -10.7276 -0.2895 0.9538
4.9576 -10.5557 -0.2857 0.9544
4.9576 -10.3882 -0.2819 0.9550
4.9576 -10.0660 -0.2748 0.9561
4.8006 -9.5972 -0.2629 0.9580
4.8524 -9.1291 -0.2532 0.9595
4.8524 -8.8628 -0.2475 0.9604
4.8524 -8.7341 -0.2447 0.9608
4.8524 -8.3647 -0.2369 0.9620
4.8524 -8.0182 -0.2296 0.9632
4.8524 -7.0947 -0.2105 0.9662
4.8524 -7.0014 -0.2087 0.9665
4.8524 -6.8196 -0.2050 0.9671
4.8524 -6.7311 -0.2033 0.9673
4.8524 -6.6441 -0.2015 0.9676
4.8524 -6.5586 -0.1998 0.9679
4.8524 -6.4745 -0.1982 0.9681
4.8524 -6.3917 -0.1966 0.9684
4.8006 -5.8588 -0.1855 0.9701
4.8265 -5.8166 -0.1851 0.9702
4.9575 -5.6120 -0.1834 0.9705
4.9575 -5.5426 -0.1821 0.9707
4.9380 -5.3188 -0.1778 0.9714
4.9575 -5.2091 -0.1761 0.9716
4.9575 -5.1450 -0.1750 0.9718
4.9575 -5.0817 -0.1739 0.9720
4.9575 -5.0193 -0.1728 0.9722
4.9575 -4.8966 -0.1707 0.9725
4.9575 -4.8364 -0.1696 0.9727
4.9085 -4.7296 -0.1670 0.9731
4.9257 -4.6879 -0.1666 0.9732
4.9575 -4.6601 -0.1667 0.9731
4.9575 -4.5459 -0.1648 0.9734
4.9575 -4.4898 -0.1638 0.9736
4.8006 -4.1882 -0.1560 0.9748
4.8524 -4.1288 -0.1561 0.9748
4.8524 -4.0264 -0.1544 0.9751
4.8524 -3.9261 -0.1529 0.9753
4.8524 -3.7313 -0.1499 0.9758
4.8524 -3.5901 -0.1479 0.9761
4.8524 -3.5438 -0.1472 0.9762
4.8524 -3.4980 -0.1465 0.9763
4.8524 -3.4076 -0.1452 0.9766
4.8524 -3.3630 -0.1446 0.9767
4.8524 -3.3188 -0.1440 0.9768
4.8524 -3.2749 -0.1434 0.9768
4.8524 -3.1883 -0.1422 0.9770
4.8524 -3.1455 -0.1416 0.9771
4.8524 -3.0192 -0.1400 0.9774
4.8524 -2.9777 -0.1395 0.9775
4.8524 -2.9365 -0.1389 0.9776
4.8524 -2.8551 -0.1379 0.9777
4.8524 -2.7749 -0.1369 0.9779
4.8524 -2.7353 -0.1364 0.9780
4.8524 -2.6958 -0.1360 0.9780
4.8524 -2.6178 -0.1351 0.9782
4.8524 -2.5409 -0.1342 0.9783
4.8524 -2.5027 -0.1337 0.9784
4.8524 -2.4649 -0.1333 0.9785
4.8524 -2.3527 -0.1321 0.9787
4.8688 -2.3236 -0.1321 0.9786
5.1957 -2.3236 -0.1394 0.9775
5.3731 -2.3236 -0.1434 0.9768
5.4656 -2.3236 -0.1455 0.9765
5.5609 -2.3236 -0.1476 0.9762
5.6590 -2.3236 -0.1498 0.9758
5.7430 -2.2754 -0.1513 0.9756
6.8629 -2.4287 -0.1783 0.9713
6.9102 -2.3975 -0.1792 0.9712
7.2902 -2.4287 -0.1882 0.9697
7.4080 -2.3666 -0.1905 0.9694
7.7676 -2.3235 -0.1986 0.9681
8.1327 -2.3235 -0.2072 0.9667
9.2006 -2.3235 -0.2324 0.9627
10.4282 -2.4287 -0.2623 0.9581
10.7280 -2.4287 -0.2694 0.9569
11.0448 -2.4287 -0.2770 0.9558
11.1831 -2.3145 -0.2797 0.9553
48.2681 -8.7505 -1.2016 0.8218
48.2436 -8.4383 -1.1997 0.8220
49.7790 -8.3899 -1.2365 0.8171
51.7289 -8.3899 -1.2836 0.8108
40.9581 -5.3493 -1.0118 0.8477
40.9496 -5.0908 -1.0108 0.8478
40.9336 -3.5529 -1.0064 0.8484
40.9308 -3.2978 -1.0058 0.8485
40.9202 -3.0423 -1.0051 0.8486
40.9224 -2.7881 -1.0047 0.8486
40.9180 -2.5337 -1.0042 0.8487
40.8956 -2.0249 -1.0030 0.8489
49.7159 -1.8456 -1.2186 0.8195
49.7159 -1.5378 -1.2184 0.8195
48.2680 -0.5970 -1.1824 0.8244
48.2680 -0.2985 -1.1823 0.8244
48.2680 0.0000 -1.1823 0.8244
49.7158 0.3075 -1.2178 0.8196
49.7158 0.6149 -1.2179 0.8196
48.2680 0.8956 -1.1825 0.8243
49.7158 1.5378 -1.2184 0.8195
41.6179 2.0607 -1.0207 0.8464
41.6409 2.8371 -1.0224 0.8462
50.1084 4.3492 -1.2320 0.8177
49.7158 5.2461 -1.2245 0.8187
49.6833 6.1766 -1.2264 0.8185
49.7158 6.4931 -1.2281 0.8182
49.7158 7.1196 -1.2302 0.8180
49.7158 7.7482 -1.2325 0.8176
11.7658 1.9831 -0.2923 0.9534
10.5854 2.0546 -0.2641 0.9578
9.4181 1.9492 -0.2356 0.9622
9.0182 1.9830 -0.2262 0.9637
8.5147 1.9830 -0.2141 0.9656
8.2825 1.9830 -0.2086 0.9665
8.0620 1.9830 -0.2034 0.9673
7.3080 1.9421 -0.1852 0.9702
7.3080 1.9905 -0.1855 0.9701
7.3080 2.0391 -0.1858 0.9701
7.3080 2.0879 -0.1862 0.9700
7.1414 2.0882 -0.1823 0.9707
6.8268 2.0882 -0.1749 0.9718
6.6788 2.0882 -0.1714 0.9724
6.5366 2.0882 -0.1681 0.9729
6.2156 2.0280 -0.1601 0.9742
6.1793 2.0586 -0.1595 0.9743
5.6430 1.9578 -0.1463 0.9764
5.6036 1.9830 -0.1456 0.9765
5.3906 1.9830 -0.1407 0.9773
5.1915 1.9830 -0.1361 0.9780
5.0967 1.9830 -0.1340 0.9784
5.0049 1.9830 -0.1319 0.9787
4.9159 1.9830 -0.1298 0.9790
4.7524 1.9857 -0.1262 0.9796
4.7524 2.0204 -0.1265 0.9795
4.7524 2.0901 -0.1272 0.9794
4.7524 2.1253 -0.1275 0.9794
4.7523 2.1606 -0.1279 0.9793
4.7524 2.3041 -0.1294 0.9791
4.7523 2.3405 -0.1298 0.9790
4.7523 2.3772 -0.1302 0.9790
4.7523 2.5260 -0.1318 0.9787
4.7524 2.5638 -0.1323 0.9786
4.7524 2.6019 -0.1327 0.9786
4.7523 2.6788 -0.1336 0.9784
4.7523 2.7177 -0.1341 0.9783
4.7523 2.7569 -0.1346 0.9783
4.7523 2.7963 -0.1351 0.9782
4.7524 2.8760 -0.1361 0.9780
4.7524 2.9569 -0.1371 0.9779
4.7523 2.9978 -0.1376 0.9778
4.7523 3.0391 -0.1382 0.9777
4.7523 3.1648 -0.1399 0.9774
4.7523 3.2074 -0.1404 0.9773
4.7523 3.2504 -0.1410 0.9772
4.7523 3.4708 -0.1441 0.9767
4.7523 3.5160 -0.1448 0.9766
4.7523 3.6078 -0.1462 0.9764
4.7523 3.7014 -0.1476 0.9762
4.7523 3.7488 -0.1483 0.9761
4.7523 3.7967 -0.1490 0.9760
4.7102 3.8110 -0.1484 0.9760
4.7005 3.8516 -0.1489 0.9760
4.8575 4.1852 -0.1571 0.9747
4.8575 4.2910 -0.1588 0.9744
4.8575 4.3448 -0.1596 0.9743
4.8084 4.3547 -0.1589 0.9744
4.8575 4.4541 -0.1614 0.9740
4.8575 4.5098 -0.1624 0.9738
4.8575 4.6229 -0.1643 0.9735
4.8575 4.6805 -0.1652 0.9734
4.8575 4.7388 -0.1662 0.9732
4.8575 4.7978 -0.1672 0.9731
4.8575 4.8575 -0.1683 0.9729
4.8575 5.2320 -0.1749 0.9718
4.8575 5.2974 -0.1761 0.9717
4.8575 5.3636 -0.1773 0.9715
4.7775 5.4761 -0.1780 0.9713
4.7005 5.5244 -0.1777 0.9714
4.7523 5.7273 -0.1823 0.9707
4.7523 5.8736 -0.1851 0.9702
4.7523 5.9485 -0.1865 0.9700
4.7523 6.0245 -0.1880 0.9698
4.7523 6.1017 -0.1894 0.9695
4.7523 6.2599 -0.1925 0.9690
4.7523 6.4233 -0.1957 0.9685
4.7523 6.5923 -0.1991 0.9680
4.7523 6.7672 -0.2026 0.9675
4.7523 7.1362 -0.2100 0.9663
4.7523 7.2328 -0.2120 0.9660
4.7523 7.3312 -0.2140 0.9656
4.7523 7.4314 -0.2161 0.9653
4.7523 7.6380 -0.2203 0.9646
4.7523 7.7443 -0.2226 0.9643
4.7523 7.8529 -0.2248 0.9639
4.7523 7.9636 -0.2272 0.9636
4.7523 8.3102 -0.2345 0.9624
4.7523 8.4307 -0.2371 0.9620
4.7523 8.5540 -0.2397 0.9616
4.7523 8.9408 -0.2480 0.9603
4.7523 9.0758 -0.2509 0.9598
4.8574 9.7108 -0.2660 0.9575
4.8084 9.7631 -0.2666 0.9574
4.8574 10.1785 -0.2763 0.9559
4.8574 10.3425 -0.2799 0.9553
4.8574 10.8618 -0.2915 0.9535
4.7076 10.8859 -0.2905 0.9537
4.7522 11.5741 -0.3065 0.9512
4.7522 12.6760 -0.3316 0.9473
4.7523 13.9761 -0.3616 0.9426
4.7523 14.2649 -0.3683 0.9416
4.7523 14.5646 -0.3753 0.9405
4.7239 14.7871 -0.3802 0.9398
4.6976 15.0248 -0.3856 0.9390
4.5958 15.0248 -0.3849 0.9391
4.4944 15.0248 -0.3841 0.9392
4.3933 15.0248 -0.3834 0.9393
3.7944 15.0248 -0.3796 0.9399
3.6957 15.0247 -0.3790 0.9400
3.5973 15.0248 -0.3784 0.9401
3.4871 14.9729 -0.3766 0.9403
3.2924 14.9730 -0.3755 0.9405
2.8102 14.9730 -0.3732 0.9409
2.6189 14.9730 -0.3723 0.9410
2.5236 14.9730 -0.3719 0.9411
2.4285 14.9730 -0.3716 0.9411
2.2388 14.9730 -0.3708 0.9412
2.1442 14.9730 -0.3705 0.9413
1.9555 14.9730 -0.3699 0.9414
1.8614 14.9730 -0.3696 0.9414
1.5854 15.0247 -0.3701 0.9413
1.4916 15.0248 -0.3698 0.9414
0.7439 15.0248 -0.3685 0.9416
0.4647 15.0247 -0.3682 0.9416
0.3717 15.0247 -0.3681 0.9416
0.2788 15.0247 -0.3681 0.9416
-0.0929 15.0247 -0.3680 0.9417
-0.1858 15.0247 -0.3681 0.9417
-0.3718 15.0247 -0.3681 0.9416
-0.4647 15.0247 -0.3682 0.9416
-0.6508 15.0247 -0.3684 0.9416
-0.9304 15.0247 -0.3687 0.9415
-1.1171 15.0247 -0.3690 0.9415
-1.3041 15.0247 -0.3694 0.9414
-1.3978 15.0247 -0.3696 0.9414
-1.5854 15.0247 -0.3701 0.9413
-1.6794 15.0247 -0.3703 0.9413
-1.7736 15.0247 -0.3706 0.9413
-1.8643 14.9959 -0.3701 0.9413
-1.9555 14.9729 -0.3699 0.9414
-2.1442 14.9729 -0.3705 0.9413
-2.4285 14.9729 -0.3716 0.9411
-2.8102 14.9729 -0.3732 0.9409
-3.0988 14.9729 -0.3745 0.9407
-3.1955 14.9729 -0.3750 0.9406
-3.2925 14.9729 -0.3755 0.9405
-3.5849 14.9729 -0.3771 0.9403
-3.6864 14.9868 -0.3780 0.9401
-3.7848 14.9868 -0.3786 0.9400
-3.9826 14.9868 -0.3798 0.9398
-4.1818 14.9868 -0.3811 0.9396
-4.2776 14.9722 -0.3814 0.9396
-4.3671 14.9350 -0.3811 0.9396
-4.5683 14.9350 -0.3826 0.9394
-4.7712 14.9350 -0.3840 0.9392
-4.9755 14.9350 -0.3856 0.9390
-5.1816 14.9350 -0.3872 0.9387
-5.2853 14.9350 -0.3881 0.9386
-5.3895 14.9350 -0.3889 0.9384
-5.5992 14.9350 -0.3907 0.9382
-5.7048 14.9350 -0.3916 0.9380
-6.3712 14.9868 -0.3989 0.9369
-6.5913 14.9868 -0.4010 0.9366
-6.8137 14.9868 -0.4033 0.9363
-6.9259 14.9868 -0.4044 0.9361
-7.1521 14.9868 -0.4068 0.9357
-7.2662 14.9868 -0.4080 0.9355
-7.4918 14.9771 -0.4102 0.9352
-7.6781 14.8866 -0.4103 0.9352
-7.7950 14.8866 -0.4116 0.9350
-7.9127 14.8866 -0.4130 0.9348
-8.2705 14.8866 -0.4171 0.9341
-8.5131 14.8866 -0.4201 0.9337
-8.6358 14.8866 -0.4216 0.9335
-8.7592 14.8866 -0.4231 0.9332
-8.8836 14.8866 -0.4246 0.9330
-9.0090 14.8866 -0.4262 0.9327
-9.2624 14.8866 -0.4295 0.9323
-9.6500 14.8866 -0.4346 0.9315
-9.7813 14.8866 -0.4363 0.9312
-10.0471 14.8866 -0.4399 0.9307
-10.1817 14.8866 -0.4418 0.9304
-10.8721 14.8866 -0.4515 0.9289
-11.0139 14.8866 -0.4536 0.9286
-11.3015 14.8866 -0.4578 0.9279
-11.5945 14.8866 -0.4622 0.9273
-11.7431 14.8866 -0.4644 0.9269
-11.8932 14.8866 -0.4667 0.9266
-12.0447 14.8866 -0.4691 0.9262
-12.6137 14.8244 -0.4768 0.9251
-12.6137 14.2790 -0.4667 0.9266
-12.6137 14.1022 -0.4635 0.9271
-12.6137 13.9279 -0.4603 0.9276
-12.6137 13.4189 -0.4511 0.9290
-12.6137 12.9297 -0.4425 0.9303
-12.6137 12.3055 -0.4316 0.9319
-12.6137 11.8568 -0.4240 0.9331
-12.6137 11.7107 -0.4216 0.9334
-12.7139 11.3719 -0.4178 0.9340
-12.7139 10.6831 -0.4068 0.9357
-12.7139 10.4175 -0.4026 0.9363
-12.6621 10.1160 -0.3970 0.9372
-12.6621 9.9883 -0.3950 0.9375
-12.6621 9.8619 -0.3931 0.9378
-12.6621 9.7367 -0.3913 0.9381
-12.6621 9.6127 -0.3894 0.9384
-12.6621 9.4898 -0.3876 0.9386
-12.6621 9.3681 -0.3858 0.9389
-12.6621 9.2475 -0.3841 0.9392
-12.6621 9.1279 -0.3823 0.9395
-12.6621 9.0095 -0.3807 0.9397
-12.6621 8.6602 -0.3758 0.9405
-12.7138 8.3537 -0.3726 0.9409
-12.7138 8.1304 -0.3697 0.9414
-12.7138 8.0200 -0.3682 0.9416
-12.7138 7.8019 -0.3654 0.9421
-12.7138 7.5870 -0.3627 0.9425
-12.7138 7.3753 -0.3600 0.9429
-12.7138 7.1667 -0.3575 0.9433
-12.7138 7.0634 -0.3563 0.9435
-12.7138 6.7578 -0.3527 0.9440
-12.7138 6.5575 -0.3504 0.9444
-12.7138 6.3596 -0.3482 0.9447
-12.7138 6.2616 -0.3471 0.9449
-12.7138 5.9712 -0.3441 0.9453
-12.7138 5.7803 -0.3421 0.9457
-12.7138 5.6857 -0.3411 0.9458
-12.7138 5.5916 -0.3402 0.9459
-12.7138 5.4980 -0.3393 0.9461
-12.7138 5.4050 -0.3384 0.9462
-12.7138 5.2202 -0.3367 0.9465
-12.7138 5.1286 -0.3358 0.9466
-12.7138 4.9467 -0.3342 0.9469
-12.6620 4.8366 -0.3320 0.9472
-12.6620 4.7470 -0.3312 0.9473
-12.6834 4.6658 -0.3310 0.9474
-12.7117 4.5872 -0.3310 0.9474
-12.8190 4.2706 -0.3310 0.9474
-12.8190 3.9211 -0.3284 0.9478
-12.8190 3.8345 -0.3277 0.9479
-12.8190 3.6624 -0.3266 0.9481
-12.8190 3.4915 -0.3254 0.9482
-12.6620 3.1977 -0.3199 0.9491
-12.7138 3.0440 -0.3202 0.9490
-12.7138 2.8782 -0.3193 0.9492
-12.7138 2.7957 -0.3189 0.9492
-12.7138 2.4677 -0.3172 0.9495
-12.7138 2.3049 -0.3165 0.9496
-12.7138 2.1428 -0.3158 0.9497
-12.7138 2.0620 -0.3155 0.9498
-12.7138 1.9010 -0.3149 0.9499
-12.7138 1.6605 -0.3141 0.9500
-12.7138 1.5806 -0.3138 0.9500
-12.7138 1.4211 -0.3134 0.9501
-13.5051 1.3407 -0.3324 0.9471
-14.8493 1.2889 -0.3651 0.9421
-16.6400 1.3406 -0.4089 0.9354
-17.0082 1.2645 -0.4178 0.9340
-61.4327 3.0418 -1.5066 0.7818
-60.2695 1.8642 -1.4770 0.7856
-60.7118 1.1265 -1.4874 0.7843
-60.7194 0.7510 -1.4874 0.7843
-60.7271 0.3755 -1.4875 0.7843
-13.1008 0.0000 -0.4182 0.9489
-13.1004 -0.0810 -0.4182 0.9489
-12.7138 -0.3146 -0.4060 0.9504
-12.7138 -0.3933 -0.4061 0.9504
-12.7138 -0.4720 -0.4062 0.9504
-12.7138 -0.5507 -0.4063 0.9503
-12.7138 -1.0243 -0.4072 0.9502
-12.7138 -1.1035 -0.4074 0.9502
-12.7138 -1.3416 -0.4081 0.9501
-12.7138 -1.4211 -0.4084 0.9501
-12.7138 -1.7405 -0.4097 0.9499
-12.7138 -1.9010 -0.4104 0.9499
-12.6620 -2.0537 -0.4095 0.9500
-12.6620 -2.3765 -0.4113 0.9497
-12.6620 -2.5390 -0.4123 0.9496
-12.6620 -2.6205 -0.4128 0.9496
-12.6620 -2.7023 -0.4133 0.9495
-12.6620 -2.7843 -0.4139 0.9494
-12.6558 -3.3632 -0.4181 0.9489
-12.6347 -3.4413 -0.4181 0.9489
-12.6136 -3.5196 -0.4181 0.9489
-12.6136 -3.6883 -0.4196 0.9488
-12.6136 -4.0295 -0.4227 0.9484
-12.6136 -4.4638 -0.4272 0.9479
-12.6136 -4.5518 -0.4281 0.9477
-12.6136 -5.0882 -0.4342 0.9470
-12.6136 -5.1791 -0.4353 0.9469
-12.6136 -5.2705 -0.4364 0.9468
-12.6136 -5.3624 -0.4376 0.9466
-12.6136 -5.4547 -0.4387 0.9465
-12.6136 -5.5475 -0.4399 0.9463
-12.6136 -5.7348 -0.4424 0.9461
-12.6136 -5.8292 -0.4436 0.9459
-12.6136 -6.0196 -0.4462 0.9456
-12.6136 -6.2123 -0.4489 0.9453
-12.6136 -6.3095 -0.4503 0.9451
-12.6136 -6.5057 -0.4531 0.9448
-12.6136 -6.6048 -0.4546 0.9446
-12.6136 -6.8049 -0.4576 0.9443
-12.6136 -7.7404 -0.4725 0.9425
-12.6136 -7.8482 -0.4743 0.9423
-12.6136 -7.9568 -0.4761 0.9421
-12.7138 -8.1303 -0.4818 0.9414
-12.7138 -8.4667 -0.4877 0.9407
-12.7138 -8.6956 -0.4917 0.9402
-12.7138 -8.8115 -0.4938 0.9400
-12.7138 -8.9284 -0.4960 0.9397
-12.7138 -9.1652 -0.5004 0.9392
-12.7138 -9.2852 -0.5026 0.9389
-12.7138 -9.4064 -0.5049 0.9387
-12.7138 -9.5286 -0.5072 0.9384
-12.7138 -9.6520 -0.5096 0.9381
-12.7138 -10.4175 -0.5247 0.9363
-12.7138 -10.5496 -0.5274 0.9360
-12.7138 -10.6830 -0.5302 0.9357
-12.7138 -10.8179 -0.5329 0.9354
-14.2776 -12.3015 -0.6017 0.9274
-13.9255 -12.3015 -0.5932 0.9283
-13.7531 -12.3015 -0.5891 0.9288
-13.4154 -12.3015 -0.5811 0.9297
-12.9256 -12.3015 -0.5697 0.9311
-12.7138 -12.4031 -0.5670 0.9314
-12.7138 -12.5575 -0.5705 0.9310
-12.7138 -12.7138 -0.5740 0.9306
-12.7138 -12.8720 -0.5776 0.9302
-12.7138 -13.1945 -0.5850 0.9293
-12.7138 -13.6941 -0.5966 0.9279
-12.7138 -14.5729 -0.6174 0.9255
-12.7138 -14.7561 -0.6218 0.9250
-12.7138 -14.9420 -0.6263 0.9245
-12.7138 -15.3220 -0.6356 0.9234
-12.7138 -15.7135 -0.6453 0.9223
-12.7138 -16.3237 -0.6606 0.9205
-12.7138 -16.5336 -0.6659 0.9199
-12.7138 -16.7469 -0.6713 0.9193
-12.7138 -16.9637 -0.6768 0.9187
-12.7138 -17.1842 -0.6824 0.9180
-12.7138 -17.4083 -0.6882 0.9173
-12.7138 -17.6362 -0.6941 0.9167
-12.7138 -17.8681 -0.7001 0.9160
-12.7138 -18.1041 -0.7063 0.9153
-12.7138 -18.8378 -0.7256 0.9131
-12.7138 -19.0913 -0.7323 0.9123
-12.7138 -19.3496 -0.7392 0.9115
-10.8382 -17.4191 -0.6550 0.9212
-10.5416 -17.4191 -0.6500 0.9217
-10.3949 -17.4191 -0.6476 0.9220
-10.2494 -17.4191 -0.6452 0.9223
-10.1049 -17.4191 -0.6429 0.9226
-9.8190 -17.4191 -0.6384 0.9231
-9.6775 -17.4191 -0.6362 0.9233
-9.5370 -17.4191 -0.6340 0.9236
-9.1212 -17.4191 -0.6277 0.9243
-8.9843 -17.4191 -0.6257 0.9246
-8.8484 -17.4191 -0.6237 0.9248
-8.7133 -17.4192 -0.6218 0.9250
-8.3129 -17.4191 -0.6162 0.9257
-8.0499 -17.4191 -0.6126 0.9261
-7.9196 -17.4191 -0.6109 0.9263
-7.6610 -17.4191 -0.6075 0.9267
-7.5328 -17.4191 -0.6059 0.9269
-7.4053 -17.4191 -0.6043 0.9270
-7.1522 -17.4191 -0.6012 0.9274
-7.0266 -17.4191 -0.5997 0.9276
-6.9017 -17.4191 -0.5982 0.9278
-6.7774 -17.4191 -0.5967 0.9279
-6.5305 -17.4191 -0.5939 0.9283
-6.4079 -17.4191 -0.5925 0.9284
-6.2859 -17.4191 -0.5912 0.9286
-6.1644 -17.4191 -0.5899 0.9287
-5.9230 -17.4191 -0.5874 0.9290
-5.8031 -17.4191 -0.5862 0.9292
-5.6836 -17.4191 -0.5850 0.9293
-5.5647 -17.4191 -0.5838 0.9294
-4.9767 -17.4191 -0.5784 0.9301
-4.8604 -17.4191 -0.5774 0.9302
-4.7445 -17.4191 -0.5764 0.9303
-4.5138 -17.4191 -0.5745 0.9305
-4.1706 -17.4191 -0.5718 0.9308
-4.0568 -17.4191 -0.5710 0.9309
-3.9434 -17.4191 -0.5702 0.9310
-3.8304 -17.4191 -0.5694 0.9311
-3.7176 -17.4191 -0.5686 0.9312
-3.6051 -17.4191 -0.5679 0.9313
-3.4929 -17.4191 -0.5672 0.9314
-3.3810 -17.4191 -0.5665 0.9314
-3.1579 -17.4191 -0.5652 0.9316
-2.4945 -17.4191 -0.5618 0.9320
-2.3847 -17.4191 -0.5613 0.9321
-2.1655 -17.4191 -0.5604 0.9322
-2.0562 -17.4191 -0.5600 0.9322
-1.9471 -17.4191 -0.5596 0.9323
-1.7292 -17.4191 -0.5588 0.9323
-1.5119 -17.4191 -0.5582 0.9324
-1.4034 -17.4191 -0.5579 0.9325
-0.9705 -17.4191 -0.5570 0.9326
-0.8625 -17.4191 -0.5568 0.9326
-0.6466 -17.4191 -0.5565 0.9326
-0.4310 -17.4191 -0.5563 0.9326
-0.2155 -17.4191 -0.5562 0.9327
0.0000 -17.4191 -0.5561 0.9327
0.1077 -17.4191 -0.5561 0.9327
0.4310 -17.4191 -0.5563 0.9326
0.5388 -17.4191 -0.5564 0.9326
0.7546 -17.4191 -0.5566 0.9326
0.8625 -17.4191 -0.5568 0.9326
1.0786 -17.4191 -0.5572 0.9325
1.4034 -17.4191 -0.5579 0.9325
1.8381 -17.4191 -0.5592 0.9323
1.9471 -17.4191 -0.5596 0.9323
2.0562 -17.4191 -0.5600 0.9322
2.1655 -17.4191 -0.5604 0.9322
2.2750 -17.4191 -0.5608 0.9321
2.3847 -17.4191 -0.5613 0.9321
2.4945 -17.4191 -0.5618 0.9320
2.8252 -17.4191 -0.5634 0.9318
3.1579 -17.4191 -0.5652 0.9316
3.3810 -17.4191 -0.5665 0.9315
3.4929 -17.4191 -0.5672 0.9314
3.6051 -17.4191 -0.5679 0.9313
3.8304 -17.4191 -0.5694 0.9311
3.9434 -17.4191 -0.5702 0.9310
4.0568 -17.4191 -0.5710 0.9309
4.2846 -17.4191 -0.5727 0.9307
4.5138 -17.4191 -0.5745 0.9305
4.8524 -17.3905 -0.5764 0.9303
4.8524 -16.5949 -0.5520 0.9331
4.8524 -16.2218 -0.5406 0.9345
4.8524 -14.5655 -0.4901 0.9404
4.7522 -12.6759 -0.4322 0.9473
4.8524 -11.8180 -0.4079 0.9502
4.8006 -11.2923 -0.3917 0.9521
4.8006 -11.1011 -0.3861 0.9527
4.8006 -10.9153 -0.3807 0.9534
4.8006 -10.7347 -0.3754 0.9540
4.8006 -10.2215 -0.3605 0.9558
4.8006 -10.0594 -0.3558 0.9564
4.8006 -9.9014 -0.3513 0.9569
4.8006 -9.7473 -0.3469 0.9574
4.8524 -9.5526 -0.3421 0.9580
4.8524 -9.1291 -0.3301 0.9595
4.8524 -8.6083 -0.3155 0.9612
4.8524 -8.3647 -0.3087 0.9620
4.8524 -8.0182 -0.2992 0.9632
4.8524 -7.9074 -0.2962 0.9636
4.8524 -7.6923 -0.2904 0.9643
4.8524 -7.5879 -0.2875 0.9646
4.8524 -7.3851 -0.2821 0.9653
4.8524 -7.2865 -0.2795 0.9656
4.8524 -7.1897 -0.2769 0.9659
4.8524 -7.0014 -0.2720 0.9665
4.8524 -6.9097 -0.2696 0.9668
4.8524 -6.8196 -0.2672 0.9671
4.8524 -6.6441 -0.2627 0.9676
4.8524 -6.3917 -0.2562 0.9684
4.8524 -6.3103 -0.2541 0.9686
4.8524 -6.2302 -0.2521 0.9689
4.8524 -6.0737 -0.2482 0.9694
4.9492 -5.8166 -0.2438 0.9699
4.9575 -5.4740 -0.2358 0.9709
4.9085 -5.3529 -0.2319 0.9714
4.9381 -5.3188 -0.2317 0.9714
4.9575 -5.1450 -0.2281 0.9718
4.9575 -5.0817 -0.2267 0.9720
4.9575 -4.9575 -0.2238 0.9723
4.9575 -4.8966 -0.2225 0.9725
4.9575 -4.6601 -0.2172 0.9731
4.9575 -4.5459 -0.2147 0.9734
4.9575 -4.4898 -0.2135 0.9736
4.9575 -4.4343 -0.2123 0.9737
4.9575 -4.3794 -0.2112 0.9739
4.8524 -4.1288 -0.2034 0.9748
4.8524 -3.9760 -0.2003 0.9752
4.8524 -3.9261 -0.1993 0.9753
4.8524 -3.8767 -0.1983 0.9755
4.8524 -3.8278 -0.1973 0.9756
4.8524 -3.7793 -0.1964 0.9757
4.8524 -3.7313 -0.1954 0.9758
4.8524 -3.6838 -0.1945 0.9759
4.8524 -3.5901 -0.1927 0.9761
4.8524 -3.5438 -0.1918 0.9762
4.8524 -3.4980 -0.1910 0.9763
4.8524 -3.4076 -0.1893 0.9765
4.8524 -3.2314 -0.1861 0.9769
4.8524 -3.1455 -0.1846 0.9771
4.8524 -3.0609 -0.1832 0.9773
4.8524 -2.8551 -0.1797 0.9777
4.8524 -2.7749 -0.1785 0.9779
4.8524 -2.7352 -0.1778 0.9780
4.8524 -2.6958 -0.1772 0.9780
4.8524 -2.6567 -0.1766 0.9781
4.8524 -2.6178 -0.1760 0.9782
4.8524 -2.5027 -0.1743 0.9784
4.8524 -2.3898 -0.1727 0.9786
4.9473 -2.3236 -0.1745 0.9784
5.0279 -2.3236 -0.1768 0.9781
5.1107 -2.3236 -0.1792 0.9778
5.1957 -2.3236 -0.1817 0.9775
5.3731 -2.3236 -0.1869 0.9768
5.5609 -2.3236 -0.1924 0.9762
5.7430 -2.3166 -0.1977 0.9755
6.2422 -2.4287 -0.2138 0.9736
7.1426 -2.4287 -0.2409 0.9703
7.2903 -2.4287 -0.2453 0.9697
7.4080 -2.4171 -0.2488 0.9693
7.7677 -2.3236 -0.2588 0.9681
8.3273 -2.3235 -0.2760 0.9660
9.4463 -2.3235 -0.3106 0.9618
9.5181 -2.2789 -0.3125 0.9616
10.1866 -2.3724 -0.3339 0.9590
10.9766 -2.2717 -0.3579 0.9561
11.5875 -2.3235 -0.3773 0.9538
12.7219 -2.3877 -0.4132 0.9495
48.2680 -8.7505 -1.5661 0.8217
48.2436 -8.4383 -1.5636 0.8220
40.8775 -5.3388 -1.3161 0.8479
40.8703 -4.5684 -1.3129 0.8482
40.8686 -4.3125 -1.3120 0.8483
40.8560 -3.8009 -1.3100 0.8486
40.8519 -3.5458 -1.3091 0.8487
40.8482 -3.2911 -1.3083 0.8487
40.8471 -3.0369 -1.3077 0.8488
40.8474 -2.7830 -1.3071 0.8489
40.8408 -2.0222 -1.3055 0.8490
40.8671 -1.7702 -1.3059 0.8490
41.9053 -1.5556 -1.3388 0.8455
49.7158 -1.5377 -1.5880 0.8195
49.7158 -0.9225 -1.5875 0.8196
48.2680 -0.5970 -1.5411 0.8243
48.2680 0.0000 -1.5410 0.8243
49.7158 0.3075 -1.5872 0.8196
49.7158 0.6149 -1.5873 0.8196
41.6873 2.0641 -1.3325 0.8462
41.6830 2.8399 -1.3338 0.8460
40.8558 3.0375 -1.3079 0.8488
47.6031 4.4285 -1.5263 0.8259
49.7157 4.9354 -1.5950 0.8188
49.7157 5.2461 -1.5960 0.8187
49.7194 5.5576 -1.5972 0.8186
49.7157 6.4931 -1.6007 0.8182
12.6220 2.0472 -0.4082 0.9501
11.7657 1.9830 -0.3809 0.9534
10.6527 1.9312 -0.3456 0.9576
10.2897 1.9312 -0.3342 0.9590
10.2780 1.9949 -0.3343 0.9590
9.4181 1.9492 -0.3070 0.9622
9.0182 1.9830 -0.2948 0.9637
8.5146 1.9830 -0.2791 0.9656
8.2825 1.9830 -0.2719 0.9665
8.0620 1.9830 -0.2651 0.9673
7.8523 1.9830 -0.2586 0.9681
7.6526 1.9830 -0.2524 0.9689
7.3080 1.9421 -0.2414 0.9702
7.3080 2.0391 -0.2422 0.9701
7.3080 2.0879 -0.2426 0.9700
7.1413 2.0882 -0.2375 0.9707
6.8102 2.0371 -0.2269 0.9720
6.6788 2.0882 -0.2234 0.9724
6.5366 2.0882 -0.2191 0.9729
6.2156 2.0280 -0.2087 0.9742
5.6796 1.9312 -0.1915 0.9763
5.4953 1.9830 -0.1865 0.9769
5.1915 1.9830 -0.1774 0.9780
5.0049 1.9830 -0.1719 0.9787
4.8296 1.9830 -0.1667 0.9793
4.7524 2.0203 -0.1649 0.9795
4.7523 2.1253 -0.1662 0.9794
4.7523 2.1962 -0.1671 0.9793
4.7524 2.2320 -0.1676 0.9792
4.7524 2.3041 -0.1686 0.9791
4.7523 2.3405 -0.1691 0.9790
4.7523 2.4885 -0.1713 0.9788
4.7523 2.6403 -0.1736 0.9785
4.7523 2.6788 -0.1742 0.9784
4.7523 2.7569 -0.1754 0.9783
4.7524 2.9569 -0.1787 0.9778
4.7523 2.9978 -0.1794 0.9778
4.7523 3.0391 -0.1801 0.9777
4.7523 3.0806 -0.1808 0.9776
4.7523 3.1648 -0.1823 0.9774
4.7523 3.2074 -0.1830 0.9773
4.7523 3.2504 -0.1838 0.9772
4.7523 3.2937 -0.1846 0.9771
4.7523 3.4259 -0.1870 0.9768
4.7523 3.6544 -0.1914 0.9763
4.7005 3.8516 -0.1940 0.9760
4.8575 4.0306 -0.2015 0.9751
4.8575 4.0816 -0.2026 0.9749
4.8575 4.1331 -0.2036 0.9748
4.8575 4.1852 -0.2047 0.9747
4.8084 4.3547 -0.2071 0.9744
4.8575 4.6229 -0.2141 0.9735
4.8575 4.6805 -0.2154 0.9734
4.8575 4.7978 -0.2180 0.9730
4.8575 4.8575 -0.2193 0.9729
4.8575 4.9179 -0.2207 0.9727
4.8566 4.9783 -0.2220 0.9726
4.8575 5.1039 -0.2249 0.9722
4.8575 5.1676 -0.2264 0.9720
4.8575 5.2974 -0.2295 0.9716
4.8575 5.3636 -0.2310 0.9715
4.8374 5.4761 -0.2333 0.9712
4.7182 5.4761 -0.2308 0.9715
4.7523 5.6557 -0.2358 0.9709
4.7523 5.7273 -0.2376 0.9707
4.7523 5.7999 -0.2394 0.9704
4.7523 5.9485 -0.2431 0.9700
4.7523 6.0245 -0.2450 0.9698
4.7523 6.1017 -0.2469 0.9695
4.7523 6.1802 -0.2489 0.9693
4.7523 6.2599 -0.2509 0.9690
4.7523 6.3409 -0.2530 0.9688
4.7523 6.4233 -0.2551 0.9685
4.7523 6.5071 -0.2572 0.9683
4.7523 6.5923 -0.2594 0.9680
4.7523 6.7672 -0.2640 0.9674
4.7523 6.8570 -0.2663 0.9672
4.7523 7.1362 -0.2737 0.9663
4.7523 7.2328 -0.2763 0.9660
4.7523 7.3312 -0.2789 0.9656
4.7523 7.4314 -0.2816 0.9653
4.7523 7.8528 -0.2930 0.9639
4.7523 8.0767 -0.2992 0.9632
4.7523 8.1922 -0.3024 0.9628
4.7523 8.8089 -0.3195 0.9607
4.7005 9.2535 -0.3313 0.9593
4.7005 9.5441 -0.3396 0.9583
4.7005 10.3387 -0.3626 0.9556
4.7005 10.5108 -0.3676 0.9550
4.7005 10.6877 -0.3727 0.9543
4.7522 11.3734 -0.3935 0.9519
4.7522 12.2142 -0.4184 0.9489
4.7146 12.3429 -0.4218 0.9485
4.6521 12.6462 -0.4302 0.9475
4.6521 13.1457 -0.4452 0.9457
4.6521 13.9642 -0.4699 0.9428
4.6521 14.2576 -0.4788 0.9417
4.6976 15.0248 -0.5026 0.9389
4.4944 15.0248 -0.5007 0.9392
4.3933 15.0248 -0.4998 0.9393
3.7944 15.0248 -0.4947 0.9399
3.6957 15.0248 -0.4940 0.9400
3.5973 15.0248 -0.4932 0.9400
3.4014 15.0248 -0.4918 0.9402
3.1096 15.0248 -0.4898 0.9404
3.0128 15.0248 -0.4892 0.9405
2.8199 15.0248 -0.4880 0.9407
2.6280 15.0248 -0.4870 0.9408
2.5323 15.0248 -0.4864 0.9408
2.1372 14.9246 -0.4813 0.9414
2.0432 14.9246 -0.4809 0.9415
1.7618 14.9246 -0.4798 0.9416
1.6683 14.9246 -0.4794 0.9417
1.4816 14.9246 -0.4788 0.9417
1.3884 14.9246 -0.4785 0.9418
1.1096 14.9246 -0.4778 0.9419
1.0168 14.9246 -0.4776 0.9419
0.8315 14.9246 -0.4772 0.9419
0.7390 14.9246 -0.4771 0.9420
0.6465 14.9246 -0.4769 0.9420
0.5540 14.9246 -0.4768 0.9420
0.3693 14.9246 -0.4766 0.9420
0.2769 14.9246 -0.4766 0.9420
0.0923 14.9246 -0.4765 0.9420
-0.0000 14.9246 -0.4765 0.9420
-0.0923 14.9246 -0.4765 0.9420
-0.1846 14.9246 -0.4765 0.9420
-0.3693 14.9246 -0.4766 0.9420
-0.6465 14.9246 -0.4769 0.9420
-0.8315 14.9246 -0.4772 0.9419
-1.0169 14.9246 -0.4776 0.9419
-1.1096 14.9246 -0.4778 0.9419
-1.2024 14.9246 -0.4780 0.9418
-1.2954 14.9246 -0.4783 0.9418
-1.3884 14.9246 -0.4785 0.9418
-1.5749 14.9246 -0.4791 0.9417
-1.6683 14.9246 -0.4794 0.9417
-1.7618 14.9246 -0.4798 0.9416
-1.8554 14.9246 -0.4801 0.9416
-1.9492 14.9246 -0.4805 0.9415
-2.0431 14.9246 -0.4809 0.9415
-2.1516 15.0247 -0.4846 0.9411
-2.2465 15.0247 -0.4850 0.9410
-2.3416 15.0247 -0.4855 0.9410
-2.4369 15.0247 -0.4859 0.9409
-2.8128 14.9868 -0.4868 0.9408
-3.0052 14.9868 -0.4880 0.9407
-3.1017 14.9868 -0.4886 0.9406
-3.1985 14.9868 -0.4892 0.9405
-3.2955 14.9868 -0.4899 0.9404
-3.3928 14.9868 -0.4906 0.9404
-3.4904 14.9868 -0.4913 0.9403
-3.5882 14.9868 -0.4920 0.9402
-3.6864 14.9868 -0.4927 0.9401
-3.7848 14.9868 -0.4935 0.9400
-3.8836 14.9868 -0.4943 0.9399
-3.9826 14.9868 -0.4951 0.9398
