ply
format ascii 1.0
element vertex 1550
property float32 x
property float32 y
property float32 z
property float32 I
end_header
4.1634 2.0826 -0.4611 0.9815
4.1634 2.1149 -0.4626 0.9814
4.1635 2.2130 -0.4671 0.9812
4.1635 2.2795 -0.4702 0.9811
4.1635 2.3131 -0.4718 0.9810
4.1635 2.3469 -0.4734 0.9810
4.1635 2.4153 -0.4768 0.9808
4.1635 2.4846 -0.4803 0.9807
4.1636 2.5550 -0.4839 0.9806
4.1636 2.5906 -0.4857 0.9805
4.1636 2.6264 -0.4876 0.9804
4.1636 2.7357 -0.4935 0.9802
4.1636 2.7728 -0.4955 0.9801
4.1636 2.8101 -0.4976 0.9800
4.1637 2.8477 -0.4997 0.9799
4.2639 2.9552 -0.5139 0.9794
4.2639 3.0339 -0.5184 0.9792
4.2639 3.0738 -0.5207 0.9791
4.2639 3.1957 -0.5278 0.9788
4.2640 3.2371 -0.5303 0.9787
4.2640 3.3636 -0.5380 0.9784
4.2640 3.4066 -0.5406 0.9783
4.2641 3.5830 -0.5517 0.9779
4.2641 3.8141 -0.5667 0.9773
4.2642 3.9101 -0.5731 0.9770
4.2642 3.9589 -0.5764 0.9769
4.2642 4.0583 -0.5831 0.9766
4.2642 4.1089 -0.5866 0.9765
4.2643 4.2119 -0.5937 0.9762
4.2643 4.2643 -0.5974 0.9761
4.2643 4.4255 -0.6088 0.9756
4.2644 4.5932 -0.6208 0.9751
4.2645 4.9495 -0.6472 0.9741
4.2645 5.0119 -0.6519 0.9739
4.2645 5.1394 -0.6615 0.9735
4.2646 5.2707 -0.6716 0.9731
4.2646 5.3379 -0.6768 0.9729
4.2646 5.4062 -0.6821 0.9727
4.2646 5.4755 -0.6875 0.9725
4.2646 5.6175 -0.6986 0.9720
4.2647 5.6903 -0.7044 0.9718
4.2647 5.8394 -0.7163 0.9714
4.2647 5.9938 -0.7287 0.9709
4.2648 6.1535 -0.7416 0.9704
4.2648 6.2356 -0.7483 0.9701
4.2648 6.3191 -0.7552 0.9698
4.2649 6.4042 -0.7622 0.9695
4.2649 6.4909 -0.7693 0.9693
4.2649 6.5792 -0.7767 0.9690
4.2649 6.6693 -0.7842 0.9687
4.2649 6.7611 -0.7919 0.9684
4.2650 6.8547 -0.7997 0.9681
4.2650 6.9502 -0.8078 0.9678
4.2651 7.3523 -0.8420 0.9664
4.2651 7.5665 -0.8604 0.9657
4.2652 7.9060 -0.8899 0.9645
4.2653 8.0244 -0.9002 0.9641
4.2653 8.1456 -0.9108 0.9637
4.2653 8.2697 -0.9217 0.9633
4.2653 8.3969 -0.9329 0.9629
4.2654 8.5271 -0.9445 0.9624
4.2654 8.7976 -0.9685 0.9615
4.2655 8.9380 -0.9810 0.9610
4.2656 9.6989 -1.0496 0.9583
4.2647 10.0317 -1.0798 0.9571
4.2659 10.5751 -1.1296 0.9552
4.2659 10.7667 -1.1472 0.9545
4.2659 10.9643 -1.1654 0.9538
4.2661 11.5968 -1.2240 0.9515
4.2662 12.0552 -1.2667 0.9499
4.2663 12.2967 -1.2893 0.9490
4.2663 12.5469 -1.3127 0.9481
4.2664 13.0756 -1.3624 0.9462
4.2665 13.3554 -1.3888 0.9452
4.2666 13.9486 -1.4449 0.9431
4.2668 14.5919 -1.5060 0.9407
4.2241 14.7849 -1.5232 0.9401
4.0917 15.0226 -1.5423 0.9393
3.6952 15.0228 -1.5325 0.9397
3.5969 15.0228 -1.5302 0.9398
3.3035 15.0230 -1.5237 0.9400
3.1092 15.0231 -1.5197 0.9402
3.0021 14.9713 -1.5125 0.9405
2.7427 15.1284 -1.5230 0.9401
2.6461 15.1285 -1.5213 0.9401
2.4537 15.1285 -1.5182 0.9403
2.2621 15.1287 -1.5153 0.9404
2.1665 15.1287 -1.5139 0.9404
1.9759 15.1288 -1.5114 0.9405
1.8747 15.0797 -1.5053 0.9407
1.6911 15.1289 -1.5080 0.9406
1.5964 15.1290 -1.5070 0.9407
1.5019 15.1290 -1.5060 0.9407
1.3929 14.9721 -1.4895 0.9413
1.3040 15.0239 -1.4938 0.9412
1.2105 15.0240 -1.4931 0.9412
0.9303 15.0241 -1.4911 0.9413
0.8371 15.0242 -1.4906 0.9413
0.7439 15.0242 -1.4901 0.9413
0.4647 15.0244 -1.4890 0.9414
0.3718 15.0244 -1.4887 0.9414
0.2788 15.0245 -1.4885 0.9414
0.0929 15.0246 -1.4883 0.9414
-0.1858 15.0247 -1.4884 0.9414
-0.3717 15.0248 -1.4888 0.9414
-0.6508 15.0249 -1.4897 0.9413
-0.7439 15.0250 -1.4902 0.9413
-0.9304 15.0251 -1.4912 0.9413
-1.1171 15.0252 -1.4925 0.9412
-1.3978 15.0253 -1.4948 0.9411
-1.5855 15.0254 -1.4966 0.9411
-1.6795 15.0255 -1.4977 0.9410
-1.8679 15.0255 -1.4999 0.9410
-1.9624 15.0256 -1.5010 0.9409
-2.2466 15.0258 -1.5050 0.9408
-2.3417 15.0258 -1.5064 0.9407
-2.9273 15.0821 -1.5219 0.9401
-3.1020 14.9882 -1.5162 0.9403
-3.1988 14.9883 -1.5181 0.9403
-3.2958 14.9884 -1.5202 0.9402
-3.4907 14.9884 -1.5245 0.9400
-3.5886 14.9885 -1.5267 0.9399
-3.7852 14.9886 -1.5314 0.9398
-3.8840 14.9887 -1.5338 0.9397
-3.9831 14.9887 -1.5363 0.9396
-4.0788 14.9749 -1.5374 0.9395
-4.4836 14.9889 -1.5498 0.9390
-4.5848 14.9890 -1.5527 0.9389
-4.6864 14.9890 -1.5557 0.9388
-4.7718 14.9373 -1.5533 0.9389
-5.0062 15.0271 -1.5690 0.9383
-5.1097 15.0272 -1.5723 0.9382
-5.2136 15.0272 -1.5756 0.9381
-5.5280 15.0274 -1.5861 0.9377
-5.9592 15.0405 -1.6026 0.9370
-6.0666 15.0392 -1.6064 0.9369
-6.1979 15.0949 -1.6164 0.9365
-6.5927 14.9900 -1.6221 0.9363
-6.8152 14.9901 -1.6311 0.9360
-6.9274 14.9902 -1.6358 0.9358
-7.0403 14.9902 -1.6405 0.9356
-7.1537 14.9903 -1.6453 0.9354
-7.2679 14.9903 -1.6502 0.9352
-7.6147 14.9905 -1.6655 0.9346
-7.8495 14.9906 -1.6762 0.9342
-7.9680 14.9907 -1.6817 0.9340
-8.0873 14.9907 -1.6873 0.9338
-8.2075 14.9908 -1.6929 0.9336
-8.3284 14.9908 -1.6987 0.9334
-8.9460 14.9911 -1.7293 0.9322
-9.0722 14.9912 -1.7357 0.9320
-9.1994 14.9913 -1.7423 0.9317
-9.7180 14.9915 -1.7697 0.9307
-9.8503 14.9916 -1.7769 0.9304
-9.9836 14.9917 -1.7842 0.9302
-10.2181 14.9400 -1.7930 0.9298
-10.7101 15.0522 -1.8300 0.9284
-11.1698 15.0974 -1.8603 0.9273
-11.3150 15.0975 -1.8689 0.9270
-11.4616 15.0975 -1.8777 0.9266
-11.5758 15.0538 -1.8811 0.9265
-11.7262 15.0557 -1.8904 0.9262
-11.8391 15.0083 -1.8936 0.9260
-11.9779 14.9926 -1.9009 0.9258
-12.1306 14.9927 -1.9104 0.9254
-12.2849 14.9928 -1.9200 0.9250
-12.4407 14.9929 -1.9299 0.9247
-12.5981 14.9929 -1.9399 0.9243
-13.2447 14.9933 -1.9817 0.9227
-13.3059 14.8762 -1.9771 0.9229
-13.3060 14.6923 -1.9635 0.9234
-13.3060 14.5110 -1.9503 0.9239
-13.1775 14.1936 -1.9185 0.9251
-13.2010 14.0437 -1.9093 0.9255
-13.2011 13.8709 -1.8968 0.9259
-13.2011 13.7003 -1.8846 0.9264
-13.2012 13.5318 -1.8726 0.9268
-13.2012 13.3655 -1.8609 0.9273
-13.2013 13.2013 -1.8494 0.9277
-13.2014 12.7205 -1.8160 0.9290
-13.2014 12.5640 -1.8053 0.9294
-13.2016 12.1054 -1.7743 0.9305
-13.2017 11.8083 -1.7545 0.9313
-13.2018 11.3746 -1.7262 0.9324
-13.2020 10.8175 -1.6907 0.9337
-13.2020 10.6818 -1.6822 0.9340
-13.2021 10.4143 -1.6657 0.9346
-13.1604 10.2501 -1.6524 0.9351
-13.3074 10.1026 -1.6550 0.9350
-13.3074 9.9735 -1.6473 0.9353
-13.3075 9.8456 -1.6398 0.9356
-13.3075 9.5933 -1.6250 0.9362
-13.2524 9.0640 -1.5904 0.9375
-13.2510 8.9432 -1.5836 0.9378
-13.2495 8.8235 -1.5769 0.9380
-13.1509 8.6408 -1.5587 0.9387
-13.2027 8.4430 -1.5524 0.9390
-13.2028 8.3285 -1.5463 0.9392
-13.2028 8.2148 -1.5403 0.9394
-13.2030 7.7686 -1.5175 0.9403
-13.2030 7.6591 -1.5120 0.9405
-13.2031 7.5504 -1.5066 0.9407
-13.2031 7.3352 -1.4962 0.9411
-13.2032 7.2288 -1.4911 0.9413
-13.2032 7.1230 -1.4861 0.9415
-13.2033 6.8099 -1.4716 0.9420
-13.2034 6.7069 -1.4670 0.9422
-13.2034 6.6045 -1.4624 0.9424
-13.2034 6.5028 -1.4579 0.9426
-13.2035 6.4016 -1.4535 0.9427
-13.2036 6.0030 -1.4368 0.9434
-13.2037 5.8071 -1.4288 0.9437
-13.2038 5.6133 -1.4212 0.9440
-13.2039 5.4214 -1.4139 0.9442
-13.2039 5.3263 -1.4104 0.9444
-13.2039 5.2316 -1.4069 0.9445
-13.2040 5.1374 -1.4035 0.9446
-13.1576 4.8403 -1.3888 0.9452
-13.3093 4.7100 -1.3985 0.9448
-13.3094 4.5256 -1.3925 0.9451
-13.3094 4.4340 -1.3896 0.9452
-13.3096 4.0712 -1.3787 0.9456
-13.3096 3.9813 -1.3761 0.9457
-13.3017 3.7115 -1.3680 0.9460
-13.3098 3.5370 -1.3642 0.9461
-13.1529 3.2353 -1.3417 0.9470
-13.2048 3.1616 -1.3450 0.9469
-13.2048 3.0754 -1.3430 0.9470
-13.2049 2.9894 -1.3411 0.9470
-13.2049 2.8182 -1.3375 0.9472
-13.2050 2.7329 -1.3358 0.9472
-13.2051 2.5630 -1.3325 0.9474
-13.2051 2.4784 -1.3309 0.9474
-13.2052 2.3097 -1.3279 0.9475
-13.2052 2.2257 -1.3265 0.9476
-13.2052 2.1418 -1.3252 0.9476
-13.2053 2.0580 -1.3239 0.9477
-13.2054 1.8078 -1.3203 0.9478
-13.2054 1.7247 -1.3192 0.9479
-13.2055 1.5588 -1.3172 0.9480
-13.5729 1.3474 -1.3511 0.9467
-14.0965 1.3114 -1.4024 0.9447
-16.7433 1.3490 -1.6639 0.9347
-19.5383 1.3312 -1.9399 0.9243
-23.4599 1.4527 -2.3283 0.9098
-23.4680 1.3075 -2.3283 0.9098
-23.4873 0.8719 -2.3282 0.9099
-23.4920 0.7266 -2.3282 0.9099
-23.4958 0.5813 -2.3282 0.9099
-21.8898 0.0000 -2.3326 0.9157
-13.3597 -0.0826 -1.4237 0.9477
-13.2066 -0.1633 -1.4074 0.9483
-13.2067 -0.2450 -1.4076 0.9483
-13.2068 -0.4085 -1.4080 0.9482
-13.2068 -0.5721 -1.4087 0.9482
-13.2069 -0.6539 -1.4091 0.9482
-13.2070 -0.8998 -1.4106 0.9481
-13.2071 -0.9819 -1.4112 0.9481
-13.2071 -1.0641 -1.4119 0.9481
-13.2072 -1.2287 -1.4135 0.9480
-13.2072 -1.3111 -1.4143 0.9480
-13.2073 -1.3936 -1.4152 0.9480
-13.2074 -1.6419 -1.4182 0.9479
-13.2075 -1.7249 -1.4194 0.9478
-13.3129 -2.1592 -1.4372 0.9472
-13.2639 -2.4894 -1.4381 0.9472
-13.3133 -2.8413 -1.4506 0.9467
-13.3133 -2.9275 -1.4526 0.9466
-13.2642 -3.0892 -1.4513 0.9467
-13.3135 -3.1876 -1.4588 0.9464
-13.3135 -3.2748 -1.4610 0.9463
-13.3135 -3.3622 -1.4632 0.9463
-13.3137 -3.5380 -1.4680 0.9461
-13.1567 -3.5835 -1.4531 0.9466
-13.2087 -3.8623 -1.4665 0.9461
-13.2087 -3.9511 -1.4692 0.9460
-13.2088 -4.1298 -1.4747 0.9459
-13.2089 -4.2197 -1.4776 0.9457
-13.2090 -4.4005 -1.4836 0.9455
-13.2091 -4.5828 -1.4899 0.9453
-13.2093 -4.8592 -1.4998 0.9450
-13.2093 -4.9522 -1.5033 0.9448
-13.2096 -5.3285 -1.5178 0.9443
-13.2097 -5.5195 -1.5256 0.9440
-13.2097 -5.6158 -1.5296 0.9439
-13.2098 -5.7125 -1.5336 0.9437
-13.2099 -5.9075 -1.5420 0.9435
-13.2100 -6.1048 -1.5507 0.9431
-13.2101 -6.2042 -1.5552 0.9430
-13.2102 -6.4049 -1.5644 0.9427
-13.2103 -6.5061 -1.5692 0.9425
-13.2104 -6.6080 -1.5740 0.9423
-13.2104 -6.7105 -1.5789 0.9421
-13.2105 -6.8136 -1.5839 0.9420
-13.2105 -6.9174 -1.5890 0.9418
-13.2107 -7.1270 -1.5995 0.9414
-13.1767 -7.3206 -1.6063 0.9412
-13.3161 -7.5061 -1.6289 0.9404
-13.3162 -7.6151 -1.6346 0.9402
-13.3163 -7.7248 -1.6405 0.9400
-13.3163 -7.8353 -1.6464 0.9397
-13.3166 -8.1717 -1.6649 0.9391
-13.3166 -8.2856 -1.6713 0.9389
-13.2727 -8.4878 -1.6788 0.9386
-13.3170 -8.7500 -1.6980 0.9379
-13.1601 -9.0009 -1.6990 0.9379
-13.2121 -9.1568 -1.7130 0.9374
-13.2121 -9.2783 -1.7204 0.9371
-13.2122 -9.4009 -1.7279 0.9369
-13.2123 -9.5246 -1.7356 0.9366
-13.2124 -9.6494 -1.7434 0.9363
-13.2127 -10.0307 -1.7677 0.9354
-13.2127 -10.1601 -1.7761 0.9352
-13.2128 -10.2908 -1.7846 0.9348
-13.2130 -10.5561 -1.8022 0.9342
-13.2131 -10.6907 -1.8112 0.9339
-13.2132 -10.8267 -1.8203 0.9336
-14.9429 -12.3993 -2.0691 0.9249
-14.0923 -12.2945 -1.9929 0.9275
-13.7455 -12.2947 -1.9652 0.9285
-13.5757 -12.2948 -1.9517 0.9290
-13.2430 -12.2950 -1.9256 0.9299
-13.2145 -12.5763 -1.9439 0.9292
-13.2147 -12.8918 -1.9673 0.9284
-13.2148 -13.0524 -1.9793 0.9280
-13.2150 -13.3795 -2.0039 0.9271
-13.2152 -13.5462 -2.0166 0.9267
-13.2154 -13.8860 -2.0427 0.9258
-13.1638 -14.1788 -2.0617 0.9251
-13.3210 -14.5273 -2.1003 0.9238
-13.2760 -14.6592 -2.1075 0.9235
-13.3216 -15.2696 -2.1593 0.9217
-13.1900 -15.6973 -2.1848 0.9208
-13.2174 -16.5441 -2.2565 0.9183
-13.2177 -16.9707 -2.2922 0.9171
-13.2178 -17.1891 -2.3106 0.9165
-13.2180 -17.4111 -2.3294 0.9158
-12.7096 -18.0983 -2.3566 0.9149
-12.3765 -18.3381 -2.3575 0.9148
-10.6861 -17.4139 -2.1772 0.9211
-10.2464 -17.4141 -2.1531 0.9219
-9.9586 -17.4143 -2.1377 0.9225
-9.6749 -17.4145 -2.1229 0.9230
-9.3950 -17.4146 -2.1085 0.9235
-9.1188 -17.4147 -2.0947 0.9240
-8.8462 -17.4149 -2.0814 0.9244
-8.7112 -17.4149 -2.0750 0.9247
-8.5769 -17.4150 -2.0686 0.9249
-8.4436 -17.4150 -2.0624 0.9251
-8.0481 -17.4152 -2.0444 0.9257
-7.6594 -17.4154 -2.0274 0.9263
-7.5312 -17.4155 -2.0219 0.9265
-7.2769 -17.4156 -2.0113 0.9269
-7.1508 -17.4157 -2.0062 0.9271
-7.0253 -17.4158 -2.0011 0.9272
-6.9004 -17.4158 -1.9962 0.9274
-6.7761 -17.4159 -1.9914 0.9276
-6.6524 -17.4160 -1.9866 0.9277
-6.1633 -17.4162 -1.9687 0.9284
-5.9220 -17.4163 -1.9603 0.9287
-5.6828 -17.4164 -1.9522 0.9290
-5.5638 -17.4165 -1.9483 0.9291
-5.0927 -17.4167 -1.9337 0.9296
-4.9760 -17.4168 -1.9302 0.9297
-4.5133 -17.4170 -1.9173 0.9302
-3.8300 -17.4173 -1.9004 0.9308
-3.7172 -17.4174 -1.8978 0.9309
-3.6047 -17.4175 -1.8954 0.9310
-3.2690 -17.4176 -1.8884 0.9312
-3.0465 -17.4178 -1.8842 0.9313
-2.9356 -17.4178 -1.8822 0.9314
-2.8250 -17.4179 -1.8803 0.9315
-2.3845 -17.4181 -1.8734 0.9317
-2.2748 -17.4181 -1.8719 0.9318
-2.1654 -17.4182 -1.8704 0.9318
-2.0561 -17.4182 -1.8690 0.9319
-1.9470 -17.4183 -1.8677 0.9319
-1.8380 -17.4184 -1.8664 0.9320
-1.6204 -17.4185 -1.8641 0.9320
-1.5118 -17.4185 -1.8631 0.9321
-1.4034 -17.4186 -1.8622 0.9321
-1.2950 -17.4186 -1.8613 0.9321
-0.8625 -17.4188 -1.8584 0.9322
-0.6466 -17.4189 -1.8575 0.9323
-0.5388 -17.4190 -1.8571 0.9323
-0.4310 -17.4190 -1.8568 0.9323
0.0000 -17.4193 -1.8562 0.9323
0.2155 -17.4194 -1.8564 0.9323
0.3232 -17.4194 -1.8566 0.9323
0.4310 -17.4195 -1.8568 0.9323
0.5388 -17.4195 -1.8571 0.9323
0.7546 -17.4196 -1.8580 0.9323
0.8626 -17.4197 -1.8585 0.9322
1.0787 -17.4198 -1.8598 0.9322
1.1869 -17.4199 -1.8606 0.9322
1.2951 -17.4199 -1.8614 0.9321
1.4035 -17.4200 -1.8623 0.9321
1.5120 -17.4200 -1.8633 0.9321
1.8382 -17.4202 -1.8666 0.9320
2.0564 -17.4203 -1.8692 0.9319
2.1657 -17.4204 -1.8706 0.9318
2.2752 -17.4204 -1.8721 0.9318
2.3849 -17.4205 -1.8737 0.9317
2.4947 -17.4205 -1.8753 0.9317
2.6048 -17.4206 -1.8770 0.9316
2.7150 -17.4206 -1.8788 0.9315
2.9362 -17.4208 -1.8826 0.9314
3.0471 -17.4208 -1.8846 0.9313
3.3813 -17.4210 -1.8910 0.9311
3.4933 -17.4210 -1.8934 0.9310
3.8308 -17.4212 -1.9008 0.9308
3.9440 -17.4212 -1.9034 0.9307
4.0574 -17.4213 -1.9061 0.9306
4.1711 -17.4214 -1.9089 0.9305
4.2852 -17.4214 -1.9118 0.9304
4.3496 -17.2234 -1.8930 0.9310
4.3809 -16.4854 -1.8177 0.9337
4.4558 -15.9690 -1.7667 0.9355
4.3518 -14.5481 -1.6181 0.9407
4.3526 -13.6247 -1.5241 0.9441
4.3530 -13.0664 -1.4676 0.9461
4.3542 -11.6141 -1.3217 0.9513
4.3027 -11.2642 -1.2849 0.9527
4.3028 -11.0590 -1.2645 0.9534
4.3032 -10.6674 -1.2257 0.9548
4.3553 -10.2446 -1.1862 0.9562
4.3556 -9.7396 -1.1369 0.9580
4.3559 -9.4256 -1.1065 0.9591
4.3564 -8.8452 -1.0507 0.9611
4.3565 -8.7091 -1.0377 0.9616
4.3566 -8.5764 -1.0251 0.9620
4.3574 -7.5114 -0.9254 0.9657
4.3575 -7.3021 -0.9061 0.9664
4.3577 -7.1012 -0.8878 0.9670
4.3579 -6.9083 -0.8704 0.9677
4.3581 -6.6327 -0.8457 0.9686
4.3582 -6.4574 -0.8302 0.9691
4.3583 -6.3722 -0.8227 0.9694
4.3584 -6.2062 -0.8081 0.9700
4.3586 -5.9679 -0.7875 0.9707
4.3586 -5.8912 -0.7809 0.9710
4.3587 -5.7414 -0.7681 0.9714
4.3588 -5.6683 -0.7620 0.9716
4.3589 -5.5965 -0.7559 0.9719
4.3589 -5.5257 -0.7500 0.9721
4.3590 -5.3874 -0.7385 0.9725
4.3592 -5.1878 -0.7221 0.9731
4.3592 -5.1231 -0.7168 0.9733
4.3593 -5.0595 -0.7117 0.9735
4.3594 -4.9348 -0.7017 0.9739
4.3595 -4.7542 -0.6874 0.9744
4.3595 -4.6956 -0.6828 0.9746
4.3596 -4.5808 -0.6739 0.9749
4.3596 -4.5245 -0.6695 0.9750
4.3597 -4.4139 -0.6611 0.9754
4.3598 -4.3597 -0.6570 0.9755
4.3598 -4.3062 -0.6530 0.9757
4.3599 -4.2533 -0.6490 0.9758
4.3600 -3.9979 -0.6304 0.9765
4.3601 -3.9486 -0.6268 0.9766
4.3601 -3.8998 -0.6234 0.9767
4.3601 -3.8516 -0.6199 0.9769
4.3602 -3.8039 -0.6166 0.9770
4.3602 -3.7100 -0.6101 0.9772
4.3603 -3.6638 -0.6069 0.9774
4.3603 -3.6180 -0.6038 0.9775
4.3603 -3.5728 -0.6007 0.9776
4.3604 -3.5279 -0.5977 0.9777
4.3604 -3.4836 -0.5947 0.9778
4.3604 -3.3961 -0.5890 0.9780
4.3605 -3.3103 -0.5834 0.9782
4.3606 -3.2261 -0.5780 0.9784
4.3607 -3.1027 -0.5703 0.9787
4.3607 -3.0623 -0.5678 0.9788
4.3608 -2.9040 -0.5583 0.9791
4.3609 -2.7509 -0.5494 0.9795
4.3610 -2.6391 -0.5432 0.9797
4.3610 -2.6024 -0.5412 0.9798
4.3610 -2.5660 -0.5392 0.9799
4.3611 -2.4939 -0.5353 0.9800
4.3611 -2.4229 -0.5316 0.9801
4.3612 -2.3877 -0.5298 0.9802
4.3612 -2.3528 -0.5280 0.9803
4.3758 -2.3259 -0.5281 0.9803
4.5097 -2.3260 -0.5407 0.9798
4.7230 -2.3261 -0.5610 0.9790
4.7977 -2.3261 -0.5682 0.9788
4.9530 -2.3262 -0.5831 0.9782
5.0337 -2.3262 -0.5909 0.9779
5.1167 -2.3263 -0.5989 0.9776
5.3797 -2.3264 -0.6246 0.9767
5.4725 -2.3264 -0.6337 0.9764
5.5679 -2.3265 -0.6430 0.9760
5.7677 -2.3266 -0.6627 0.9753
6.0915 -2.3268 -0.6949 0.9741
6.4484 -2.3269 -0.7305 0.9728
6.5757 -2.3270 -0.7433 0.9723
6.8440 -2.3271 -0.7703 0.9713
6.9857 -2.3272 -0.7846 0.9708
7.1327 -2.3273 -0.7995 0.9703
7.2854 -2.3274 -0.8150 0.9697
7.4442 -2.3274 -0.8311 0.9691
7.9607 -2.3277 -0.8838 0.9672
8.3431 -2.3279 -0.9230 0.9658
8.9849 -2.3283 -0.9891 0.9634
9.2198 -2.3284 -1.0133 0.9625
9.4665 -2.3285 -1.0388 0.9615
9.7260 -2.3286 -1.0657 0.9606
10.2875 -2.3289 -1.1240 0.9585
24.1306 -4.5290 -2.6163 0.9060
24.1591 -4.3798 -2.6164 0.9060
24.2388 -3.9313 -2.6167 0.9059
24.2635 -3.7814 -2.6167 0.9059
24.2871 -3.6314 -2.6168 0.9059
24.3099 -3.4813 -2.6169 0.9059
24.3525 -3.1805 -2.6171 0.9059
24.4263 -2.5775 -2.6173 0.9059
24.4575 -2.2753 -2.6175 0.9059
24.4716 -2.1240 -2.6175 0.9059
24.4848 -1.9727 -2.6176 0.9059
24.5184 -1.5182 -2.6177 0.9059
24.5361 -1.2149 -2.6178 0.9059
24.5499 -0.9113 -2.6179 0.9059
24.5634 -0.4557 -2.6179 0.9059
24.5681 0.0000 -2.6180 0.9059
24.5642 0.4558 -2.6180 0.9059
24.5609 0.6077 -2.6180 0.9059
24.5454 1.0631 -2.6180 0.9059
24.5383 1.2150 -2.6180 0.9059
24.5212 1.5185 -2.6180 0.9059
24.5112 1.6700 -2.6180 0.9059
24.5002 1.8216 -2.6180 0.9059
24.4883 1.9730 -2.6179 0.9059
24.4142 2.7290 -2.6178 0.9059
24.3965 2.8799 -2.6178 0.9059
24.3376 3.3318 -2.6176 0.9059
24.2936 3.6324 -2.6175 0.9059
24.2701 3.7825 -2.6175 0.9059
12.1291 2.0443 -1.3107 0.9517
11.3041 1.9772 -1.2229 0.9549
10.5368 1.9776 -1.1424 0.9578
10.1897 1.9778 -1.1061 0.9591
9.2693 1.9782 -1.0100 0.9626
8.7395 1.9785 -0.9549 0.9646
8.4958 1.9787 -0.9295 0.9655
8.0450 1.9789 -0.8828 0.9672
7.6373 1.9791 -0.8407 0.9688
7.2667 1.9793 -0.8026 0.9702
6.7697 1.9795 -0.7516 0.9720
6.6178 1.9796 -0.7361 0.9726
6.4720 1.9797 -0.7212 0.9731
6.3320 1.9797 -0.7069 0.9737
5.9431 1.9799 -0.6675 0.9751
5.8230 1.9800 -0.6554 0.9756
5.5953 1.9801 -0.6325 0.9764
5.3829 1.9802 -0.6112 0.9772
5.2821 1.9803 -0.6011 0.9776
5.0899 1.9804 -0.5820 0.9783
4.9983 1.9804 -0.5729 0.9786
4.9096 1.9804 -0.5641 0.9789
4.8234 1.9805 -0.5556 0.9792
4.6588 1.9806 -0.5394 0.9798
4.2759 1.8806 -0.4978 0.9814
4.1632 1.9240 -0.4887 0.9817
4.1633 2.0504 -0.4945 0.9815
4.1633 2.1148 -0.4976 0.9814
4.2635 2.2325 -0.5128 0.9808
4.2635 2.2662 -0.5145 0.9808
4.2636 2.3687 -0.5197 0.9806
4.2636 2.4382 -0.5234 0.9804
4.2636 2.4733 -0.5252 0.9804
4.2636 2.5087 -0.5271 0.9803
4.2636 2.5443 -0.5291 0.9802
4.2637 2.5802 -0.5311 0.9802
4.2637 2.7266 -0.5393 0.9798
4.2637 2.8015 -0.5436 0.9797
4.2637 2.8776 -0.5481 0.9795
4.2638 3.0738 -0.5601 0.9791
4.2638 3.1140 -0.5626 0.9790
4.2638 3.2370 -0.5705 0.9787
4.2638 3.2788 -0.5732 0.9786
4.2638 3.3209 -0.5759 0.9785
4.2639 3.3635 -0.5787 0.9784
4.2639 3.4065 -0.5816 0.9783
4.2639 3.4499 -0.5845 0.9782
4.2639 3.4938 -0.5874 0.9781
4.2639 3.5381 -0.5904 0.9780
4.2639 3.5829 -0.5935 0.9778
4.2640 3.7200 -0.6030 0.9775
4.2640 3.7667 -0.6063 0.9774
4.2640 3.8139 -0.6096 0.9772
4.2640 3.8617 -0.6130 0.9771
4.2640 3.9588 -0.6200 0.9769
4.2641 4.0082 -0.6236 0.9767
4.2641 4.0582 -0.6273 0.9766
4.2642 4.4254 -0.6549 0.9756
4.2642 4.4806 -0.6591 0.9754
4.2643 4.7085 -0.6769 0.9748
4.2643 4.7675 -0.6816 0.9746
4.2643 4.8879 -0.6912 0.9742
4.2644 5.0750 -0.7064 0.9737
4.2644 5.2044 -0.7170 0.9733
4.2645 5.4753 -0.7395 0.9725
4.2645 5.6900 -0.7577 0.9718
4.2645 5.7640 -0.7640 0.9716
4.2646 5.8392 -0.7705 0.9713
4.2646 6.1533 -0.7978 0.9703
4.2646 6.2353 -0.8050 0.9701
4.2647 6.4039 -0.8199 0.9695
4.2647 6.5790 -0.8355 0.9690
4.2648 6.7608 -0.8518 0.9684
4.2648 6.8544 -0.8602 0.9680
4.2648 6.9499 -0.8689 0.9677
4.2649 7.1467 -0.8869 0.9671
4.2649 7.2483 -0.8962 0.9667
4.2649 7.4579 -0.9155 0.9660
4.2650 7.6768 -0.9358 0.9653
4.2650 7.9056 -0.9572 0.9645
4.2651 8.2693 -0.9915 0.9633
4.2652 8.6602 -1.0287 0.9619
4.2653 9.2297 -1.0835 0.9599
4.2654 9.5379 -1.1134 0.9588
4.2654 9.6984 -1.1290 0.9583
4.2654 9.8636 -1.1451 0.9577
4.2655 10.0335 -1.1618 0.9571
4.2121 10.0805 -1.1642 0.9570
4.2233 10.4695 -1.2030 0.9556
4.2657 11.1676 -1.2739 0.9530
4.2658 11.3783 -1.2949 0.9523
4.2658 11.5961 -1.3166 0.9515
4.2659 11.8213 -1.3392 0.9507
4.2659 12.0544 -1.3626 0.9499
4.3165 12.9568 -1.4553 0.9465
4.2661 13.0747 -1.4655 0.9462
4.2241 14.7848 -1.6385 0.9400
4.1917 15.0225 -1.6620 0.9392
3.9921 15.0226 -1.6564 0.9394
3.8929 15.0227 -1.6537 0.9395
3.7939 15.0227 -1.6511 0.9396
3.5969 15.0228 -1.6461 0.9398
3.4988 15.0229 -1.6437 0.9398
3.4010 15.0229 -1.6414 0.9399
3.0020 14.9713 -1.6271 0.9404
2.7348 15.0849 -1.6337 0.9402
2.2547 15.0792 -1.6247 0.9405
2.1593 15.0780 -1.6231 0.9406
2.0640 15.0769 -1.6216 0.9406
1.8741 15.0746 -1.6187 0.9407
1.7794 15.0735 -1.6174 0.9408
1.6848 15.0724 -1.6161 0.9408
1.5904 15.0712 -1.6149 0.9409
1.4961 15.0701 -1.6138 0.9409
1.3929 14.9721 -1.6023 0.9413
1.2105 15.0240 -1.6062 0.9412
1.0237 15.0241 -1.6047 0.9412
0.9304 15.0242 -1.6041 0.9412
0.7439 15.0243 -1.6030 0.9413
0.5578 15.0243 -1.6021 0.9413
0.4647 15.0244 -1.6018 0.9413
0.0929 15.0246 -1.6011 0.9414
0.0000 15.0246 -1.6010 0.9414
-0.3717 15.0248 -1.6015 0.9413
-0.6508 15.0249 -1.6026 0.9413
-0.7439 15.0250 -1.6030 0.9413
-1.0237 15.0251 -1.6048 0.9412
-1.1171 15.0252 -1.6055 0.9412
-1.2105 15.0252 -1.6063 0.9412
-1.3041 15.0253 -1.6071 0.9411
-1.6795 15.0254 -1.6111 0.9410
-2.4287 14.9740 -1.6165 0.9408
-2.5403 15.0722 -1.6288 0.9404
-2.8399 15.1312 -1.6405 0.9399
-2.9273 15.0821 -1.6372 0.9401
-3.0054 14.9882 -1.6290 0.9404
-3.1020 14.9882 -1.6310 0.9403
-3.2958 14.9883 -1.6353 0.9401
-3.3931 14.9884 -1.6376 0.9401
-3.5886 14.9885 -1.6423 0.9399
-4.0787 14.9748 -1.6539 0.9395
-4.1822 14.9888 -1.6582 0.9393
-4.3828 14.9889 -1.6641 0.9391
-4.9031 15.0271 -1.6844 0.9384
-5.0062 15.0271 -1.6878 0.9383
-5.2136 15.0272 -1.6949 0.9380
-5.4227 15.0273 -1.7024 0.9378
-5.6338 15.0274 -1.7102 0.9375
-5.7401 15.0275 -1.7142 0.9373
-5.8468 15.0275 -1.7183 0.9372
-5.9613 15.0457 -1.7245 0.9370
-6.0890 15.0949 -1.7345 0.9366
-6.8152 14.9901 -1.7547 0.9359
-6.9274 14.9901 -1.7597 0.9357
-7.0403 14.9902 -1.7648 0.9356
-7.2679 14.9903 -1.7752 0.9352
-7.3828 14.9904 -1.7806 0.9350
-7.6147 14.9905 -1.7917 0.9346
-7.7317 14.9905 -1.7974 0.9344
-7.8495 14.9906 -1.8032 0.9342
-8.0873 14.9907 -1.8151 0.9338
-8.5728 14.9910 -1.8402 0.9329
-8.6963 14.9910 -1.8468 0.9327
-8.8207 14.9911 -1.8535 0.9324
-8.9460 14.9911 -1.8603 0.9322
-9.1994 14.9913 -1.8743 0.9317
-9.3275 14.9913 -1.8815 0.9314
-9.4567 14.9914 -1.8888 0.9312
-9.9836 14.9916 -1.9193 0.9301
-10.2181 14.9400 -1.9288 0.9298
-10.4632 15.0970 -1.9574 0.9288
-10.6020 15.0971 -1.9658 0.9285
-10.7105 15.0528 -1.9686 0.9284
-10.8834 15.0972 -1.9832 0.9279
-11.0260 15.0973 -1.9921 0.9276
-11.1698 15.0974 -2.0012 0.9272
-11.3150 15.0975 -2.0105 0.9269
-11.4616 15.0975 -2.0199 0.9266
-11.8395 15.0088 -2.0371 0.9260
-12.1306 14.9927 -2.0551 0.9254
-12.2849 14.9928 -2.0655 0.9250
-12.4407 14.9929 -2.0760 0.9246
-13.2447 14.9933 -2.1318 0.9227
-13.3064 14.8766 -2.1269 0.9228
-13.3064 14.6928 -2.1123 0.9234
-13.3065 14.5115 -2.0980 0.9239
-13.2015 13.8714 -2.0406 0.9259
-13.2015 13.7007 -2.0274 0.9263
-13.2016 13.3660 -2.0019 0.9272
-13.2017 13.0395 -1.9773 0.9281
-13.2018 12.8792 -1.9653 0.9285
-13.2019 12.4097 -1.9308 0.9297
-13.2020 12.1058 -1.9087 0.9305
-13.2020 11.9564 -1.8980 0.9309
-13.2021 11.8086 -1.8875 0.9312
-13.2022 11.5180 -1.8670 0.9319
-13.2022 11.3750 -1.8570 0.9323
-13.2023 10.9550 -1.8281 0.9333
-13.2024 10.6821 -1.8097 0.9340
-13.2024 10.5477 -1.8007 0.9343
-13.2025 10.4146 -1.7919 0.9346
-13.3077 10.1029 -1.7804 0.9350
-13.3078 9.8459 -1.7640 0.9356
-13.3079 9.5935 -1.7482 0.9361
-13.3080 9.3457 -1.7329 0.9367
-13.3081 8.8625 -1.7038 0.9377
-13.1512 8.6411 -1.6768 0.9387
-13.2031 8.5587 -1.6767 0.9387
-13.2031 8.4432 -1.6700 0.9389
-13.2031 8.3287 -1.6635 0.9391
-13.2032 8.1022 -1.6507 0.9396
-13.2032 7.9902 -1.6445 0.9398
-13.2033 7.8791 -1.6384 0.9400
-13.2033 7.7688 -1.6324 0.9402
-13.2034 7.4426 -1.6151 0.9409
-13.2035 7.2289 -1.6041 0.9412
-13.2035 7.1232 -1.5987 0.9414
-13.2036 7.0182 -1.5934 0.9416
-13.2037 6.6047 -1.5732 0.9423
-13.2040 6.0032 -1.5456 0.9433
-13.2040 5.9049 -1.5413 0.9435
-13.2040 5.8072 -1.5371 0.9436
-13.2042 5.3264 -1.5172 0.9443
-13.2043 5.1375 -1.5098 0.9446
-13.2043 5.0437 -1.5062 0.9447
-13.1576 4.8402 -1.4939 0.9452
-13.3096 4.8029 -1.5078 0.9447
-13.3096 4.7101 -1.5045 0.9448
-13.3088 4.3425 -1.4918 0.9452
-13.3099 4.0712 -1.4832 0.9455
-13.3100 3.8919 -1.4777 0.9457
-13.3100 3.8027 -1.4751 0.9458
-13.3101 3.5371 -1.4676 0.9461
-13.3102 3.4491 -1.4652 0.9462
-13.2051 3.1616 -1.4469 0.9468
-13.2052 2.8183 -1.4389 0.9471
-13.2054 2.4785 -1.4318 0.9474
-13.2054 2.3940 -1.4301 0.9474
-13.2055 2.3098 -1.4286 0.9475
-13.2056 1.9745 -1.4228 0.9477
-13.2057 1.8911 -1.4216 0.9478
-13.2057 1.7247 -1.4192 0.9478
-13.2058 1.6418 -1.4181 0.9479
-13.2058 1.5589 -1.4170 0.9479
-13.2058 1.4762 -1.4160 0.9480
-13.2059 1.3935 -1.4150 0.9480
-15.7623 1.3681 -1.6860 0.9383
-17.8731 1.3288 -1.9098 0.9304
-21.8501 1.3530 -2.3328 0.9157
-21.8577 1.2178 -2.3328 0.9157
-21.8645 1.0826 -2.3328 0.9157
-21.8706 0.9474 -2.3327 0.9157
-21.8757 0.8121 -2.3327 0.9157
-21.8801 0.6768 -2.3327 0.9157
-21.8837 0.5414 -2.3327 0.9157
-21.8864 0.4061 -2.3326 0.9157
-21.8883 0.2708 -2.3326 0.9157
-21.8895 0.1354 -2.3326 0.9157
-13.3612 -0.0826 -1.5242 0.9476
-13.2070 -0.2450 -1.5069 0.9482
-13.2070 -0.3268 -1.5071 0.9482
-13.2073 -0.8998 -1.5101 0.9481
-13.2075 -1.2287 -1.5132 0.9480
-13.2075 -1.3111 -1.5141 0.9480
-13.2076 -1.3937 -1.5150 0.9479
-13.2076 -1.4763 -1.5161 0.9479
-13.2077 -1.7250 -1.5195 0.9478
-13.2078 -1.8914 -1.5221 0.9477
-13.3132 -2.2438 -1.5401 0.9471
-13.3133 -2.3286 -1.5418 0.9470
-13.3133 -2.4136 -1.5435 0.9470
-13.2994 -2.6668 -1.5473 0.9469
-13.2830 -2.7491 -1.5474 0.9469
-13.2661 -2.8312 -1.5474 0.9469
-13.2606 -3.0020 -1.5510 0.9467
-13.2586 -3.1744 -1.5552 0.9466
-13.2575 -3.2610 -1.5574 0.9465
-13.2555 -3.4349 -1.5621 0.9464
-13.2545 -3.5223 -1.5645 0.9463
-13.1570 -3.5836 -1.5556 0.9466
-13.2089 -3.6856 -1.5644 0.9463
-13.2089 -3.7738 -1.5671 0.9462
-13.2090 -3.9512 -1.5728 0.9460
-13.2092 -4.2198 -1.5819 0.9457
-13.2094 -4.6746 -1.5985 0.9451
-13.2095 -4.7668 -1.6020 0.9450
-13.2096 -4.9523 -1.6093 0.9448
-13.2098 -5.2339 -1.6209 0.9444
-13.2099 -5.4239 -1.6290 0.9441
-13.2100 -5.5197 -1.6332 0.9440
-13.2102 -5.8099 -1.6463 0.9436
-13.2103 -6.0060 -1.6554 0.9433
-13.2104 -6.1049 -1.6601 0.9431
-13.2109 -6.9176 -1.7012 0.9417
-13.2109 -7.0221 -1.7067 0.9415
-13.2111 -7.2331 -1.7182 0.9412
-13.1768 -7.3206 -1.7196 0.9411
-13.3165 -7.5063 -1.7438 0.9403
-13.3166 -7.7250 -1.7562 0.9399
-13.3167 -7.8355 -1.7626 0.9397
-13.3168 -8.0590 -1.7757 0.9393
-13.2728 -8.4878 -1.7972 0.9385
-13.3137 -8.9855 -1.8323 0.9374
-13.1605 -9.0011 -1.8189 0.9378
-13.2126 -9.4012 -1.8498 0.9368
-13.2127 -9.5249 -1.8581 0.9365
-13.2129 -9.7756 -1.8750 0.9360
-13.2129 -9.9027 -1.8836 0.9357
-13.2131 -10.1604 -1.9014 0.9351
-13.2133 -10.4231 -1.9198 0.9345
-13.2134 -10.5564 -1.9293 0.9342
-14.7539 -12.2424 -2.1870 0.9257
-14.6366 -12.2987 -2.1809 0.9259
-14.3914 -12.3996 -2.1670 0.9264
-13.9177 -12.2946 -2.1184 0.9280
-13.4082 -12.2949 -2.0753 0.9294
-13.2430 -12.2950 -2.0614 0.9298
-13.2151 -12.8922 -2.1061 0.9284
-13.2152 -13.0528 -2.1189 0.9279
-13.2154 -13.2154 -2.1320 0.9275
-13.2156 -13.5466 -2.1589 0.9266
-13.2157 -13.7154 -2.1727 0.9262
-13.2158 -13.8864 -2.1868 0.9257
-13.2159 -14.0596 -2.2012 0.9253
-13.1645 -14.5361 -2.2372 0.9241
-13.1646 -14.7181 -2.2526 0.9236
-13.1648 -14.9028 -2.2684 0.9231
-13.2168 -15.1494 -2.2934 0.9222
-13.2169 -15.3401 -2.3099 0.9217
-13.2171 -15.5335 -2.3266 0.9212
-13.2172 -15.7297 -2.3438 0.9206
-13.1854 -15.8903 -2.3555 0.9202
-12.8927 -16.1377 -2.3563 0.9202
-12.7941 -16.2190 -2.3566 0.9202
-12.4953 -16.4592 -2.3574 0.9202
-12.1921 -16.6940 -2.3582 0.9201
-12.0900 -16.7711 -2.3585 0.9201
-11.9875 -16.8475 -2.3588 0.9201
-11.7810 -16.9985 -2.3593 0.9201
-11.6771 -17.0731 -2.3596 0.9201
-11.4678 -17.2204 -2.3602 0.9201
-11.3625 -17.2931 -2.3605 0.9201
-11.1359 -17.4137 -2.3579 0.9202
-10.9848 -17.4138 -2.3487 0.9205
-10.2465 -17.4142 -2.3049 0.9219
-9.5345 -17.4145 -2.2648 0.9232
-9.1188 -17.4148 -2.2425 0.9239
-8.5770 -17.4150 -2.2145 0.9248
-8.0481 -17.4152 -2.1885 0.9257
-7.9178 -17.4153 -2.1824 0.9259
-7.7883 -17.4154 -2.1763 0.9261
-7.6594 -17.4154 -2.1703 0.9263
-7.5312 -17.4155 -2.1645 0.9265
-7.4038 -17.4156 -2.1588 0.9266
-7.1508 -17.4157 -2.1477 0.9270
-6.5293 -17.4160 -2.1218 0.9279
-6.4068 -17.4161 -2.1169 0.9280
-6.1633 -17.4162 -2.1075 0.9283
-5.9220 -17.4163 -2.0985 0.9286
-5.6828 -17.4164 -2.0899 0.9289
-5.5639 -17.4165 -2.0857 0.9290
-5.3274 -17.4166 -2.0777 0.9293
-5.0927 -17.4167 -2.0700 0.9295
-4.8598 -17.4168 -2.0627 0.9298
-4.7439 -17.4169 -2.0592 0.9299
-4.5133 -17.4170 -2.0525 0.9301
-4.1701 -17.4172 -2.0430 0.9304
-4.0564 -17.4172 -2.0401 0.9305
-3.7172 -17.4174 -2.0317 0.9308
-3.1576 -17.4177 -2.0193 0.9312
-3.0465 -17.4178 -2.0171 0.9313
-2.8250 -17.4179 -2.0129 0.9314
-2.2749 -17.4181 -2.0039 0.9317
-2.0561 -17.4182 -2.0008 0.9318
-1.7291 -17.4184 -1.9968 0.9320
-1.6204 -17.4185 -1.9956 0.9320
-1.5118 -17.4185 -1.9945 0.9320
-1.4033 -17.4186 -1.9935 0.9321
-1.0786 -17.4187 -1.9909 0.9322
-0.5388 -17.4190 -1.9880 0.9322
-0.4310 -17.4191 -1.9877 0.9323
-0.3232 -17.4191 -1.9874 0.9323
-0.2154 -17.4192 -1.9873 0.9323
-0.1077 -17.4192 -1.9872 0.9323
0.0000 -17.4193 -1.9871 0.9323
0.3232 -17.4195 -1.9875 0.9323
0.6467 -17.4196 -1.9885 0.9322
0.7546 -17.4197 -1.9890 0.9322
0.8626 -17.4197 -1.9896 0.9322
0.9706 -17.4198 -1.9903 0.9322
1.1869 -17.4199 -1.9918 0.9321
1.2952 -17.4199 -1.9927 0.9321
1.4035 -17.4200 -1.9936 0.9321
1.6206 -17.4201 -1.9958 0.9320
1.7294 -17.4202 -1.9970 0.9319
1.8382 -17.4202 -1.9983 0.9319
1.9472 -17.4203 -1.9996 0.9319
2.0564 -17.4203 -2.0010 0.9318
2.1657 -17.4204 -2.0025 0.9318
2.2752 -17.4204 -2.0041 0.9317
2.3849 -17.4205 -2.0058 0.9317
2.7151 -17.4206 -2.0113 0.9315
3.6055 -17.4211 -2.0294 0.9309
3.8308 -17.4212 -2.0348 0.9307
4.0574 -17.4213 -2.0405 0.9305
4.1711 -17.4214 -2.0435 0.9304
4.3493 -17.2218 -2.0263 0.9310
4.3496 -16.7853 -1.9780 0.9326
4.3809 -16.4854 -1.9459 0.9336
4.4551 -16.3566 -1.9339 0.9340
4.4554 -15.9677 -1.8911 0.9354
4.4558 -15.5955 -1.8503 0.9368
4.3336 -14.8203 -1.7614 0.9397
4.3515 -14.5470 -1.7321 0.9407
4.3520 -13.9193 -1.6637 0.9430
4.3525 -13.3393 -1.6006 0.9451
4.3527 -13.0654 -1.5710 0.9461
4.3533 -12.3015 -1.4886 0.9488
4.3535 -12.0643 -1.4631 0.9497
4.3539 -11.6133 -1.4148 0.9513
4.3024 -11.2635 -1.3754 0.9526
4.4491 -11.2289 -1.3778 0.9525
4.4595 -11.0551 -1.3599 0.9531
4.4106 -10.7420 -1.3246 0.9543
4.3032 -10.2986 -1.2732 0.9561
4.3036 -9.7852 -1.2194 0.9579
4.3555 -9.5800 -1.2005 0.9585
4.3557 -9.4251 -1.1844 0.9591
4.3558 -9.2743 -1.1689 0.9596
4.3559 -9.1275 -1.1537 0.9601
4.3560 -8.9843 -1.1390 0.9606
4.3561 -8.8448 -1.1247 0.9611
4.3563 -8.5760 -1.0973 0.9620
4.3564 -8.4464 -1.0841 0.9625
4.3566 -8.1963 -1.0589 0.9633
4.3570 -7.8423 -1.0234 0.9645
4.3571 -7.6190 -1.0012 0.9653
4.3572 -7.5110 -0.9906 0.9656
4.3573 -7.4053 -0.9802 0.9660
4.3574 -7.3017 -0.9700 0.9663
4.3574 -7.2003 -0.9601 0.9667
4.3575 -7.1009 -0.9504 0.9670
4.3578 -6.8144 -0.9227 0.9680
4.3578 -6.7225 -0.9139 0.9683
4.3579 -6.6324 -0.9053 0.9686
4.3580 -6.4572 -0.8887 0.9691
4.3584 -6.0458 -0.8502 0.9704
4.3585 -5.8909 -0.8359 0.9709
4.3586 -5.8154 -0.8290 0.9712
4.3586 -5.7412 -0.8223 0.9714
4.3588 -5.5255 -0.8028 0.9721
4.3588 -5.4558 -0.7966 0.9723
4.3589 -5.3872 -0.7905 0.9725
4.3589 -5.3197 -0.7845 0.9727
4.3590 -5.2531 -0.7787 0.9729
4.3591 -5.1229 -0.7673 0.9733
4.3592 -4.9347 -0.7511 0.9738
4.3593 -4.8736 -0.7459 0.9740
4.3593 -4.8134 -0.7408 0.9742
4.3594 -4.6955 -0.7309 0.9745
4.3594 -4.6377 -0.7261 0.9747
4.3595 -4.5806 -0.7214 0.9749
4.3596 -4.4687 -0.7122 0.9752
4.3597 -4.3060 -0.6990 0.9756
4.3597 -4.2531 -0.6948 0.9758
4.3598 -4.0982 -0.6826 0.9762
4.3599 -4.0477 -0.6787 0.9763
4.3600 -3.8997 -0.6673 0.9767
4.3601 -3.7566 -0.6565 0.9771
4.3602 -3.6637 -0.6497 0.9773
4.3603 -3.5278 -0.6398 0.9777
4.3603 -3.3960 -0.6305 0.9780
4.3604 -3.3529 -0.6275 0.9781
4.3604 -3.2680 -0.6216 0.9783
4.3605 -3.1846 -0.6160 0.9785
4.3606 -3.0221 -0.6052 0.9789
4.3606 -2.9430 -0.6001 0.9790
4.3608 -2.7886 -0.5905 0.9794
4.3608 -2.7132 -0.5859 0.9795
4.3608 -2.6760 -0.5837 0.9796
4.3609 -2.6023 -0.5793 0.9798
4.3609 -2.4938 -0.5731 0.9800
4.3610 -2.4582 -0.5711 0.9800
4.3610 -2.4228 -0.5691 0.9801
4.3610 -2.3876 -0.5672 0.9802
4.3611 -2.3527 -0.5653 0.9802
4.5097 -2.3259 -0.5788 0.9798
4.5791 -2.3260 -0.5859 0.9795
4.6501 -2.3260 -0.5931 0.9793
4.7230 -2.3261 -0.6006 0.9790
4.7977 -2.3261 -0.6082 0.9788
5.0338 -2.3262 -0.6326 0.9779
5.1167 -2.3263 -0.6412 0.9776
5.4725 -2.3264 -0.6783 0.9763
5.5680 -2.3265 -0.6884 0.9760
5.7677 -2.3266 -0.7095 0.9753
5.8723 -2.3267 -0.7205 0.9749
5.9802 -2.3267 -0.7320 0.9745
6.0915 -2.3268 -0.7439 0.9741
6.2065 -2.3268 -0.7561 0.9737
6.4484 -2.3269 -0.7820 0.9728
6.9857 -2.3272 -0.8400 0.9708
7.1327 -2.3273 -0.8559 0.9702
7.7814 -2.3276 -0.9265 0.9678
7.9607 -2.3277 -0.9461 0.9672
8.5473 -2.3280 -1.0106 0.9650
8.9849 -2.3282 -1.0588 0.9633
9.2198 -2.3284 -1.0848 0.9624
10.2875 -2.3289 -1.2033 0.9584
10.4475 -2.2973 -1.2203 0.9578
10.6708 -2.2773 -1.2447 0.9570
11.2554 -2.3294 -1.3112 0.9548
22.4995 -4.2228 -2.6115 0.9120
22.5516 -3.9445 -2.6116 0.9120
22.6001 -3.6655 -2.6118 0.9119
22.6230 -3.5258 -2.6119 0.9119
22.6663 -3.2459 -2.6120 0.9119
22.7244 -2.8251 -2.6123 0.9119
22.7421 -2.6846 -2.6123 0.9119
22.7895 -2.2623 -2.6125 0.9119
22.8035 -2.1214 -2.6126 0.9119
22.8167 -1.9804 -2.6126 0.9119
22.8289 -1.8393 -2.6127 0.9119
22.8403 -1.6981 -2.6127 0.9119
22.8507 -1.5569 -2.6128 0.9119
22.8603 -1.4155 -2.6128 0.9119
22.8767 -1.1327 -2.6129 0.9119
22.8946 -0.7081 -2.6130 0.9119
22.8988 -0.5665 -2.6130 0.9119
22.9020 -0.4249 -2.6130 0.9119
22.9061 0.1417 -2.6131 0.9119
22.9028 0.4250 -2.6131 0.9119
22.8958 0.7082 -2.6131 0.9119
22.8852 0.9913 -2.6131 0.9119
22.8320 1.8396 -2.6130 0.9119
22.8071 2.1217 -2.6130 0.9119
22.7630 2.5444 -2.6129 0.9119
22.6717 3.2467 -2.6127 0.9119
22.6506 3.3866 -2.6126 0.9119
12.1288 2.0443 -1.4031 0.9517
11.3041 1.9772 -1.3091 0.9549
10.5188 1.9743 -1.2209 0.9578
10.1897 1.9778 -1.1841 0.9591
9.8640 1.9779 -1.1476 0.9603
9.5578 1.9781 -1.1134 0.9615
8.7395 1.9785 -1.0222 0.9646
8.4958 1.9786 -0.9951 0.9655
7.8362 1.9790 -0.9220 0.9680
7.4477 1.9792 -0.8791 0.9695
7.0937 1.9793 -0.8401 0.9708
6.9282 1.9794 -0.8220 0.9714
6.7697 1.9795 -0.8046 0.9720
6.6178 1.9796 -0.7880 0.9726
6.4720 1.9797 -0.7721 0.9731
6.3319 1.9797 -0.7568 0.9736
6.0678 1.9799 -0.7281 0.9746
5.8230 1.9800 -0.7016 0.9755
5.4873 1.9802 -0.6655 0.9768
5.3829 1.9802 -0.6543 0.9772
4.9983 1.9804 -0.6133 0.9786
4.6588 1.9806 -0.5775 0.9798
4.5035 1.9807 -0.5612 0.9804
4.3566 1.9807 -0.5459 0.9809
4.2633 2.0346 -0.5389 0.9812
4.2634 2.0997 -0.5421 0.9810
4.2634 2.1326 -0.5438 0.9810
4.2634 2.1657 -0.5455 0.9809
4.2634 2.1989 -0.5472 0.9809
4.2634 2.2662 -0.5508 0.9807
4.2634 2.3001 -0.5526 0.9807
4.2635 2.4033 -0.5583 0.9805
4.2635 2.4381 -0.5603 0.9804
4.2635 2.4733 -0.5623 0.9804
4.2635 2.5443 -0.5664 0.9802
4.2635 2.5802 -0.5685 0.9801
4.2635 2.6528 -0.5728 0.9800
4.2636 2.6895 -0.5751 0.9799
4.2636 2.7638 -0.5796 0.9798
4.2636 2.8776 -0.5868 0.9795
4.2636 2.9550 -0.5918 0.9793
4.2637 2.9942 -0.5943 0.9792
4.2637 3.0337 -0.5969 0.9792
4.2637 3.0737 -0.5996 0.9791
4.2637 3.2369 -0.6107 0.9787
4.2638 3.3634 -0.6195 0.9784
4.2638 3.4498 -0.6257 0.9782
4.2638 3.4937 -0.6288 0.9781
4.2638 3.5828 -0.6353 0.9778
4.2638 3.6280 -0.6386 0.9777
4.2638 3.7199 -0.6455 0.9775
4.2639 3.9587 -0.6637 0.9768
4.2639 4.0081 -0.6676 0.9767
4.2639 4.0580 -0.6715 0.9766
4.2640 4.1086 -0.6755 0.9764
4.2640 4.1598 -0.6795 0.9763
4.2640 4.2640 -0.6879 0.9760
4.2640 4.3708 -0.6966 0.9757
4.2640 4.4804 -0.7056 0.9754
4.2641 4.5363 -0.7102 0.9752
4.2641 4.5929 -0.7149 0.9751
4.2641 4.7084 -0.7246 0.9748
4.2641 4.7673 -0.7296 0.9746
4.2642 4.8877 -0.7399 0.9742
4.2642 4.9492 -0.7452 0.9740
4.2642 5.0115 -0.7506 0.9739
4.2642 5.0748 -0.7561 0.9737
4.2643 5.2704 -0.7734 0.9731
4.2643 5.3375 -0.7793 0.9729
4.2643 5.4058 -0.7854 0.9727
4.2643 5.5455 -0.7980 0.9722
4.2644 5.9155 -0.8319 0.9711
4.2644 6.0725 -0.8465 0.9706
4.2645 6.2351 -0.8617 0.9700
4.2645 6.3186 -0.8696 0.9698
4.2645 6.4037 -0.8777 0.9695
4.2646 6.7605 -0.9118 0.9683
4.2646 7.0470 -0.9396 0.9674
4.2647 7.1464 -0.9494 0.9671
4.2647 7.2479 -0.9593 0.9667
4.2648 7.6764 -1.0018 0.9653
4.2648 8.0237 -1.0366 0.9641
4.2649 8.3960 -1.0743 0.9628
4.2649 8.5263 -1.0875 0.9623
4.2650 8.7967 -1.1152 0.9614
4.2650 8.9371 -1.1296 0.9609
4.2651 9.0812 -1.1445 0.9604
4.2651 9.2292 -1.1598 0.9599
4.2651 9.3812 -1.1756 0.9594
4.2134 9.7432 -1.2109 0.9582
4.2135 10.4454 -1.2849 0.9557
4.3122 10.8836 -1.3355 0.9540
4.2655 11.1669 -1.3636 0.9530
4.2655 11.3776 -1.3861 0.9523
4.2656 11.8205 -1.4335 0.9507
4.2657 12.2950 -1.4846 0.9490
4.2657 12.5451 -1.5116 0.9481
4.2658 13.0738 -1.5688 0.9461
4.2659 13.3534 -1.5991 0.9451
4.2659 13.6441 -1.6308 0.9441
4.2660 13.9464 -1.6637 0.9430
4.2661 14.5896 -1.7340 0.9406
4.1917 15.0225 -1.7792 0.9391
4.0917 15.0225 -1.7761 0.9392
3.8929 15.0226 -1.7703 0.9394
3.7939 15.0227 -1.7675 0.9395
3.5969 15.0228 -1.7622 0.9397
3.4010 15.0229 -1.7571 0.9399
3.1092 15.0230 -1.7501 0.9401
3.0021 14.9713 -1.7419 0.9404
2.5498 15.1285 -1.7501 0.9401
2.3578 15.1286 -1.7466 0.9402
2.2621 15.1286 -1.7450 0.9403
2.1665 15.1287 -1.7434 0.9403
1.8747 15.0797 -1.7335 0.9407
1.7859 15.1288 -1.7378 0.9405
1.5964 15.1289 -1.7354 0.9406
1.5019 15.1290 -1.7343 0.9406
1.2105 15.0240 -1.7194 0.9411
1.1170 15.0240 -1.7186 0.9411
1.0236 15.0241 -1.7179 0.9412
0.9303 15.0241 -1.7172 0.9412
0.6508 15.0243 -1.7155 0.9413
0.3717 15.0244 -1.7144 0.9413
0.1859 15.0245 -1.7141 0.9413
0.0000 15.0246 -1.7139 0.9413
-0.0929 15.0246 -1.7140 0.9413
-0.1858 15.0247 -1.7141 0.9413
-0.2788 15.0247 -1.7143 0.9413
-0.4647 15.0248 -1.7148 0.9413
-0.5578 15.0249 -1.7152 0.9413
-0.6508 15.0249 -1.7156 0.9413
-0.8371 15.0250 -1.7166 0.9412
-0.9304 15.0251 -1.7173 0.9412
-1.2105 15.0252 -1.7196 0.9411
-1.3041 15.0252 -1.7205 0.9411
-1.3978 15.0253 -1.7214 0.9411
-1.6795 15.0254 -1.7247 0.9409
-1.7737 15.0255 -1.7259 0.9409
-1.8679 15.0255 -1.7272 0.9409
-1.9624 15.0256 -1.7286 0.9408
-2.2467 15.0257 -1.7331 0.9407
-2.9273 15.0821 -1.7526 0.9400
-3.1020 14.9882 -1.7460 0.9402
-3.1988 14.9883 -1.7483 0.9402
-3.3931 14.9884 -1.7531 0.9400
-3.6868 14.9885 -1.7608 0.9397
-3.9831 14.9887 -1.7692 0.9395
-4.1823 14.9887 -1.7752 0.9393
-4.9031 15.0270 -1.8032 0.9383
-5.0062 15.0271 -1.8069 0.9382
-5.3179 15.0272 -1.8184 0.9378
-5.5280 15.0273 -1.8266 0.9376
-5.6338 15.0274 -1.8308 0.9374
-5.7401 15.0274 -1.8351 0.9373
-5.8468 15.0275 -1.8395 0.9371
-5.9613 15.0457 -1.8462 0.9369
-6.1979 15.0949 -1.8615 0.9364
-6.4172 15.0950 -1.8711 0.9361
-6.4599 14.9381 -1.8566 0.9366
-6.5927 14.9900 -1.8681 0.9362
-6.7036 14.9900 -1.8732 0.9360
-6.9274 14.9901 -1.8838 0.9357
-7.0402 14.9902 -1.8892 0.9355
-7.1537 14.9902 -1.8948 0.9353
-7.2679 14.9903 -1.9004 0.9351
-7.4984 14.9904 -1.9120 0.9347
-7.6146 14.9904 -1.9180 0.9345
-7.7317 14.9905 -1.9241 0.9343
-7.8495 14.9906 -1.9303 0.9341
-7.9680 14.9906 -1.9366 0.9339
-8.0873 14.9907 -1.9431 0.9337
-8.4502 14.9909 -1.9631 0.9331
-8.5728 14.9909 -1.9700 0.9328
-8.8207 14.9910 -1.9842 0.9324
-8.9460 14.9911 -1.9915 0.9321
-9.1994 14.9912 -2.0065 0.9316
-9.3275 14.9913 -2.0141 0.9314
-10.2181 14.9399 -2.0648 0.9297
-10.4632 15.0970 -2.0954 0.9287
-10.7109 15.0533 -2.1075 0.9283
-11.0260 15.0973 -2.1326 0.9275
-11.1698 15.0973 -2.1424 0.9272
-11.6095 15.0976 -2.1726 0.9262
-11.8399 15.0094 -2.1808 0.9259
-11.9779 14.9926 -2.1891 0.9257
-12.1306 14.9927 -2.2000 0.9253
-12.5981 14.9929 -2.2340 0.9242
-12.7572 14.9930 -2.2457 0.9238
-13.1498 14.8859 -2.2658 0.9231
-13.1775 14.1936 -2.2094 0.9250
-13.2019 13.8718 -2.1845 0.9258
-13.2022 12.8796 -2.1040 0.9284
-13.2022 12.7212 -2.0914 0.9288
-13.2023 12.4101 -2.0670 0.9296
-13.3191 12.3657 -2.0733 0.9294
-13.2025 11.8090 -2.0206 0.9312
-13.2025 11.5183 -1.9987 0.9319
-13.2026 11.3753 -1.9880 0.9322
-13.2027 10.8182 -1.9471 0.9336
-13.2028 10.5480 -1.9278 0.9342
-13.2029 10.4149 -1.9183 0.9345
-13.2670 10.2018 -1.9092 0.9348
-13.2638 9.9408 -1.8909 0.9354
-13.3083 9.4693 -1.8632 0.9364
-13.3084 9.3459 -1.8551 0.9366
-13.3084 9.2236 -1.8471 0.9369
-13.3084 9.1023 -1.8393 0.9371
-13.3085 8.8627 -1.8240 0.9377
-13.1516 8.6413 -1.7952 0.9386
-13.2036 7.9904 -1.7606 0.9398
-13.2036 7.8793 -1.7540 0.9400
-13.2037 7.6595 -1.7413 0.9404
-13.2037 7.5508 -1.7351 0.9406
-13.2038 7.2292 -1.7172 0.9412
-13.2039 7.1234 -1.7115 0.9414
-13.2040 6.8103 -1.6948 0.9419
-13.2042 6.2014 -1.6641 0.9430
-13.2043 5.9050 -1.6501 0.9434
-13.2044 5.8074 -1.6455 0.9436
-13.2044 5.7102 -1.6411 0.9437
-13.2045 5.4217 -1.6283 0.9442
-13.2045 5.3266 -1.6243 0.9443
-13.2046 5.2318 -1.6203 0.9444
-13.2046 5.1376 -1.6163 0.9446
-13.2046 5.0438 -1.6125 0.9447
-13.2047 4.9505 -1.6087 0.9448
-13.1575 4.8402 -1.5993 0.9451
-13.3100 4.6178 -1.6071 0.9449
-13.2563 4.3254 -1.5907 0.9454
-13.2575 4.2352 -1.5877 0.9455
-13.2666 3.5255 -1.5659 0.9462
-13.2677 3.4381 -1.5635 0.9463
-13.1536 3.2354 -1.5452 0.9469
-13.2054 3.1617 -1.5490 0.9468
-13.2054 3.0755 -1.5467 0.9469
-13.2055 2.9896 -1.5445 0.9469
-13.2056 2.6480 -1.5364 0.9472
-13.2057 2.5632 -1.5346 0.9473
-13.2057 2.3941 -1.5310 0.9474
-13.2058 2.3098 -1.5293 0.9475
-13.2058 2.1419 -1.5262 0.9476
-13.2059 2.0582 -1.5247 0.9476
-13.2059 1.9746 -1.5232 0.9477
-13.2060 1.7248 -1.5193 0.9478
-13.2061 1.6418 -1.5181 0.9478
-13.2061 1.5589 -1.5170 0.9479
-13.2062 1.4762 -1.5159 0.9479
-13.2062 1.3936 -1.5149 0.9479
-13.5727 1.3474 -1.5559 0.9466
-14.0971 1.3115 -1.6151 0.9446
-16.7430 1.3490 -1.9162 0.9346
-17.8735 1.3289 -2.0446 0.9304
-19.0558 1.2983 -2.1789 0.9260
-20.4449 1.2660 -2.3367 0.9208
-20.4521 1.1395 -2.3367 0.9208
-20.4585 1.0130 -2.3367 0.9208
-20.4690 0.7599 -2.3366 0.9208
-20.4764 0.5066 -2.3366 0.9208
-20.4791 0.3800 -2.3366 0.9208
-20.4819 0.1267 -2.3365 0.9208
-19.2427 0.0000 -2.3400 0.9254
-13.2073 -0.2450 -1.6063 0.9482
-13.2074 -0.4903 -1.6072 0.9481
-13.2074 -0.5721 -1.6076 0.9481
-13.2075 -0.6540 -1.6080 0.9481
-13.2075 -0.7358 -1.6086 0.9481
-13.2076 -0.8178 -1.6092 0.9481
-13.2076 -0.8999 -1.6098 0.9481
-13.2077 -0.9819 -1.6105 0.9480
-13.2077 -1.0641 -1.6113 0.9480
-13.2078 -1.1464 -1.6122 0.9480
-13.2078 -1.3112 -1.6140 0.9479
-13.2079 -1.3937 -1.6150 0.9479
-13.2079 -1.5591 -1.6173 0.9478
-13.2080 -1.6420 -1.6185 0.9478
-13.2081 -1.7250 -1.6198 0.9477
-13.2081 -1.8915 -1.6225 0.9477
-13.1564 -1.9672 -1.6176 0.9478
-13.3134 -2.0749 -1.6385 0.9472
-13.3135 -2.1593 -1.6401 0.9471
-13.3136 -2.3287 -1.6436 0.9470
-13.3136 -2.4136 -1.6454 0.9469
-13.2645 -2.4896 -1.6412 0.9471
-13.3137 -2.6697 -1.6512 0.9468
-13.2649 -3.0893 -1.6562 0.9466
-13.3142 -3.3624 -1.6699 0.9462
-13.3143 -3.5382 -1.6753 0.9460
-13.2093 -3.8625 -1.6736 0.9461
-13.2093 -3.9513 -1.6766 0.9460
-13.2094 -4.1300 -1.6830 0.9458
-13.2095 -4.2199 -1.6863 0.9457
-13.2096 -4.4007 -1.6931 0.9454
-13.2097 -4.5830 -1.7003 0.9452
-13.2098 -4.6748 -1.7040 0.9451
-13.2099 -4.8595 -1.7116 0.9449
-13.2099 -4.9524 -1.7156 0.9447
-13.2100 -5.0459 -1.7196 0.9446
-13.2102 -5.3288 -1.7322 0.9442
-13.2104 -5.6160 -1.7456 0.9438
-13.2104 -5.7128 -1.7502 0.9437
-13.2105 -5.8100 -1.7549 0.9435
-13.2105 -5.9078 -1.7598 0.9434
-13.2106 -6.0062 -1.7647 0.9432
-13.2107 -6.1051 -1.7697 0.9430
-13.2108 -6.3046 -1.7800 0.9427
-13.2109 -6.4052 -1.7854 0.9426
-13.2112 -6.8140 -1.8076 0.9419
-13.2113 -7.0222 -1.8194 0.9415
-13.2114 -7.1274 -1.8254 0.9413
-13.2114 -7.2333 -1.8316 0.9411
-13.1768 -7.3206 -1.8330 0.9411
-13.3168 -7.5065 -1.8589 0.9403
-13.3169 -7.6155 -1.8655 0.9401
-13.3170 -7.7252 -1.8721 0.9398
-13.3170 -7.8357 -1.8789 0.9396
-13.2677 -8.2551 -1.9002 0.9390
-13.2692 -8.3703 -1.9078 0.9387
-13.2707 -8.4865 -1.9155 0.9385
-13.2723 -8.6036 -1.9234 0.9383
-13.3177 -8.8689 -1.9457 0.9376
-13.3138 -8.9856 -1.9532 0.9373
-13.1608 -9.0013 -1.9389 0.9378
-13.2128 -9.1573 -1.9549 0.9373
-13.2129 -9.2788 -1.9634 0.9370
-13.2129 -9.4014 -1.9720 0.9367
-13.2135 -10.1607 -2.0269 0.9350
-13.2136 -10.2914 -2.0367 0.9347
-13.2137 -10.4234 -2.0466 0.9344
-13.2140 -10.8273 -2.0774 0.9335
-14.0923 -12.2946 -2.2742 0.9274
-13.9177 -12.2946 -2.2582 0.9279
-13.5757 -12.2948 -2.2273 0.9289
-13.4083 -12.2949 -2.2122 0.9293
-13.2153 -12.5771 -2.2185 0.9291
-13.2154 -12.7339 -2.2317 0.9287
-13.2155 -12.8926 -2.2451 0.9283
-13.2156 -13.0532 -2.2588 0.9279
-13.2158 -13.2158 -2.2728 0.9275
-13.2159 -13.3804 -2.2870 0.9270
-13.2160 -13.5471 -2.3014 0.9266
-13.2163 -13.8868 -2.3312 0.9257
-13.0934 -14.2792 -2.3559 0.9249
-12.9184 -14.4429 -2.3564 0.9249
-12.7414 -14.6046 -2.3568 0.9249
-12.6521 -14.6846 -2.3571 0.9249
-12.2901 -14.9993 -2.3581 0.9248
-12.1985 -15.0766 -2.3583 0.9248
-12.1063 -15.1534 -2.3586 0.9248
-11.9205 -15.3052 -2.3591 0.9248
-11.7328 -15.4548 -2.3596 0.9248
-11.6383 -15.5288 -2.3598 0.9248
-11.4479 -15.6750 -2.3604 0.9248
-11.3520 -15.7472 -2.3606 0.9248
-11.2556 -15.8189 -2.3609 0.9248
-11.0616 -15.9605 -2.3614 0.9247
-10.8658 -16.0997 -2.3620 0.9247
-10.7672 -16.1684 -2.3622 0.9247
-10.5689 -16.3041 -2.3628 0.9247
-10.4690 -16.3710 -2.3630 0.9247
-10.0656 -16.6328 -2.3641 0.9247
-9.9637 -16.6967 -2.3644 0.9246
-9.6557 -16.8846 -2.3653 0.9246
-9.5523 -16.9461 -2.3655 0.9246
-9.4484 -17.0069 -2.3658 0.9246
-9.3442 -17.0670 -2.3661 0.9246
-9.2396 -17.1266 -2.3664 0.9246
-9.1346 -17.1855 -2.3667 0.9246
-9.0292 -17.2437 -2.3670 0.9246
-8.7110 -17.4147 -2.3679 0.9245
-8.4436 -17.4151 -2.3535 0.9250
-8.3110 -17.4151 -2.3465 0.9252
-8.0481 -17.4153 -2.3330 0.9256
-7.9178 -17.4153 -2.3264 0.9258
-7.7883 -17.4154 -2.3199 0.9260
-7.6594 -17.4155 -2.3136 0.9262
-7.2770 -17.4157 -2.2953 0.9268
-7.1508 -17.4157 -2.2894 0.9269
-6.1634 -17.4162 -2.2466 0.9283
-5.9221 -17.4163 -2.2370 0.9286
-5.2098 -17.4167 -2.2107 0.9294
-4.9761 -17.4168 -2.2027 0.9296
-4.8598 -17.4168 -2.1989 0.9297
-4.7439 -17.4169 -2.1951 0.9298
-4.3985 -17.4171 -2.1845 0.9302
-4.1701 -17.4172 -2.1779 0.9304
-3.9430 -17.4173 -2.1716 0.9306
-3.8299 -17.4174 -2.1686 0.9307
-3.4925 -17.4175 -2.1602 0.9309
-3.2690 -17.4177 -2.1550 0.9311
-3.0465 -17.4178 -2.1502 0.9312
-2.8250 -17.4179 -2.1458 0.9314
-2.6043 -17.4180 -2.1416 0.9315
-2.4943 -17.4180 -2.1397 0.9316
-2.2749 -17.4182 -2.1361 0.9317
-2.1654 -17.4182 -2.1344 0.9317
-2.0561 -17.4183 -2.1328 0.9318
-1.9470 -17.4183 -2.1313 0.9318
-1.7291 -17.4184 -2.1286 0.9319
-1.4034 -17.4186 -2.1250 0.9320
-1.1868 -17.4187 -2.1231 0.9321
-0.9705 -17.4188 -2.1215 0.9321
-0.8625 -17.4189 -2.1208 0.9321
-0.7545 -17.4189 -2.1202 0.9322
-0.6466 -17.4190 -2.1197 0.9322
-0.4310 -17.4191 -2.1189 0.9322
-0.3232 -17.4191 -2.1186 0.9322
-0.2154 -17.4192 -2.1184 0.9322
0.0000 -17.4193 -2.1182 0.9322
0.1077 -17.4194 -2.1183 0.9322
1.1869 -17.4199 -2.1232 0.9321
1.2952 -17.4199 -2.1242 0.9320
1.5120 -17.4201 -2.1263 0.9320
1.8382 -17.4202 -2.1301 0.9318
2.1657 -17.4204 -2.1347 0.9317
2.4947 -17.4205 -2.1400 0.9315
2.6048 -17.4206 -2.1420 0.9315
2.7150 -17.4207 -2.1440 0.9314
2.9362 -17.4208 -2.1483 0.9313
3.0471 -17.4208 -2.1506 0.9312
3.1583 -17.4209 -2.1530 0.9311
3.3814 -17.4210 -2.1580 0.9310
3.8308 -17.4212 -2.1691 0.9306
4.0574 -17.4213 -2.1752 0.9305
4.1711 -17.4214 -2.1784 0.9304
4.2853 -17.4214 -2.1817 0.9303
4.3493 -16.7838 -2.1084 0.9325
4.4551 -15.9663 -2.0157 0.9354
4.3336 -14.8203 -1.8777 0.9397
4.3512 -14.5458 -1.8463 0.9407
4.3519 -13.6227 -1.7391 0.9440
4.3526 -12.8007 -1.6441 0.9470
4.3528 -12.5462 -1.6149 0.9479
4.3530 -12.3006 -1.5867 0.9488
4.3533 -12.0634 -1.5596 0.9496
4.3534 -11.8343 -1.5334 0.9505
4.3021 -11.2628 -1.4661 0.9526
4.4491 -11.2289 -1.4688 0.9525
4.4592 -11.0544 -1.4495 0.9531
4.4104 -10.7414 -1.4120 0.9543
4.4595 -10.6728 -1.4066 0.9545
4.3035 -9.6230 -1.2819 0.9584
4.3482 -9.5638 -1.2775 0.9586
4.3555 -9.2738 -1.2459 0.9596
4.3559 -8.8443 -1.1989 0.9611
4.3562 -8.4460 -1.1556 0.9624
4.3564 -8.1959 -1.1287 0.9633
4.3567 -7.9572 -1.1032 0.9641
4.3568 -7.8419 -1.0909 0.9645
4.3569 -7.6187 -1.0673 0.9653
4.3572 -7.3014 -1.0340 0.9663
4.3573 -7.1006 -1.0131 0.9670
4.3579 -6.3717 -0.9387 0.9694
4.3580 -6.2880 -0.9303 0.9696
4.3582 -6.0455 -0.9063 0.9704
4.3582 -5.9675 -0.8986 0.9707
4.3583 -5.8907 -0.8911 0.9709
4.3585 -5.6679 -0.8695 0.9716
4.3586 -5.5961 -0.8626 0.9718
4.3586 -5.5253 -0.8558 0.9720
4.3587 -5.4556 -0.8492 0.9723
4.3588 -5.2529 -0.8301 0.9729
4.3590 -5.0591 -0.8121 0.9735
4.3591 -4.9345 -0.8007 0.9738
4.3592 -4.8133 -0.7897 0.9742
4.3592 -4.7539 -0.7843 0.9743
4.3593 -4.5805 -0.7689 0.9748
4.3594 -4.4686 -0.7591 0.9752
4.3595 -4.3595 -0.7497 0.9755
4.3596 -4.3059 -0.7451 0.9756
4.3596 -4.2007 -0.7362 0.9759
4.3596 -4.1491 -0.7319 0.9760
4.3598 -3.9977 -0.7193 0.9764
