ply
format ascii 1.0
element vertex 1595
property float32 x
property float32 y
property float32 z
property float32 I
end_header
6.8516 -2.3297 -2.3505 0.9700
6.9934 -2.3298 -2.3942 0.9695
7.0645 -2.3051 -2.4136 0.9692
7.1066 -2.1737 -2.4138 0.9692
7.1588 -1.9975 -2.4140 0.9692
7.2500 -1.6413 -2.4144 0.9692
7.2602 -1.5964 -2.4144 0.9692
7.3067 -1.3714 -2.4146 0.9692
7.3152 -1.3262 -2.4147 0.9692
7.3462 -1.1449 -2.4148 0.9692
7.3533 -1.0995 -2.4149 0.9692
7.3600 -1.0540 -2.4149 0.9692
7.3665 -1.0085 -2.4149 0.9692
7.4081 -0.6430 -2.4152 0.9692
7.4157 -0.5513 -2.4152 0.9692
7.4249 -0.4137 -2.4153 0.9692
7.4314 -0.2759 -2.4154 0.9692
7.4331 -0.2299 -2.4154 0.9692
7.4344 -0.1839 -2.4154 0.9692
7.4367 -0.0460 -2.4155 0.9692
7.4369 0.0000 -2.4155 0.9692
7.4368 0.0460 -2.4155 0.9692
7.4358 0.1380 -2.4155 0.9692
7.4348 0.1840 -2.4155 0.9692
7.4336 0.2299 -2.4156 0.9692
7.4321 0.2759 -2.4156 0.9692
7.4282 0.3678 -2.4156 0.9692
7.4258 0.4137 -2.4156 0.9692
7.4231 0.4596 -2.4156 0.9692
7.4133 0.5973 -2.4156 0.9692
7.4095 0.6431 -2.4156 0.9692
7.4054 0.6889 -2.4156 0.9692
7.3963 0.7805 -2.4156 0.9692
7.3806 0.9176 -2.4156 0.9692
7.3622 1.0543 -2.4156 0.9692
7.3556 1.0998 -2.4156 0.9692
7.3414 1.1907 -2.4156 0.9692
7.3096 1.3719 -2.4156 0.9692
7.2732 1.5522 -2.4155 0.9692
7.2635 1.5972 -2.4155 0.9692
7.2534 1.6421 -2.4155 0.9692
7.2216 1.7763 -2.4155 0.9692
7.2104 1.8209 -2.4154 0.9692
7.1872 1.9099 -2.4154 0.9692
6.9194 1.9769 -2.3373 0.9702
6.7611 1.9770 -2.2879 0.9708
6.6094 1.9771 -2.2407 0.9714
6.0277 1.9256 -2.0553 0.9737
6.0047 1.9593 -2.0515 0.9738
6.0047 2.0004 -2.0557 0.9737
6.0026 2.0826 -2.0636 0.9736
5.7299 2.0277 -1.9742 0.9748
5.5073 2.0260 -1.9060 0.9756
5.5073 2.0647 -1.9103 0.9756
5.4529 2.0829 -1.8959 0.9757
5.3536 2.0829 -1.8658 0.9761
5.1639 2.0830 -1.8085 0.9769
5.0734 2.0831 -1.7813 0.9772
4.6596 2.0151 -1.6489 0.9789
4.3805 1.9266 -1.5543 0.9801
4.3411 1.9413 -1.5445 0.9802
4.2811 1.9784 -1.5318 0.9804
4.2125 1.9785 -1.5116 0.9806
4.0807 1.9785 -1.4730 0.9811
4.0173 1.9786 -1.4545 0.9813
3.8952 1.9787 -1.4190 0.9818
3.6142 1.9788 -1.3383 0.9828
3.4604 1.9789 -1.2947 0.9834
3.3162 1.9790 -1.2543 0.9839
3.2701 1.9790 -1.2415 0.9841
3.1807 1.9790 -1.2167 0.9844
3.1373 1.9791 -1.2048 0.9845
3.0948 1.9791 -1.1931 0.9847
3.0121 1.9791 -1.1706 0.9850
2.8938 1.9792 -1.1387 0.9854
2.8184 1.9793 -1.1186 0.9856
2.6753 1.9793 -1.0809 0.9861
2.6410 1.9794 -1.0720 0.9862
2.6073 1.9794 -1.0632 0.9863
2.5741 1.9794 -1.0547 0.9864
2.5414 1.9794 -1.0463 0.9865
2.5093 1.9794 -1.0381 0.9866
2.4465 1.9795 -1.0221 0.9869
2.3856 1.9795 -1.0068 0.9870
2.3264 1.9795 -0.9921 0.9872
2.2690 1.9796 -0.9780 0.9874
2.2409 1.9796 -0.9712 0.9875
2.2132 1.9796 -0.9644 0.9876
2.1323 1.9796 -0.9450 0.9878
2.1060 1.9797 -0.9388 0.9879
2.0801 1.9797 -0.9327 0.9880
2.0293 1.9797 -0.9208 0.9881
1.9797 1.9797 -0.9093 0.9883
1.9554 1.9797 -0.9038 0.9884
1.9314 1.9797 -0.8983 0.9884
1.8842 1.9798 -0.8877 0.9886
1.8381 1.9798 -0.8774 0.9887
1.8154 1.9798 -0.8724 0.9888
1.7709 1.9798 -0.8627 0.9889
1.7489 1.9798 -0.8580 0.9890
1.7058 1.9799 -0.8488 0.9891
1.6636 1.9799 -0.8399 0.9892
1.6223 1.9799 -0.8314 0.9893
1.5818 1.9799 -0.8231 0.9894
1.5421 1.9800 -0.8151 0.9895
1.5225 1.9800 -0.8112 0.9896
1.4498 1.9595 -0.7917 0.9898
1.4089 1.9801 -0.7893 0.9898
1.3543 1.9801 -0.7791 0.9900
1.3364 1.9801 -0.7759 0.9900
1.3186 1.9801 -0.7727 0.9900
1.2320 1.9801 -0.7575 0.9902
1.2151 1.9801 -0.7546 0.9903
1.1817 1.9802 -0.7490 0.9903
1.1651 1.9802 -0.7462 0.9904
1.1162 1.9802 -0.7383 0.9905
1.1001 1.9802 -0.7358 0.9905
1.0683 1.9802 -0.7308 0.9906
1.0526 1.9802 -0.7284 0.9906
0.9905 1.9803 -0.7192 0.9907
0.9753 1.9803 -0.7170 0.9908
0.9451 1.9803 -0.7127 0.9908
0.9301 1.9803 -0.7106 0.9908
0.8856 1.9803 -0.7046 0.9909
0.8710 1.9803 -0.7027 0.9909
0.7988 1.9804 -0.6936 0.9911
0.7846 1.9804 -0.6919 0.9911
0.7705 1.9804 -0.6902 0.9911
0.7564 1.9804 -0.6885 0.9911
0.7425 1.9804 -0.6869 0.9911
0.7285 1.9804 -0.6854 0.9912
0.6871 1.9804 -0.6808 0.9912
0.6462 1.9804 -0.6766 0.9913
0.6326 1.9804 -0.6753 0.9913
0.5924 1.9805 -0.6714 0.9913
0.5658 1.9805 -0.6690 0.9914
0.5395 1.9805 -0.6667 0.9914
0.5263 1.9805 -0.6656 0.9914
0.5001 1.9805 -0.6635 0.9914
0.4871 1.9805 -0.6624 0.9915
0.4742 1.9805 -0.6615 0.9915
0.4613 1.9805 -0.6605 0.9915
0.4484 1.9805 -0.6596 0.9915
0.4227 1.9805 -0.6578 0.9915
0.3971 1.9806 -0.6561 0.9915
0.3844 1.9806 -0.6553 0.9916
0.3717 1.9806 -0.6545 0.9916
0.3591 1.9806 -0.6538 0.9916
0.3464 1.9806 -0.6531 0.9916
0.3338 1.9806 -0.6524 0.9916
0.3212 1.9806 -0.6517 0.9916
0.3087 1.9806 -0.6511 0.9916
0.2961 1.9806 -0.6505 0.9916
0.2836 1.9806 -0.6499 0.9916
0.2587 1.9806 -0.6488 0.9916
0.2462 1.9806 -0.6483 0.9916
0.2214 1.9806 -0.6473 0.9917
0.1473 1.9807 -0.6451 0.9917
0.1227 1.9807 -0.6446 0.9917
0.1104 1.9807 -0.6443 0.9917
0.0613 1.9807 -0.6436 0.9917
0.0368 1.9808 -0.6435 0.9917
0.0123 1.9808 -0.6434 0.9917
-0.0367 1.9808 -0.6435 0.9917
-0.0490 1.9808 -0.6436 0.9917
-0.0735 1.9808 -0.6438 0.9917
-0.0981 1.9808 -0.6442 0.9917
-0.1104 1.9808 -0.6444 0.9917
-0.1226 1.9808 -0.6446 0.9917
-0.1349 1.9808 -0.6449 0.9917
-0.1473 1.9809 -0.6452 0.9917
-0.1596 1.9809 -0.6455 0.9917
-0.1843 1.9809 -0.6462 0.9917
-0.2090 1.9809 -0.6470 0.9917
-0.2338 1.9809 -0.6479 0.9916
-0.2463 1.9809 -0.6483 0.9916
-0.2587 1.9809 -0.6489 0.9916
-0.2712 1.9809 -0.6494 0.9916
-0.2962 1.9809 -0.6506 0.9916
-0.3213 1.9809 -0.6518 0.9916
-1.6253 7.1795 -2.3909 0.9695
-1.6696 7.1689 -2.3908 0.9695
-1.7138 7.1580 -2.3906 0.9695
-1.7580 7.1471 -2.3905 0.9695
-1.8461 7.1242 -2.3903 0.9695
-2.1085 7.0489 -2.3897 0.9695
-2.1954 7.0216 -2.3895 0.9695
-2.2386 7.0076 -2.3894 0.9695
-2.3249 6.9787 -2.3892 0.9695
-2.3679 6.9639 -2.3890 0.9695
-2.4108 6.9489 -2.3889 0.9695
-2.5390 6.9020 -2.3886 0.9695
-2.5815 6.8859 -2.3885 0.9695
-2.7085 6.8359 -2.3882 0.9695
-2.7926 6.8013 -2.3880 0.9696
-2.8345 6.7836 -2.3879 0.9696
-2.9179 6.7474 -2.3877 0.9696
-3.1244 6.6526 -2.3872 0.9696
-3.2875 6.5722 -2.3868 0.9696
-3.3279 6.5514 -2.3867 0.9696
-3.3682 6.5305 -2.3866 0.9696
-3.4884 6.4661 -2.3863 0.9696
-3.5678 6.4219 -2.3861 0.9696
-3.6073 6.3995 -2.3860 0.9696
-3.6466 6.3768 -2.3859 0.9696
-3.6859 6.3538 -2.3858 0.9696
-3.7249 6.3306 -2.3857 0.9696
-3.8027 6.2836 -2.3855 0.9696
-3.8412 6.2597 -2.3854 0.9696
-3.8797 6.2356 -2.3853 0.9696
-3.9181 6.2112 -2.3852 0.9696
-4.0699 6.1114 -2.3849 0.9696
-4.1448 6.0602 -2.3847 0.9696
-4.2561 5.9815 -2.3844 0.9696
-4.3658 5.9009 -2.3841 0.9696
-4.4381 5.8460 -2.3839 0.9696
-4.5453 5.7620 -2.3837 0.9696
-4.5807 5.7336 -2.3836 0.9696
-4.7204 5.6177 -2.3832 0.9696
-4.7892 5.5585 -2.3831 0.9696
-4.8233 5.5286 -2.3830 0.9696
-4.8572 5.4984 -2.3829 0.9696
-4.8910 5.4681 -2.3828 0.9696
-4.9245 5.4376 -2.3827 0.9696
-4.9579 5.4068 -2.3827 0.9696
-4.9911 5.3759 -2.3826 0.9696
-5.0894 5.2818 -2.3823 0.9696
-5.2178 5.1536 -2.3820 0.9696
-5.3120 5.0554 -2.3818 0.9696
-5.3430 5.0224 -2.3817 0.9696
-5.3738 4.9891 -2.3816 0.9696
-5.4043 4.9556 -2.3816 0.9696
-5.4347 4.9219 -2.3815 0.9696
-5.4648 4.8880 -2.3814 0.9696
-5.4948 4.8540 -2.3813 0.9696
-5.5246 4.8198 -2.3813 0.9696
-5.5541 4.7854 -2.3812 0.9696
-5.5834 4.7508 -2.3811 0.9696
-5.6701 4.6460 -2.3809 0.9696
-5.6986 4.6107 -2.3808 0.9696
-5.7268 4.5752 -2.3808 0.9696
-5.7548 4.5396 -2.3807 0.9696
-5.7826 4.5038 -2.3806 0.9696
-5.8646 4.3954 -2.3804 0.9696
-5.8915 4.3589 -2.3804 0.9696
-5.9709 4.2485 -2.3802 0.9697
-6.0482 4.1367 -2.3800 0.9697
-6.0735 4.0991 -2.3799 0.9697
-6.1234 4.0234 -2.3798 0.9697
-6.2204 3.8704 -2.3795 0.9697
-6.2907 3.7540 -2.3794 0.9697
-6.3588 3.6364 -2.3792 0.9697
-6.5297 3.3169 -2.3788 0.9697
-6.5700 3.2357 -2.3787 0.9697
-6.6474 3.0720 -2.3785 0.9697
-6.6662 3.0308 -2.3784 0.9697
-6.7561 2.8229 -2.3782 0.9697
-6.8069 2.6970 -2.3781 0.9697
-6.8395 2.6125 -2.3780 0.9697
-6.8554 2.5701 -2.3780 0.9697
-6.9164 2.3996 -2.3778 0.9697
-6.9310 2.3567 -2.3778 0.9697
-6.9731 2.2276 -2.3776 0.9697
-6.9999 2.1412 -2.3775 0.9697
-7.0255 2.0543 -2.3774 0.9697
-7.0501 1.9672 -2.3773 0.9697
-7.0851 1.8360 -2.3772 0.9697
-7.1278 1.6601 -2.3771 0.9697
-7.1571 1.5275 -2.3769 0.9697
-7.1662 1.4831 -2.3769 0.9697
-7.1752 1.4388 -2.3769 0.9697
-7.2230 1.1715 -2.3767 0.9697
-7.2368 1.0821 -2.3766 0.9697
-7.2432 1.0373 -2.3766 0.9697
-7.2495 0.9924 -2.3766 0.9697
-7.2610 0.9027 -2.3765 0.9697
-7.2664 0.8578 -2.3765 0.9697
-7.2763 0.7678 -2.3764 0.9697
-7.2928 0.5876 -2.3763 0.9697
-7.2993 0.4973 -2.3763 0.9697
-7.3048 0.4070 -2.3763 0.9697
-7.3110 0.2714 -2.3762 0.9697
-7.3125 0.2262 -2.3762 0.9697
-7.3153 0.0905 -2.3762 0.9697
-7.3156 0.0452 -2.3761 0.9697
-7.1364 0.0000 -2.3766 0.9704
-7.1341 -0.1765 -2.3766 0.9704
-7.1329 -0.2206 -2.3766 0.9704
-7.1252 -0.3970 -2.3765 0.9704
-7.1132 -0.5731 -2.3765 0.9704
-7.1055 -0.6610 -2.3765 0.9704
-7.1013 -0.7049 -2.3765 0.9704
-7.0921 -0.7927 -2.3765 0.9704
-7.0870 -0.8366 -2.3765 0.9704
-7.0761 -0.9242 -2.3765 0.9704
-7.0703 -0.9679 -2.3766 0.9704
-7.0578 -1.0553 -2.3766 0.9704
-7.0512 -1.0989 -2.3766 0.9704
-7.0443 -1.1425 -2.3766 0.9704
-7.0219 -1.2730 -2.3766 0.9704
-7.0139 -1.3164 -2.3766 0.9704
-7.0057 -1.3598 -2.3766 0.9704
-6.9972 -1.4031 -2.3766 0.9704
-6.9794 -1.4895 -2.3767 0.9704
-6.9605 -1.5758 -2.3767 0.9704
-6.9406 -1.6618 -2.3767 0.9704
-6.9196 -1.7475 -2.3768 0.9704
-6.9087 -1.7903 -2.3768 0.9704
-6.8745 -1.9182 -2.3768 0.9704
-6.8626 -1.9607 -2.3769 0.9704
-6.8504 -2.0031 -2.3769 0.9704
-6.8379 -2.0454 -2.3769 0.9704
-6.8252 -2.0877 -2.3769 0.9704
-6.8122 -2.1299 -2.3769 0.9704
-6.7578 -2.2979 -2.3771 0.9704
-6.7435 -2.3396 -2.3771 0.9704
-6.6992 -2.4644 -2.3772 0.9704
-6.6839 -2.5058 -2.3772 0.9704
-6.6684 -2.5471 -2.3772 0.9704
-6.6526 -2.5884 -2.3773 0.9704
-6.6365 -2.6295 -2.3773 0.9704
-6.6202 -2.6705 -2.3773 0.9704
-6.6037 -2.7115 -2.3774 0.9704
-6.5869 -2.7523 -2.3774 0.9704
-6.5699 -2.7930 -2.3774 0.9704
-6.4992 -2.9548 -2.3776 0.9703
-6.4245 -3.1149 -2.3777 0.9703
-6.3857 -3.1942 -2.3778 0.9703
-6.3659 -3.2337 -2.3779 0.9703
-6.3460 -3.2731 -2.3779 0.9703
-6.2845 -3.3904 -2.3780 0.9703
-6.2635 -3.4293 -2.3781 0.9703
-6.2209 -3.5067 -2.3782 0.9703
-6.1773 -3.5835 -2.3783 0.9703
-6.1551 -3.6217 -2.3783 0.9703
-6.1101 -3.6977 -2.3784 0.9703
-6.0873 -3.7355 -2.3785 0.9703
-6.0642 -3.7731 -2.3785 0.9703
-6.0409 -3.8107 -2.3786 0.9703
-6.0174 -3.8480 -2.3786 0.9703
-5.9696 -3.9223 -2.3788 0.9703
-5.9209 -3.9961 -2.3789 0.9703
-5.8712 -4.0692 -2.3790 0.9703
-5.8462 -4.1055 -2.3790 0.9703
-5.8208 -4.1417 -2.3791 0.9703
-5.7952 -4.1777 -2.3792 0.9703
-5.7694 -4.2136 -2.3792 0.9703
-5.7172 -4.2848 -2.3793 0.9703
-5.6907 -4.3202 -2.3794 0.9703
-5.6640 -4.3554 -2.3795 0.9703
-5.6100 -4.4254 -2.3796 0.9703
-5.5551 -4.4947 -2.3797 0.9703
-5.5274 -4.5291 -2.3798 0.9703
-5.4995 -4.5633 -2.3798 0.9703
-5.4713 -4.5974 -2.3799 0.9703
-5.4143 -4.6649 -2.3801 0.9703
-5.3855 -4.6985 -2.3801 0.9703
-5.3565 -4.7318 -2.3802 0.9703
-5.3273 -4.7650 -2.3803 0.9703
-5.2979 -4.7980 -2.3803 0.9703
-5.2384 -4.8634 -2.3805 0.9703
-5.1782 -4.9282 -2.3806 0.9703
-5.0554 -5.0554 -2.3809 0.9703
-5.0241 -5.0867 -2.3810 0.9703
-4.9928 -5.1178 -2.3811 0.9703
-4.9612 -5.1488 -2.3811 0.9703
-4.9294 -5.1795 -2.3812 0.9703
-4.8653 -5.2404 -2.3814 0.9703
-4.7017 -5.3892 -2.3818 0.9703
-4.6684 -5.4184 -2.3819 0.9703
-4.6350 -5.4474 -2.3819 0.9703
-4.6014 -5.4761 -2.3820 0.9703
-4.5337 -5.5330 -2.3822 0.9703
-4.4995 -5.5611 -2.3823 0.9703
-4.4652 -5.5891 -2.3824 0.9703
-4.4307 -5.6168 -2.3824 0.9703
-4.3960 -5.6443 -2.3825 0.9703
-4.3262 -5.6986 -2.3827 0.9703
-4.2910 -5.7254 -2.3828 0.9703
-4.2557 -5.7521 -2.3829 0.9703
-4.2202 -5.7785 -2.3830 0.9703
-4.1845 -5.8047 -2.3831 0.9703
-4.0766 -5.8820 -2.3833 0.9703
-3.9673 -5.9573 -2.3836 0.9703
-3.9305 -5.9820 -2.3837 0.9703
-3.8935 -6.0064 -2.3838 0.9703
-3.8565 -6.0306 -2.3839 0.9703
-3.8192 -6.0546 -2.3840 0.9703
-3.7444 -6.1018 -2.3842 0.9703
-3.5929 -6.1936 -2.3845 0.9703
-3.5547 -6.2159 -2.3846 0.9703
-3.5163 -6.2380 -2.3847 0.9703
-3.4778 -6.2599 -2.3848 0.9703
-3.4004 -6.3030 -2.3850 0.9703
-3.3615 -6.3241 -2.3851 0.9703
-3.3225 -6.3451 -2.3852 0.9703
-3.2833 -6.3658 -2.3853 0.9703
-3.2046 -6.4064 -2.3855 0.9703
-3.1650 -6.4264 -2.3856 0.9703
-3.1254 -6.4461 -2.3857 0.9702
-3.0856 -6.4656 -2.3858 0.9702
-3.0056 -6.5038 -2.3860 0.9702
-2.9655 -6.5226 -2.3861 0.9702
-2.7630 -6.6126 -2.3867 0.9702
-2.7221 -6.6298 -2.3868 0.9702
-2.6812 -6.6468 -2.3869 0.9702
-2.6402 -6.6636 -2.3870 0.9702
-2.5991 -6.6801 -2.3871 0.9702
-2.4750 -6.7280 -2.3874 0.9702
-2.4334 -6.7435 -2.3875 0.9702
-2.3918 -6.7587 -2.3876 0.9702
-2.2663 -6.8029 -2.3879 0.9702
-2.2243 -6.8171 -2.3880 0.9702
-2.0554 -6.8712 -2.3885 0.9702
-2.0130 -6.8842 -2.3886 0.9702
-1.9704 -6.8968 -2.3887 0.9702
-1.9278 -6.9092 -2.3888 0.9702
-1.8424 -6.9331 -2.3890 0.9702
-1.7996 -6.9447 -2.3891 0.9702
-1.7137 -6.9671 -2.3894 0.9702
-1.6276 -6.9884 -2.3896 0.9702
-1.5844 -6.9987 -2.3897 0.9702
-1.5411 -7.0087 -2.3898 0.9702
-1.4545 -7.0279 -2.3901 0.9702
-1.2368 -7.0712 -2.3906 0.9702
-1.1931 -7.0790 -2.3907 0.9702
-1.1056 -7.0939 -2.3910 0.9702
-0.9300 -7.1205 -2.3914 0.9702
-0.7537 -7.1427 -2.3919 0.9702
-0.7095 -7.1475 -2.3920 0.9702
-0.2164 -2.3257 -0.7779 0.9902
-0.2019 -2.3258 -0.7774 0.9902
-0.1729 -2.3258 -0.7767 0.9902
-0.1440 -2.3258 -0.7760 0.9902
-0.0287 -2.3258 -0.7746 0.9902
-0.0144 -2.3258 -0.7746 0.9902
0.0000 -2.3259 -0.7746 0.9902
0.0432 -2.3259 -0.7747 0.9902
0.0575 -2.3259 -0.7748 0.9902
0.0864 -2.3259 -0.7751 0.9902
0.1008 -2.3259 -0.7753 0.9902
0.1152 -2.3259 -0.7755 0.9902
0.1585 -2.3259 -0.7764 0.9902
0.1729 -2.3259 -0.7767 0.9902
0.1874 -2.3259 -0.7771 0.9902
0.2019 -2.3260 -0.7775 0.9902
0.2309 -2.3260 -0.7784 0.9902
0.2600 -2.3260 -0.7794 0.9902
0.2746 -2.3260 -0.7800 0.9902
0.2892 -2.3260 -0.7806 0.9902
0.3038 -2.3260 -0.7812 0.9902
0.3184 -2.3260 -0.7818 0.9902
0.3331 -2.3260 -0.7825 0.9901
0.3478 -2.3260 -0.7832 0.9901
0.3625 -2.3261 -0.7840 0.9901
0.4366 -2.3261 -0.7882 0.9901
0.4515 -2.3261 -0.7891 0.9901
0.4814 -2.3261 -0.7911 0.9900
0.4964 -2.3261 -0.7921 0.9900
0.5115 -2.3261 -0.7932 0.9900
0.5266 -2.3261 -0.7943 0.9900
0.5569 -2.3262 -0.7966 0.9900
0.6028 -2.3262 -0.8003 0.9899
0.6646 -2.3262 -0.8057 0.9899
0.6958 -2.3262 -0.8086 0.9898
0.7115 -2.3262 -0.8101 0.9898
0.7431 -2.3262 -0.8133 0.9898
0.8233 -2.3263 -0.8218 0.9897
0.8395 -2.3263 -0.8236 0.9896
0.8558 -2.3263 -0.8255 0.9896
0.8886 -2.3263 -0.8293 0.9896
0.9051 -2.3263 -0.8313 0.9895
0.9218 -2.3263 -0.8333 0.9895
0.9384 -2.3263 -0.8354 0.9895
0.9552 -2.3264 -0.8375 0.9895
0.9890 -2.3264 -0.8418 0.9894
1.0232 -2.3264 -0.8464 0.9893
1.0404 -2.3264 -0.8487 0.9893
1.1103 -2.3264 -0.8585 0.9892
1.1818 -2.3265 -0.8690 0.9891
1.1999 -2.3265 -0.8718 0.9890
1.2182 -2.3265 -0.8746 0.9890
1.2366 -2.3265 -0.8774 0.9890
1.2738 -2.3265 -0.8833 0.9889
1.2926 -2.3265 -0.8863 0.9888
1.3305 -2.3266 -0.8926 0.9888
1.3496 -2.3266 -0.8957 0.9887
1.3690 -2.3266 -0.8990 0.9887
1.3884 -2.3266 -0.9023 0.9886
1.4080 -2.3266 -0.9057 0.9886
1.4277 -2.3266 -0.9091 0.9886
1.4476 -2.3266 -0.9126 0.9885
1.4677 -2.3266 -0.9161 0.9885
1.4879 -2.3266 -0.9197 0.9884
1.4967 -2.3088 -0.9163 0.9885
1.5197 -2.2517 -0.9047 0.9886
1.6340 -2.3267 -0.9468 0.9881
1.6556 -2.3268 -0.9510 0.9880
1.6774 -2.3268 -0.9552 0.9880
1.7215 -2.3268 -0.9639 0.9879
1.7439 -2.3268 -0.9684 0.9878
1.7664 -2.3268 -0.9729 0.9878
1.7893 -2.3268 -0.9775 0.9877
1.8123 -2.3268 -0.9822 0.9876
1.8590 -2.3269 -0.9918 0.9875
1.8827 -2.3269 -0.9968 0.9875
1.9308 -2.3269 -1.0070 0.9873
1.9553 -2.3269 -1.0122 0.9873
2.1338 -2.3270 -1.0514 0.9868
2.1604 -2.3270 -1.0575 0.9867
2.1874 -2.3271 -1.0636 0.9866
2.2147 -2.3271 -1.0698 0.9865
2.3271 -2.3271 -1.0960 0.9862
2.4152 -2.3272 -1.1169 0.9860
2.4453 -2.3272 -1.1242 0.9859
2.5067 -2.3272 -1.1391 0.9857
2.5380 -2.3273 -1.1468 0.9856
2.6019 -2.3273 -1.1626 0.9854
2.6346 -2.3273 -1.1707 0.9853
2.7012 -2.3273 -1.1874 0.9851
2.7353 -2.3274 -1.1960 0.9850
2.8049 -2.3274 -1.2138 0.9848
2.9133 -2.3275 -1.2418 0.9844
2.9505 -2.3275 -1.2515 0.9843
2.9884 -2.3275 -1.2614 0.9842
3.1056 -2.3276 -1.2925 0.9838
3.1460 -2.3276 -1.3033 0.9836
3.2288 -2.3276 -1.3256 0.9834
3.2713 -2.3277 -1.3371 0.9832
3.4034 -2.3278 -1.3732 0.9828
3.4490 -2.3278 -1.3857 0.9826
3.4955 -2.3278 -1.3986 0.9825
3.5428 -2.3278 -1.4117 0.9823
3.5910 -2.3279 -1.4252 0.9821
3.6402 -2.3279 -1.4390 0.9819
3.8468 -2.3280 -1.4974 0.9812
4.0133 -2.3281 -1.5451 0.9806
4.1907 -2.3282 -1.5965 0.9800
4.2525 -2.3282 -1.6145 0.9798
4.3157 -2.3283 -1.6330 0.9795
4.4385 -2.3241 -1.6685 0.9791
4.9743 -2.3738 -1.8355 0.9770
5.1824 -2.4339 -1.9067 0.9762
5.2669 -2.4340 -1.9322 0.9758
5.3151 -2.3770 -1.9390 0.9758
5.6289 -2.4342 -2.0423 0.9745
5.8259 -2.4343 -2.1027 0.9737
5.9288 -2.4343 -2.1344 0.9733
6.0350 -2.4344 -2.1672 0.9729
6.1020 -2.4177 -2.1858 0.9727
6.1021 -2.3742 -2.1805 0.9728
6.3323 -2.3294 -2.2470 0.9720
6.5829 -2.3296 -2.3255 0.9710
6.7149 -2.3297 -2.3670 0.9705
6.8516 -2.3297 -2.4101 0.9700
6.8743 -2.2901 -2.4130 0.9699
6.8886 -2.2476 -2.4131 0.9699
6.9161 -2.1624 -2.4132 0.9699
6.9295 -2.1196 -2.4132 0.9699
6.9427 -2.0768 -2.4133 0.9699
6.9555 -2.0338 -2.4134 0.9699
6.9681 -1.9908 -2.4134 0.9699
6.9804 -1.9477 -2.4135 0.9699
6.9925 -1.9046 -2.4135 0.9699
7.0381 -1.7312 -2.4137 0.9699
7.0488 -1.6876 -2.4138 0.9699
7.0592 -1.6440 -2.4138 0.9699
7.0793 -1.5567 -2.4139 0.9699
7.0888 -1.5129 -2.4139 0.9699
7.1073 -1.4251 -2.4140 0.9699
7.1161 -1.3812 -2.4141 0.9699
7.1329 -1.2931 -2.4141 0.9699
7.1560 -1.1606 -2.4143 0.9699
7.1700 -1.0721 -2.4143 0.9699
7.1766 -1.0277 -2.4144 0.9699
7.1829 -0.9833 -2.4144 0.9699
7.1889 -0.9389 -2.4144 0.9699
7.2002 -0.8499 -2.4145 0.9699
7.2194 -0.6716 -2.4146 0.9699
7.2235 -0.6270 -2.4146 0.9699
7.2273 -0.5823 -2.4147 0.9699
7.2308 -0.5376 -2.4147 0.9699
7.2341 -0.4929 -2.4147 0.9699
7.2398 -0.4034 -2.4148 0.9699
7.2509 -0.0897 -2.4149 0.9699
7.2515 0.0000 -2.4149 0.9699
7.2511 0.0897 -2.4150 0.9699
7.2504 0.1345 -2.4150 0.9699
7.2495 0.1794 -2.4150 0.9699
7.2450 0.3138 -2.4150 0.9699
7.2430 0.3586 -2.4150 0.9699
7.2406 0.4034 -2.4150 0.9699
7.2380 0.4482 -2.4151 0.9699
7.2320 0.5377 -2.4151 0.9699
7.2248 0.6271 -2.4151 0.9699
7.2208 0.6717 -2.4151 0.9699
7.2071 0.8056 -2.4151 0.9699
7.1966 0.8947 -2.4151 0.9699
7.1909 0.9392 -2.4151 0.9699
7.1849 0.9836 -2.4151 0.9699
7.1787 1.0280 -2.4151 0.9699
7.1654 1.1167 -2.4151 0.9699
7.1355 1.2936 -2.4150 0.9699
7.1274 1.3377 -2.4150 0.9699
7.1189 1.3817 -2.4150 0.9699
7.1102 1.4257 -2.4150 0.9699
7.1012 1.4697 -2.4150 0.9699
7.0824 1.5574 -2.4150 0.9699
7.0415 1.7320 -2.4149 0.9699
7.0306 1.7755 -2.4149 0.9699
7.0195 1.8190 -2.4149 0.9699
7.0080 1.8623 -2.4149 0.9699
6.9963 1.9056 -2.4148 0.9699
6.7611 1.9770 -2.3459 0.9707
6.6093 1.9771 -2.2974 0.9713
6.0277 1.9256 -2.1073 0.9737
6.0045 1.9592 -2.1034 0.9737
6.0046 2.0004 -2.1077 0.9737
6.0046 2.0417 -2.1121 0.9736
5.8850 2.0826 -2.0790 0.9740
5.6154 2.0264 -1.9881 0.9751
5.3535 2.0829 -1.9131 0.9761
5.2572 2.0830 -1.8832 0.9764
4.8174 2.0832 -1.7479 0.9781
4.3804 1.9266 -1.5937 0.9800
4.2810 1.9784 -1.5706 0.9803
4.2125 1.9785 -1.5499 0.9806
4.1458 1.9785 -1.5298 0.9808
4.0173 1.9786 -1.4913 0.9813
3.9555 1.9786 -1.4729 0.9815
3.7227 1.9787 -1.4040 0.9824
3.6678 1.9787 -1.3879 0.9826
3.5618 1.9788 -1.3569 0.9830
3.5105 1.9788 -1.3420 0.9832
3.4604 1.9789 -1.3275 0.9833
3.4113 1.9789 -1.3134 0.9835
3.3633 1.9789 -1.2995 0.9837
3.3162 1.9790 -1.2861 0.9839
3.2701 1.9790 -1.2729 0.9840
3.2250 1.9790 -1.2601 0.9842
3.1807 1.9790 -1.2476 0.9843
3.0531 1.9791 -1.2117 0.9848
3.0121 1.9791 -1.2003 0.9849
2.9719 1.9791 -1.1891 0.9851
2.8938 1.9792 -1.1675 0.9853
2.8557 1.9792 -1.1571 0.9855
2.7817 1.9793 -1.1369 0.9857
2.7456 1.9793 -1.1272 0.9858
2.5414 1.9794 -1.0728 0.9865
2.4776 1.9795 -1.0561 0.9867
2.4158 1.9795 -1.0401 0.9869
2.3558 1.9795 -1.0247 0.9871
2.3264 1.9795 -1.0173 0.9872
2.2690 1.9796 -1.0028 0.9874
2.2409 1.9796 -0.9958 0.9875
2.1858 1.9796 -0.9821 0.9876
2.1589 1.9796 -0.9755 0.9877
2.1060 1.9796 -0.9626 0.9879
2.0293 1.9797 -0.9441 0.9881
1.9797 1.9797 -0.9324 0.9883
1.9314 1.9797 -0.9211 0.9884
1.9076 1.9797 -0.9156 0.9885
1.8842 1.9798 -0.9102 0.9885
1.8381 1.9798 -0.8997 0.9887
1.8154 1.9798 -0.8945 0.9887
1.7709 1.9798 -0.8846 0.9889
1.7489 1.9798 -0.8797 0.9889
1.6846 1.9799 -0.8657 0.9891
1.5818 1.9799 -0.8440 0.9894
1.5619 1.9799 -0.8398 0.9894
1.5421 1.9800 -0.8358 0.9895
1.4714 1.9135 -0.8039 0.9899
1.4523 1.9130 -0.7999 0.9899
1.4371 1.9175 -0.7980 0.9899
1.4126 1.9595 -0.8045 0.9899
1.3905 1.9801 -0.8058 0.9899
1.3543 1.9801 -0.7989 0.9899
1.3363 1.9801 -0.7955 0.9900
1.3186 1.9801 -0.7923 0.9900
1.2836 1.9801 -0.7858 0.9901
1.2320 1.9801 -0.7767 0.9902
1.2151 1.9802 -0.7737 0.9903
1.1983 1.9802 -0.7708 0.9903
1.1651 1.9802 -0.7651 0.9904
1.1324 1.9802 -0.7597 0.9904
1.0683 1.9802 -0.7493 0.9906
1.0525 1.9802 -0.7468 0.9906
1.0214 1.9802 -0.7420 0.9907
1.0059 1.9803 -0.7397 0.9907
0.9753 1.9803 -0.7351 0.9907
0.9601 1.9803 -0.7329 0.9908
0.9004 1.9803 -0.7244 0.9909
0.8419 1.9803 -0.7166 0.9910
0.7705 1.9804 -0.7077 0.9911
0.7564 1.9804 -0.7060 0.9911
0.7424 1.9804 -0.7043 0.9911
0.7146 1.9804 -0.7011 0.9912
0.6462 1.9804 -0.6938 0.9913
0.6058 1.9805 -0.6897 0.9913
0.5658 1.9805 -0.6859 0.9914
0.5526 1.9805 -0.6847 0.9914
0.5132 1.9805 -0.6813 0.9914
0.5002 1.9805 -0.6803 0.9914
0.4742 1.9805 -0.6782 0.9915
0.4612 1.9805 -0.6772 0.9915
0.4484 1.9805 -0.6763 0.9915
0.4355 1.9805 -0.6753 0.9915
0.4227 1.9805 -0.6744 0.9915
0.3971 1.9806 -0.6727 0.9915
0.3844 1.9806 -0.6719 0.9915
0.3591 1.9806 -0.6703 0.9915
0.3464 1.9806 -0.6696 0.9916
0.3338 1.9806 -0.6689 0.9916
0.2961 1.9806 -0.6669 0.9916
0.2712 1.9806 -0.6658 0.9916
0.2462 1.9807 -0.6647 0.9916
0.2214 1.9806 -0.6637 0.9916
0.2090 1.9807 -0.6633 0.9916
0.1966 1.9807 -0.6629 0.9916
0.1719 1.9807 -0.6621 0.9917
0.1104 1.9807 -0.6607 0.9917
0.0981 1.9807 -0.6604 0.9917
0.0858 1.9807 -0.6603 0.9917
0.0735 1.9807 -0.6601 0.9917
0.0368 1.9807 -0.6598 0.9917
0.0123 1.9808 -0.6597 0.9917
0.0000 1.9808 -0.6596 0.9917
-0.0245 1.9808 -0.6597 0.9917
-0.0368 1.9808 -0.6598 0.9917
-0.0490 1.9808 -0.6599 0.9917
-0.0613 1.9808 -0.6600 0.9917
-0.0858 1.9808 -0.6603 0.9917
-0.1227 1.9808 -0.6609 0.9917
-0.1349 1.9808 -0.6612 0.9917
-0.1719 1.9808 -0.6622 0.9917
-0.1843 1.9809 -0.6625 0.9916
-0.2090 1.9809 -0.6633 0.9916
-0.2338 1.9809 -0.6643 0.9916
-0.2587 1.9809 -0.6653 0.9916
-0.2712 1.9809 -0.6658 0.9916
-0.2837 1.9809 -0.6664 0.9916
-0.2962 1.9809 -0.6670 0.9916
-0.3087 1.9809 -0.6677 0.9916
-0.3213 1.9809 -0.6683 0.9916
-1.2376 7.0753 -2.3920 0.9702
-1.4119 7.0410 -2.3915 0.9702
-1.4553 7.0317 -2.3914 0.9702
-1.4987 7.0222 -2.3912 0.9702
-1.5419 7.0123 -2.3911 0.9702
-1.6284 6.9920 -2.3908 0.9702
-1.7146 6.9708 -2.3907 0.9702
-1.8006 6.9485 -2.3904 0.9702
-1.8434 6.9369 -2.3903 0.9702
-1.9289 6.9129 -2.3901 0.9702
-2.1412 6.8485 -2.3896 0.9702
-2.2676 6.8067 -2.3893 0.9702
-2.3096 6.7923 -2.3892 0.9702
-2.3514 6.7776 -2.3891 0.9702
-2.3932 6.7626 -2.3890 0.9702
-2.5179 6.7162 -2.3887 0.9702
-2.6006 6.6839 -2.3885 0.9702
-2.6828 6.6507 -2.3883 0.9702
-2.7238 6.6337 -2.3882 0.9702
-2.8460 6.5812 -2.3879 0.9702
-3.0074 6.5077 -2.3875 0.9702
-3.1272 6.4500 -2.3872 0.9702
-3.1669 6.4303 -2.3871 0.9702
-3.2065 6.4103 -2.3870 0.9702
-3.2460 6.3901 -2.3869 0.9702
-3.2853 6.3697 -2.3868 0.9702
-3.3245 6.3490 -2.3867 0.9702
-3.3636 6.3280 -2.3866 0.9702
-3.4025 6.3069 -2.3865 0.9702
-3.4413 6.2854 -2.3864 0.9702
-3.4800 6.2638 -2.3863 0.9702
-3.5569 6.2198 -2.3861 0.9702
-3.9330 5.9857 -2.3852 0.9703
-4.0063 5.9362 -2.3850 0.9703
-4.1513 5.8344 -2.3846 0.9703
-4.2229 5.7821 -2.3845 0.9703
-4.2584 5.7557 -2.3844 0.9703
-4.2938 5.7291 -2.3843 0.9703
-4.3289 5.7022 -2.3842 0.9703
-4.3639 5.6751 -2.3841 0.9703
-4.3988 5.6478 -2.3840 0.9703
-4.4335 5.6203 -2.3840 0.9703
-4.5023 5.5646 -2.3838 0.9703
-4.6714 5.4218 -2.3834 0.9703
-4.7047 5.3927 -2.3833 0.9703
-4.7378 5.3633 -2.3832 0.9703
-4.8683 5.2437 -2.3829 0.9703
-4.9005 5.2134 -2.3828 0.9703
-4.9643 5.1520 -2.3826 0.9703
-5.0273 5.0899 -2.3825 0.9703
-5.0585 5.0585 -2.3824 0.9703
-5.0896 5.0270 -2.3823 0.9703
-5.1204 4.9953 -2.3823 0.9703
-5.1814 4.9312 -2.3821 0.9703
-5.2417 4.8665 -2.3820 0.9703
-5.2716 4.8338 -2.3819 0.9703
-5.3306 4.7679 -2.3817 0.9703
-5.3888 4.7013 -2.3816 0.9703
-5.4462 4.6341 -2.3814 0.9703
-5.4746 4.6002 -2.3814 0.9703
-5.5586 4.4974 -2.3812 0.9703
-5.6134 4.4281 -2.3810 0.9703
-5.6674 4.3581 -2.3809 0.9703
-5.7206 4.2874 -2.3808 0.9703
-5.7729 4.2161 -2.3806 0.9703
-5.8496 4.1079 -2.3805 0.9703
-5.8997 4.0351 -2.3803 0.9703
-5.9244 3.9984 -2.3803 0.9703
-5.9488 3.9616 -2.3802 0.9703
-5.9971 3.8875 -2.3801 0.9703
-6.0444 3.8129 -2.3800 0.9703
-6.0677 3.7753 -2.3799 0.9703
-6.0908 3.7376 -2.3799 0.9703
-6.1586 3.6237 -2.3797 0.9703
-6.2027 3.5471 -2.3796 0.9703
-6.2244 3.5086 -2.3795 0.9703
-6.2458 3.4700 -2.3795 0.9703
-6.2880 3.3923 -2.3794 0.9703
-6.3087 3.3533 -2.3793 0.9703
-6.3292 3.3141 -2.3793 0.9703
-6.3694 3.2355 -2.3792 0.9703
-6.4470 3.0767 -2.3790 0.9703
-6.4658 3.0367 -2.3789 0.9703
-6.4843 2.9966 -2.3789 0.9703
-6.5026 2.9564 -2.3788 0.9703
-6.5206 2.9161 -2.3788 0.9703
-6.5384 2.8756 -2.3787 0.9703
-6.5560 2.8351 -2.3787 0.9703
-6.6071 2.7128 -2.3786 0.9703
-6.6399 2.6308 -2.3785 0.9703
-6.6559 2.5896 -2.3784 0.9703
-6.6717 2.5484 -2.3784 0.9703
-6.7025 2.4656 -2.3783 0.9703
-6.7322 2.3825 -2.3783 0.9703
-6.7610 2.2989 -2.3782 0.9703
-6.7750 2.2571 -2.3782 0.9703
-6.8153 2.1308 -2.3780 0.9703
-6.8409 2.0463 -2.3779 0.9703
-6.8533 2.0039 -2.3779 0.9703
-6.8773 1.9189 -2.3778 0.9703
-6.8889 1.8763 -2.3778 0.9703
-6.9002 1.8337 -2.3777 0.9703
-6.9222 1.7481 -2.3776 0.9703
-6.9327 1.7053 -2.3776 0.9703
-6.9430 1.6623 -2.3776 0.9703
-6.9531 1.6193 -2.3775 0.9703
-6.9906 1.4468 -2.3774 0.9704
-6.9993 1.4035 -2.3773 0.9704
-7.0077 1.3602 -2.3773 0.9704
-7.0159 1.3168 -2.3773 0.9704
-7.0238 1.2734 -2.3772 0.9704
-7.0388 1.1863 -2.3772 0.9704
-7.0460 1.1428 -2.3771 0.9704
-7.0528 1.0992 -2.3771 0.9704
-7.0594 1.0555 -2.3771 0.9704
-7.0775 0.9243 -2.3770 0.9704
-7.0830 0.8805 -2.3770 0.9704
-7.0882 0.8367 -2.3770 0.9704
-7.0932 0.7929 -2.3769 0.9704
-7.1104 0.6172 -2.3768 0.9704
-7.1140 0.5732 -2.3768 0.9704
-7.1204 0.4851 -2.3768 0.9704
-7.1300 0.3089 -2.3767 0.9704
-7.1344 0.1765 -2.3767 0.9704
-7.1353 0.1324 -2.3767 0.9704
-7.1363 0.0441 -2.3766 0.9704
-6.9643 -0.0861 -2.3771 0.9710
-6.9636 -0.1292 -2.3770 0.9710
-6.9599 -0.2584 -2.3770 0.9710
-6.9582 -0.3014 -2.3770 0.9710
-6.9562 -0.3444 -2.3770 0.9710
-6.9455 -0.5164 -2.3770 0.9710
-6.9386 -0.6022 -2.3770 0.9710
-6.9347 -0.6451 -2.3770 0.9710
-6.9306 -0.6880 -2.3770 0.9710
-6.9166 -0.8165 -2.3770 0.9710
-6.9115 -0.8592 -2.3770 0.9710
-6.9061 -0.9020 -2.3770 0.9710
-6.9004 -0.9446 -2.3770 0.9710
-6.8882 -1.0299 -2.3770 0.9710
-6.8817 -1.0725 -2.3770 0.9710
-6.8679 -1.1575 -2.3770 0.9710
-6.8607 -1.2000 -2.3771 0.9710
-6.7932 -1.5379 -2.3771 0.9710
-6.7637 -1.6637 -2.3772 0.9710
-6.7533 -1.7055 -2.3772 0.9710
-6.7207 -1.8305 -2.3773 0.9710
-6.6735 -1.9962 -2.3774 0.9710
-6.6611 -2.0375 -2.3774 0.9710
-6.6355 -2.1198 -2.3774 0.9710
-6.6224 -2.1608 -2.3774 0.9710
-6.5672 -2.3241 -2.3776 0.9710
-6.5528 -2.3647 -2.3776 0.9710
-6.5381 -2.4052 -2.3776 0.9710
-6.4926 -2.5261 -2.3777 0.9710
-6.4611 -2.6063 -2.3778 0.9710
-6.3950 -2.7655 -2.3779 0.9710
-6.3778 -2.8050 -2.3779 0.9710
-6.3605 -2.8444 -2.3780 0.9710
-6.3069 -2.9621 -2.3781 0.9710
-6.2512 -3.0787 -2.3782 0.9710
-6.2128 -3.1559 -2.3783 0.9710
-6.1933 -3.1944 -2.3783 0.9710
-6.1736 -3.2327 -2.3784 0.9710
-6.1536 -3.2708 -2.3784 0.9710
-6.1333 -3.3089 -2.3785 0.9710
-6.1129 -3.3468 -2.3785 0.9710
-6.0922 -3.3846 -2.3786 0.9710
-6.0712 -3.4223 -2.3786 0.9710
-6.0071 -3.5346 -2.3787 0.9710
-5.9852 -3.5717 -2.3788 0.9710
-5.9408 -3.6456 -2.3789 0.9710
-5.9183 -3.6824 -2.3789 0.9710
-5.8494 -3.7918 -2.3791 0.9710
-5.7784 -3.8999 -2.3793 0.9710
-5.7055 -4.0067 -2.3794 0.9710
-5.6558 -4.0772 -2.3796 0.9710
-5.6306 -4.1122 -2.3796 0.9710
-5.6052 -4.1470 -2.3797 0.9710
-5.5796 -4.1817 -2.3797 0.9710
-5.5014 -4.2848 -2.3799 0.9710
-5.4750 -4.3189 -2.3800 0.9710
-5.4483 -4.3528 -2.3800 0.9710
-5.3671 -4.4535 -2.3802 0.9710
-5.3396 -4.4867 -2.3803 0.9710
-5.3118 -4.5197 -2.3804 0.9710
-5.2276 -4.6179 -2.3806 0.9709
-5.1990 -4.6503 -2.3806 0.9709
-5.1414 -4.7145 -2.3808 0.9709
-4.9939 -4.8719 -2.3811 0.9709
-4.9638 -4.9029 -2.3812 0.9709
-4.8725 -4.9946 -2.3814 0.9709
-4.8417 -5.0248 -2.3815 0.9709
-4.8107 -5.0548 -2.3816 0.9709
-4.7481 -5.1142 -2.3817 0.9709
-4.6529 -5.2019 -2.3820 0.9709
-4.6207 -5.2308 -2.3820 0.9709
-4.5885 -5.2595 -2.3821 0.9709
-4.5560 -5.2879 -2.3822 0.9709
-4.4906 -5.3442 -2.3824 0.9709
-4.4244 -5.3997 -2.3825 0.9709
-4.3576 -5.4544 -2.3827 0.9709
-4.2220 -5.5613 -2.3830 0.9709
-4.1876 -5.5875 -2.3831 0.9709
-4.0837 -5.6648 -2.3834 0.9709
-4.0487 -5.6902 -2.3834 0.9709
-4.0136 -5.7153 -2.3835 0.9709
-3.9784 -5.7402 -2.3836 0.9709
-3.9429 -5.7649 -2.3837 0.9709
-3.9073 -5.7895 -2.3838 0.9709
-3.8716 -5.8137 -2.3839 0.9709
-3.7997 -5.8616 -2.3841 0.9709
-3.7272 -5.9086 -2.3843 0.9709
-3.6907 -5.9317 -2.3843 0.9709
-3.5434 -6.0221 -2.3847 0.9709
-3.4315 -6.0876 -2.3850 0.9709
-3.3939 -6.1089 -2.3851 0.9709
-3.3562 -6.1301 -2.3852 0.9709
-3.2804 -6.1716 -2.3854 0.9709
-3.2423 -6.1920 -2.3855 0.9709
-3.1657 -6.2321 -2.3857 0.9709
-3.0887 -6.2713 -2.3859 0.9709
-3.0499 -6.2906 -2.3860 0.9709
-2.9331 -6.3469 -2.3863 0.9709
-2.8939 -6.3652 -2.3864 0.9709
-2.8546 -6.3832 -2.3865 0.9709
-2.7757 -6.4186 -2.3867 0.9709
-2.7360 -6.4359 -2.3868 0.9709
-2.6564 -6.4698 -2.3870 0.9709
-2.5764 -6.5027 -2.3872 0.9709
-2.5363 -6.5188 -2.3873 0.9709
-2.4152 -6.5656 -2.3876 0.9709
-2.3341 -6.5955 -2.3878 0.9709
-2.2933 -6.6101 -2.3879 0.9709
-2.2116 -6.6386 -2.3881 0.9709
-2.0884 -6.6794 -2.3884 0.9709
-2.0471 -6.6924 -2.3886 0.9709
-1.9228 -6.7302 -2.3889 0.9708
-1.8812 -6.7423 -2.3890 0.9708
-1.7979 -6.7656 -2.3892 0.9708
-1.7142 -6.7880 -2.3894 0.9708
-1.6723 -6.7987 -2.3895 0.9708
-1.6303 -6.8093 -2.3896 0.9708
-1.5039 -6.8393 -2.3900 0.9708
-1.3770 -6.8670 -2.3903 0.9708
-1.2495 -6.8923 -2.3906 0.9708
-1.2070 -6.9002 -2.3907 0.9708
-1.1216 -6.9153 -2.3910 0.9708
-1.0788 -6.9224 -2.3911 0.9708
-0.8645 -6.9541 -2.3916 0.9708
-0.8215 -6.9596 -2.3918 0.9708
-0.7785 -6.9649 -2.3919 0.9708
-0.2164 -2.3258 -0.7972 0.9902
-0.2019 -2.3258 -0.7968 0.9902
-0.1729 -2.3258 -0.7960 0.9902
-0.1585 -2.3258 -0.7956 0.9902
-0.1440 -2.3258 -0.7953 0.9902
-0.1296 -2.3258 -0.7950 0.9902
-0.0719 -2.3258 -0.7942 0.9902
-0.0431 -2.3258 -0.7939 0.9902
-0.0287 -2.3258 -0.7939 0.9902
-0.0144 -2.3259 -0.7938 0.9902
0.0000 -2.3259 -0.7938 0.9902
0.0144 -2.3259 -0.7938 0.9902
0.0288 -2.3259 -0.7939 0.9902
0.0432 -2.3259 -0.7939 0.9902
0.0576 -2.3259 -0.7941 0.9902
0.2164 -2.3260 -0.7973 0.9902
0.2746 -2.3260 -0.7994 0.9901
0.2892 -2.3260 -0.8000 0.9901
0.3184 -2.3260 -0.8013 0.9901
0.3331 -2.3260 -0.8020 0.9901
0.3478 -2.3260 -0.8027 0.9901
0.3625 -2.3260 -0.8035 0.9901
0.3773 -2.3260 -0.8042 0.9901
0.4814 -2.3261 -0.8107 0.9900
0.5115 -2.3261 -0.8129 0.9900
0.5418 -2.3262 -0.8151 0.9900
0.5569 -2.3262 -0.8163 0.9899
0.5722 -2.3262 -0.8176 0.9899
0.6028 -2.3262 -0.8201 0.9899
0.6182 -2.3262 -0.8215 0.9899
0.6336 -2.3262 -0.8228 0.9899
0.6491 -2.3262 -0.8242 0.9898
0.6646 -2.3262 -0.8257 0.9898
0.6802 -2.3262 -0.8272 0.9898
0.7115 -2.3262 -0.8302 0.9898
0.7591 -2.3262 -0.8351 0.9897
0.7750 -2.3263 -0.8368 0.9897
0.7910 -2.3263 -0.8386 0.9897
0.8071 -2.3263 -0.8404 0.9896
0.8395 -2.3263 -0.8441 0.9896
0.8558 -2.3263 -0.8460 0.9896
0.8721 -2.3263 -0.8479 0.9896
0.8886 -2.3263 -0.8499 0.9895
0.9051 -2.3263 -0.8519 0.9895
0.9217 -2.3263 -0.8540 0.9895
0.9552 -2.3264 -0.8583 0.9894
1.0577 -2.3264 -0.8722 0.9893
1.0751 -2.3264 -0.8747 0.9892
1.1103 -2.3264 -0.8798 0.9892
1.1458 -2.3265 -0.8851 0.9891
1.1637 -2.3265 -0.8878 0.9891
1.1818 -2.3265 -0.8906 0.9890
1.2000 -2.3265 -0.8934 0.9890
1.2182 -2.3265 -0.8963 0.9890
1.2551 -2.3265 -0.9022 0.9889
1.2926 -2.3266 -0.9084 0.9888
1.3305 -2.3266 -0.9147 0.9887
1.3690 -2.3266 -0.9213 0.9887
1.3884 -2.3266 -0.9247 0.9886
1.4677 -2.3267 -0.9389 0.9884
1.4879 -2.3267 -0.9426 0.9884
1.5037 -2.3197 -0.9435 0.9884
1.5201 -2.2523 -0.9274 0.9886
1.5375 -2.2479 -0.9295 0.9886
1.5605 -2.2516 -0.9350 0.9885
1.6556 -2.3268 -0.9746 0.9880
1.6993 -2.3268 -0.9834 0.9879
1.7665 -2.3268 -0.9970 0.9877
1.7893 -2.3268 -1.0018 0.9877
1.8123 -2.3269 -1.0066 0.9876
1.8355 -2.3269 -1.0115 0.9876
1.9308 -2.3269 -1.0320 0.9873
1.9800 -2.3269 -1.0428 0.9872
2.0049 -2.3270 -1.0483 0.9871
2.0301 -2.3270 -1.0539 0.9870
2.0556 -2.3270 -1.0597 0.9870
2.0814 -2.3270 -1.0655 0.9869
2.1075 -2.3270 -1.0715 0.9868
2.1604 -2.3271 -1.0837 0.9867
2.2147 -2.3271 -1.0964 0.9865
2.2423 -2.3271 -1.1029 0.9864
2.3271 -2.3271 -1.1232 0.9862
2.4453 -2.3272 -1.1521 0.9858
2.5067 -2.3272 -1.1674 0.9856
2.5697 -2.3273 -1.1833 0.9855
2.6346 -2.3273 -1.1997 0.9853
2.8766 -2.3275 -1.2629 0.9845
2.9505 -2.3275 -1.2826 0.9842
2.9884 -2.3275 -1.2928 0.9841
3.0659 -2.3276 -1.3138 0.9839
3.1057 -2.3276 -1.3246 0.9837
3.1871 -2.3276 -1.3469 0.9835
3.2289 -2.3277 -1.3585 0.9833
3.3146 -2.3277 -1.3823 0.9830
3.5428 -2.3278 -1.4468 0.9822
3.6402 -2.3279 -1.4747 0.9819
3.6904 -2.3279 -1.4892 0.9817
3.7937 -2.3280 -1.5191 0.9814
3.8468 -2.3280 -1.5346 0.9812
3.9012 -2.3280 -1.5505 0.9810
4.0711 -2.3281 -1.6006 0.9804
4.1303 -2.3282 -1.6182 0.9802
4.2525 -2.3282 -1.6546 0.9797
4.3157 -2.3283 -1.6736 0.9795
4.8654 -2.4337 -1.8567 0.9773
4.9417 -2.4338 -1.8800 0.9770
4.9741 -2.4117 -1.8866 0.9769
5.1561 -2.3828 -1.9386 0.9763
5.2159 -2.3714 -1.9555 0.9761
5.5346 -2.4342 -2.0635 0.9748
5.6289 -2.4342 -2.0931 0.9744
5.8260 -2.4343 -2.1549 0.9737
5.9289 -2.4344 -2.1874 0.9733
6.1019 -2.4176 -2.2400 0.9726
6.1019 -2.3741 -2.2346 0.9727
6.1020 -2.2876 -2.2241 0.9728
6.4555 -2.3295 -2.3423 0.9714
6.6923 -2.2756 -2.4125 0.9706
6.7203 -2.1927 -2.4126 0.9706
6.7339 -2.1512 -2.4127 0.9706
6.7472 -2.1096 -2.4127 0.9706
6.7602 -2.0678 -2.4128 0.9706
6.7856 -1.9842 -2.4129 0.9706
6.8217 -1.8580 -2.4130 0.9706
6.8554 -1.7313 -2.4132 0.9706
6.8766 -1.6464 -2.4133 0.9706
6.8868 -1.6039 -2.4133 0.9706
6.9063 -1.5186 -2.4134 0.9706
6.9337 -1.3903 -2.4135 0.9706
6.9586 -1.2615 -2.4136 0.9706
6.9739 -1.1754 -2.4137 0.9706
6.9948 -1.0459 -2.4138 0.9705
7.0133 -0.9160 -2.4139 0.9705
7.0242 -0.8292 -2.4140 0.9705
7.0387 -0.6987 -2.4141 0.9705
7.0429 -0.6552 -2.4141 0.9705
7.0469 -0.6116 -2.4141 0.9705
7.0541 -0.5245 -2.4142 0.9705
7.0602 -0.4372 -2.4142 0.9705
7.0629 -0.3935 -2.4142 0.9705
7.0673 -0.3061 -2.4143 0.9705
7.0691 -0.2624 -2.4143 0.9705
7.0743 0.0000 -2.4144 0.9705
7.0742 0.0438 -2.4144 0.9705
7.0723 0.1750 -2.4145 0.9705
7.0711 0.2187 -2.4145 0.9705
7.0636 0.3935 -2.4145 0.9705
7.0611 0.4372 -2.4145 0.9705
7.0552 0.5246 -2.4145 0.9705
7.0518 0.5681 -2.4145 0.9705
7.0401 0.6989 -2.4145 0.9705
7.0151 0.9162 -2.4145 0.9705
7.0093 0.9596 -2.4145 0.9705
7.0032 1.0029 -2.4145 0.9705
6.9903 1.0894 -2.4145 0.9705
6.9834 1.1326 -2.4145 0.9705
6.9762 1.1758 -2.4145 0.9705
6.9688 1.2189 -2.4145 0.9705
6.9531 1.3050 -2.4145 0.9705
6.9449 1.3480 -2.4145 0.9705
6.9364 1.3909 -2.4145 0.9705
6.9277 1.4337 -2.4145 0.9705
6.9186 1.4766 -2.4145 0.9705
6.9093 1.5193 -2.4144 0.9705
6.8998 1.5620 -2.4144 0.9705
6.8798 1.6472 -2.4144 0.9705
6.8695 1.6897 -2.4144 0.9705
6.8588 1.7321 -2.4144 0.9705
6.8368 1.8168 -2.4143 0.9705
6.8254 1.8590 -2.4143 0.9705
6.8136 1.9012 -2.4143 0.9705
6.7610 1.9770 -2.4041 0.9707
6.6093 1.9771 -2.3545 0.9713
6.0044 2.0003 -2.1600 0.9736
6.0044 2.0417 -2.1645 0.9736
5.7714 2.0827 -2.0941 0.9744
5.5070 2.0259 -2.0027 0.9755
5.3097 2.0282 -1.9399 0.9763
5.2572 2.0830 -1.9300 0.9764
4.8173 2.0832 -1.7913 0.9781
4.3804 1.9265 -1.6332 0.9800
4.3408 1.9412 -1.6229 0.9801
4.3408 1.9736 -1.6274 0.9800
4.2125 1.9784 -1.5884 0.9805
4.1458 1.9785 -1.5678 0.9808
4.0807 1.9785 -1.5478 0.9810
4.0173 1.9785 -1.5283 0.9813
3.7788 1.9787 -1.4558 0.9821
3.6142 1.9788 -1.4063 0.9827
3.5618 1.9788 -1.3906 0.9829
3.3632 1.9789 -1.3318 0.9836
3.3162 1.9790 -1.3180 0.9838
3.2250 1.9790 -1.2914 0.9841
3.1807 1.9790 -1.2785 0.9843
3.0948 1.9791 -1.2537 0.9846
3.0531 1.9791 -1.2418 0.9847
3.0121 1.9791 -1.2301 0.9849
2.9719 1.9792 -1.2186 0.9850
2.9325 1.9792 -1.2075 0.9852
2.8938 1.9792 -1.1965 0.9853
2.8184 1.9792 -1.1754 0.9855
2.7817 1.9793 -1.1652 0.9857
2.7101 1.9793 -1.1454 0.9859
2.6073 1.9794 -1.1172 0.9863
2.5741 1.9794 -1.1082 0.9864
2.5414 1.9794 -1.0994 0.9865
2.4776 1.9794 -1.0823 0.9867
2.4158 1.9795 -1.0659 0.9869
2.3856 1.9795 -1.0580 0.9870
2.3558 1.9795 -1.0502 0.9871
2.3264 1.9795 -1.0425 0.9872
2.2975 1.9796 -1.0350 0.9873
2.1858 1.9796 -1.0065 0.9876
2.0043 1.9797 -0.9615 0.9882
1.9797 1.9797 -0.9555 0.9882
1.9076 1.9798 -0.9383 0.9884
1.8841 1.9797 -0.9328 0.9885
1.8154 1.9798 -0.9168 0.9887
1.7930 1.9798 -0.9116 0.9888
1.7709 1.9798 -0.9066 0.9888
1.7273 1.9799 -0.8967 0.9890
1.6846 1.9799 -0.8872 0.9891
1.6636 1.9799 -0.8826 0.9891
1.6429 1.9799 -0.8781 0.9892
1.6223 1.9799 -0.8736 0.9892
1.5421 1.9800 -0.8565 0.9894
1.4628 1.9023 -0.8190 0.9899
1.4283 1.9057 -0.8128 0.9900
1.4160 1.9139 -0.8125 0.9900
1.4096 1.9301 -0.8157 0.9899
1.4072 1.9521 -0.8213 0.9899
1.3992 1.9664 -0.8237 0.9899
1.3905 1.9800 -0.8258 0.9898
1.3364 1.9801 -0.8153 0.9900
1.3010 1.9801 -0.8086 0.9900
1.2836 1.9801 -0.8054 0.9901
1.2663 1.9801 -0.8022 0.9901
1.2320 1.9801 -0.7959 0.9902
1.2151 1.9801 -0.7929 0.9902
1.1983 1.9802 -0.7899 0.9903
1.1487 1.9802 -0.7813 0.9904
1.1324 1.9802 -0.7785 0.9904
1.1001 1.9802 -0.7731 0.9905
1.0683 1.9802 -0.7679 0.9905
1.0526 1.9802 -0.7654 0.9906
1.0369 1.9802 -0.7629 0.9906
1.0213 1.9803 -0.7604 0.9906
1.0059 1.9803 -0.7580 0.9907
0.9905 1.9802 -0.7557 0.9907
0.9601 1.9803 -0.7511 0.9907
0.9450 1.9803 -0.7489 0.9908
0.9301 1.9803 -0.7467 0.9908
0.9152 1.9803 -0.7445 0.9908
0.8710 1.9803 -0.7383 0.9909
0.8275 1.9804 -0.7325 0.9910
0.7989 1.9804 -0.7288 0.9910
0.7564 1.9804 -0.7235 0.9911
0.7285 1.9804 -0.7202 0.9911
0.7008 1.9804 -0.7170 0.9912
0.6871 1.9804 -0.7154 0.9912
0.6734 1.9804 -0.7139 0.9912
0.6598 1.9804 -0.7124 0.9912
0.6192 1.9804 -0.7082 0.9913
0.6058 1.9805 -0.7068 0.9913
0.5924 1.9805 -0.7055 0.9913
0.5658 1.9805 -0.7030 0.9913
0.5526 1.9805 -0.7017 0.9913
0.5394 1.9805 -0.7006 0.9914
0.5132 1.9805 -0.6983 0.9914
0.5001 1.9805 -0.6972 0.9914
0.4742 1.9805 -0.6950 0.9914
0.4484 1.9805 -0.6930 0.9915
0.4355 1.9805 -0.6921 0.9915
0.4227 1.9805 -0.6912 0.9915
0.4099 1.9805 -0.6903 0.9915
0.3971 1.9805 -0.6894 0.9915
0.3844 1.9806 -0.6886 0.9915
0.3338 1.9806 -0.6855 0.9915
0.3212 1.9806 -0.6848 0.9916
0.3087 1.9806 -0.6841 0.9916
0.2962 1.9806 -0.6835 0.9916
0.2836 1.9806 -0.6829 0.9916
0.2711 1.9806 -0.6823 0.9916
0.2462 1.9806 -0.6812 0.9916
0.2214 1.9807 -0.6802 0.9916
0.2090 1.9807 -0.6797 0.9916
0.1966 1.9807 -0.6793 0.9916
0.1719 1.9807 -0.6785 0.9916
0.1103 1.9807 -0.6771 0.9917
0.0980 1.9807 -0.6768 0.9917
0.0858 1.9807 -0.6766 0.9917
0.0490 1.9807 -0.6762 0.9917
0.0245 1.9807 -0.6761 0.9917
0.0000 1.9808 -0.6760 0.9917
-0.1227 1.9808 -0.6773 0.9916
-0.1350 1.9808 -0.6776 0.9916
-0.1473 1.9808 -0.6779 0.9916
-0.1843 1.9809 -0.6790 0.9916
-0.1967 1.9809 -0.6794 0.9916
-0.2090 1.9809 -0.6798 0.9916
-0.2338 1.9809 -0.6808 0.9916
-0.2463 1.9809 -0.6813 0.9916
-0.2587 1.9809 -0.6818 0.9916
-0.2712 1.9809 -0.6824 0.9916
-0.2962 1.9809 -0.6836 0.9916
-0.3088 1.9809 -0.6842 0.9916
-0.3213 1.9809 -0.6849 0.9916
-1.1649 6.9117 -2.3922 0.9708
-1.2076 6.9039 -2.3920 0.9708
-1.2502 6.8960 -2.3919 0.9708
-1.3352 6.8793 -2.3917 0.9708
-1.3777 6.8705 -2.3915 0.9708
-1.4200 6.8614 -2.3914 0.9708
-1.5046 6.8426 -2.3911 0.9708
-1.5890 6.8230 -2.3910 0.9708
-1.6311 6.8127 -2.3909 0.9708
-1.6732 6.8022 -2.3908 0.9708
-1.7988 6.7691 -2.3904 0.9708
-1.8406 6.7576 -2.3903 0.9708
-2.0895 6.6829 -2.3897 0.9708
-2.2537 6.6281 -2.3893 0.9708
-2.2946 6.6137 -2.3892 0.9708
-2.6580 6.4734 -2.3883 0.9709
-2.6979 6.4566 -2.3882 0.9709
-2.7772 6.4222 -2.3880 0.9709
-2.8562 6.3869 -2.3878 0.9709
-2.8956 6.3688 -2.3877 0.9709
-3.0129 6.3133 -2.3875 0.9709
-3.0517 6.2942 -2.3874 0.9709
-3.0904 6.2750 -2.3873 0.9709
-3.1291 6.2555 -2.3872 0.9709
-3.2059 6.2158 -2.3870 0.9709
-3.2823 6.1752 -2.3868 0.9709
-3.3203 6.1546 -2.3867 0.9709
-3.3959 6.1126 -2.3865 0.9709
-3.5826 6.0035 -2.3860 0.9709
-3.8739 5.8172 -2.3853 0.9709
-3.9097 5.7929 -2.3852 0.9709
-4.0160 5.7188 -2.3850 0.9709
-4.0512 5.6936 -2.3849 0.9709
-4.0862 5.6682 -2.3848 0.9709
-4.1210 5.6427 -2.3847 0.9709
-4.3603 5.4577 -2.3841 0.9709
-4.3937 5.4304 -2.3840 0.9709
-4.4933 5.3474 -2.3838 0.9709
-4.5261 5.3194 -2.3837 0.9709
-4.5912 5.2626 -2.3836 0.9709
-4.6236 5.2339 -2.3835 0.9709
-4.7194 5.1468 -2.3832 0.9709
-4.7824 5.0877 -2.3831 0.9709
-4.8446 5.0278 -2.3829 0.9709
-4.9970 4.8748 -2.3826 0.9709
-5.0268 4.8437 -2.3825 0.9709
-5.0566 4.8124 -2.3824 0.9709
-5.1154 4.7492 -2.3823 0.9709
-5.1445 4.7173 -2.3822 0.9709
-5.2306 4.6206 -2.3820 0.9709
-5.3150 4.5224 -2.3818 0.9709
-5.3703 4.4561 -2.3816 0.9709
-5.3975 4.4227 -2.3816 0.9709
-5.5046 4.2873 -2.3813 0.9709
-5.5309 4.2531 -2.3812 0.9709
-5.6084 4.1494 -2.3810 0.9709
-5.6590 4.0795 -2.3809 0.9709
-5.6840 4.0443 -2.3809 0.9709
-5.7087 4.0090 -2.3808 0.9709
-5.8292 3.8301 -2.3805 0.9710
-5.8758 3.7576 -2.3804 0.9710
-5.9216 3.6844 -2.3803 0.9710
-5.9664 3.6107 -2.3802 0.9710
-5.9885 3.5737 -2.3801 0.9710
-6.0104 3.5365 -2.3800 0.9710
-6.0320 3.4992 -2.3800 0.9710
-6.0745 3.4241 -2.3799 0.9710
-6.0954 3.3864 -2.3798 0.9710
-6.1568 3.2726 -2.3797 0.9710
-6.1768 3.2344 -2.3796 0.9710
-6.2161 3.1576 -2.3795 0.9710
-6.2354 3.1190 -2.3795 0.9710
-6.2544 3.0803 -2.3794 0.9710
-6.2732 3.0415 -2.3794 0.9710
-6.2918 3.0026 -2.3794 0.9710
-6.3101 2.9636 -2.3793 0.9710
-6.3461 2.8852 -2.3792 0.9710
-6.3810 2.8064 -2.3791 0.9710
-6.3982 2.7668 -2.3791 0.9710
-6.4150 2.7272 -2.3790 0.9710
-6.4642 2.6076 -2.3789 0.9710
-6.4801 2.5675 -2.3789 0.9710
-6.5111 2.4871 -2.3788 0.9710
-6.5262 2.4467 -2.3788 0.9710
-6.5412 2.4063 -2.3787 0.9710
-6.5702 2.3251 -2.3787 0.9710
-6.5844 2.2844 -2.3786 0.9710
-6.5983 2.2436 -2.3786 0.9710
-6.6120 2.2027 -2.3786 0.9710
-6.6254 2.1618 -2.3785 0.9710
-6.6385 2.1207 -2.3785 0.9710
-6.6514 2.0796 -2.3784 0.9710
-6.6640 2.0384 -2.3784 0.9710
-6.6763 1.9971 -2.3784 0.9710
-6.7343 1.7896 -2.3781 0.9710
-6.7557 1.7061 -2.3781 0.9710
-6.7660 1.6643 -2.3780 0.9710
-6.7761 1.6224 -2.3780 0.9710
-6.8624 1.2003 -2.3777 0.9710
-6.8765 1.1153 -2.3776 0.9710
-6.8832 1.0728 -2.3776 0.9710
-6.8896 1.0302 -2.3775 0.9710
-6.9073 0.9021 -2.3775 0.9710
-6.9178 0.8166 -2.3774 0.9710
-6.9227 0.7738 -2.3774 0.9710
-6.9273 0.7310 -2.3774 0.9710
-6.9357 0.6452 -2.3773 0.9710
-6.9395 0.6023 -2.3773 0.9710
-6.9430 0.5594 -2.3773 0.9710
-6.9462 0.5164 -2.3773 0.9710
-6.9520 0.4305 -2.3772 0.9710
-6.9545 0.3875 -2.3772 0.9710
-6.9587 0.3014 -2.3772 0.9710
-6.9603 0.2584 -2.3772 0.9710
-6.9618 0.2153 -2.3771 0.9710
-6.9644 0.0861 -2.3771 0.9710
-6.8005 0.0000 -2.3775 0.9716
-6.8004 -0.0421 -2.3775 0.9716
-6.7984 -0.1682 -2.3775 0.9716
-6.7972 -0.2102 -2.3775 0.9716
-6.7957 -0.2523 -2.3775 0.9716
-6.7899 -0.3783 -2.3774 0.9716
-6.7846 -0.4622 -2.3774 0.9716
-6.7817 -0.5042 -2.3774 0.9716
-6.7784 -0.5461 -2.3774 0.9716
-6.7749 -0.5880 -2.3774 0.9716
-6.7711 -0.6299 -2.3774 0.9716
-6.7671 -0.6718 -2.3774 0.9716
-6.7535 -0.7972 -2.3774 0.9716
-6.7484 -0.8389 -2.3774 0.9716
-6.7194 -1.0472 -2.3775 0.9716
-6.7059 -1.1302 -2.3775 0.9716
-6.6988 -1.1717 -2.3775 0.9716
-6.6915 -1.2131 -2.3775 0.9716
-6.6596 -1.3783 -2.3775 0.9716
-6.6509 -1.4194 -2.3776 0.9716
-6.6420 -1.4605 -2.3776 0.9716
-6.6235 -1.5426 -2.3776 0.9716
-6.6041 -1.6244 -2.3776 0.9716
-6.5729 -1.7467 -2.3777 0.9716
-6.5279 -1.9088 -2.3778 0.9716
-6.5161 -1.9492 -2.3778 0.9716
-6.5039 -1.9894 -2.3778 0.9716
-6.4790 -2.0698 -2.3779 0.9716
-6.4661 -2.1098 -2.3779 0.9716
-6.4530 -2.1498 -2.3779 0.9716
-6.4397 -2.1897 -2.3779 0.9716
-6.4123 -2.2692 -2.3780 0.9716
-6.3693 -2.3879 -2.3781 0.9716
-6.3544 -2.4272 -2.3781 0.9716
-6.2768 -2.6227 -2.3783 0.9716
-6.2605 -2.6615 -2.3783 0.9716
-6.2273 -2.7388 -2.3784 0.9716
-6.2104 -2.7773 -2.3784 0.9716
-6.1932 -2.8157 -2.3784 0.9716
-6.1580 -2.8922 -2.3785 0.9716
-6.1402 -2.9303 -2.3785 0.9716
-6.1037 -3.0061 -2.3786 0.9716
-6.0851 -3.0438 -2.3787 0.9716
-6.0662 -3.0815 -2.3787 0.9716
-6.0471 -3.1190 -2.3787 0.9716
-6.0083 -3.1936 -2.3788 0.9716
-5.9886 -3.2308 -2.3789 0.9716
-5.9686 -3.2678 -2.3789 0.9716
-5.9484 -3.3047 -2.3790 0.9716
-5.8864 -3.4147 -2.3791 0.9716
-5.8439 -3.4874 -2.3792 0.9716
-5.8224 -3.5236 -2.3792 0.9716
-5.8006 -3.5596 -2.3793 0.9716
-5.7339 -3.6668 -2.3794 0.9716
-5.7113 -3.7023 -2.3795 0.9716
-5.6420 -3.8078 -2.3797 0.9716
-5.5222 -3.9809 -2.3799 0.9716
-5.4728 -4.0491 -2.3800 0.9716
-5.4478 -4.0830 -2.3801 0.9716
-5.3715 -4.1836 -2.3803 0.9716
-5.3457 -4.2169 -2.3803 0.9716
-5.3196 -4.2500 -2.3804 0.9716
-5.2670 -4.3157 -2.3805 0.9716
-5.2403 -4.3483 -2.3806 0.9716
-5.2134 -4.3807 -2.3807 0.9716
-5.1864 -4.4130 -2.3807 0.9716
-5.1591 -4.4451 -2.3808 0.9716
-5.1317 -4.4770 -2.3809 0.9716
-5.1040 -4.5088 -2.3809 0.9716
-5.0762 -4.5404 -2.3810 0.9716
-5.0482 -4.5719 -2.3811 0.9716
-5.0199 -4.6031 -2.3811 0.9716
-4.9915 -4.6342 -2.3812 0.9716
-4.9341 -4.6958 -2.3813 0.9715
-4.9051 -4.7264 -2.3814 0.9715
-4.6665 -4.9644 -2.3820 0.9715
-4.6359 -4.9934 -2.3821 0.9715
-4.6051 -5.0221 -2.3821 0.9715
-4.5429 -5.0790 -2.3823 0.9715
-4.5115 -5.1071 -2.3824 0.9715
-4.4483 -5.1629 -2.3825 0.9715
-4.4164 -5.1904 -2.3826 0.9715
-4.3844 -5.2178 -2.3827 0.9715
-4.3521 -5.2450 -2.3827 0.9715
-4.2217 -5.3518 -2.3831 0.9715
-4.1555 -5.4040 -2.3832 0.9715
-4.0886 -5.4553 -2.3834 0.9715
-3.9530 -5.5556 -2.3837 0.9715
-3.8496 -5.6286 -2.3840 0.9715
-3.7450 -5.6996 -2.3843 0.9715
-3.7097 -5.7229 -2.3843 0.9715
-3.6745 -5.7460 -2.3844 0.9715
-3.5677 -5.8138 -2.3847 0.9715
-3.5318 -5.8360 -2.3848 0.9715
-3.4957 -5.8579 -2.3849 0.9715
-3.4596 -5.8796 -2.3850 0.9715
-3.3868 -5.9224 -2.3852 0.9715
-3.3503 -5.9435 -2.3853 0.9715
-3.2767 -5.9849 -2.3854 0.9715
-3.2398 -6.0054 -2.3855 0.9715
-3.2028 -6.0255 -2.3856 0.9715
-3.1655 -6.0454 -2.3857 0.9715
-2.9777 -6.1417 -2.3862 0.9715
-2.9398 -6.1602 -2.3863 0.9715
-2.8636 -6.1966 -2.3865 0.9715
-2.7870 -6.2320 -2.3867 0.9715
-2.7099 -6.2666 -2.3869 0.9715
-2.6324 -6.3001 -2.3871 0.9715
-2.5545 -6.3327 -2.3873 0.9715
-2.3580 -6.4100 -2.3878 0.9715
-2.2390 -6.4535 -2.3881 0.9715
-2.1991 -6.4675 -2.3882 0.9715
-2.1592 -6.4812 -2.3883 0.9715
-2.1192 -6.4948 -2.3884 0.9715
-2.0389 -6.5211 -2.3886 0.9715
-1.9986 -6.5338 -2.3887 0.9715
-1.9582 -6.5464 -2.3888 0.9715
-1.7960 -6.5939 -2.3892 0.9715
-1.6736 -6.6270 -2.3896 0.9715
-1.6327 -6.6375 -2.3897 0.9715
-1.5916 -6.6478 -2.3898 0.9714
-1.5506 -6.6578 -2.3899 0.9714
-1.5095 -6.6676 -2.3900 0.9714
-1.4270 -6.6863 -2.3902 0.9714
-1.3443 -6.7041 -2.3904 0.9714
-1.3029 -6.7126 -2.3905 0.9714
-1.2614 -6.7208 -2.3906 0.9714
-1.1783 -6.7365 -2.3909 0.9714
-1.1367 -6.7440 -2.3910 0.9714
-1.0950 -6.7512 -2.3911 0.9714
-1.0533 -6.7581 -2.3912 0.9714
-0.9278 -6.7774 -2.3915 0.9714
-0.8859 -6.7834 -2.3916 0.9714
-0.8440 -6.7890 -2.3917 0.9714
-0.8021 -6.7944 -2.3919 0.9714
-0.7180 -6.8045 -2.3921 0.9714
-0.6760 -6.8091 -2.3922 0.9714
-0.2164 -2.3257 -0.8166 0.9902
-0.2019 -2.3258 -0.8162 0.9902
-0.1874 -2.3258 -0.8157 0.9902
-0.1729 -2.3258 -0.8153 0.9902
-0.1585 -2.3258 -0.8150 0.9902
-0.0575 -2.3258 -0.8134 0.9902
-0.0431 -2.3258 -0.8133 0.9902
-0.0288 -2.3258 -0.8132 0.9902
0.0000 -2.3259 -0.8131 0.9902
0.0144 -2.3259 -0.8132 0.9902
0.0432 -2.3259 -0.8133 0.9902
0.0576 -2.3259 -0.8134 0.9902
0.0863 -2.3259 -0.8137 0.9902
0.1008 -2.3259 -0.8139 0.9902
0.1585 -2.3260 -0.8150 0.9902
0.1874 -2.3260 -0.8158 0.9902
0.2019 -2.3260 -0.8162 0.9902
0.2164 -2.3260 -0.8167 0.9902
0.2454 -2.3260 -0.8177 0.9901
0.2746 -2.3260 -0.8188 0.9901
0.3038 -2.3260 -0.8201 0.9901
0.3921 -2.3261 -0.8247 0.9901
0.4069 -2.3261 -0.8256 0.9900
0.4217 -2.3261 -0.8265 0.9900
0.4664 -2.3261 -0.8294 0.9900
0.4965 -2.3261 -0.8315 0.9900
0.5266 -2.3261 -0.8338 0.9899
0.6028 -2.3262 -0.8401 0.9899
0.6182 -2.3262 -0.8415 0.9899
0.6336 -2.3262 -0.8429 0.9898
0.6491 -2.3262 -0.8443 0.9898
0.7116 -2.3262 -0.8505 0.9897
0.7273 -2.3262 -0.8521 0.9897
0.7590 -2.3263 -0.8555 0.9897
0.7910 -2.3263 -0.8590 0.9896
0.8233 -2.3263 -0.8627 0.9896
0.8395 -2.3263 -0.8646 0.9896
0.9051 -2.3263 -0.8727 0.9895
0.9217 -2.3263 -0.8748 0.9895
