ply
format ascii 1.0
element vertex 1576
property float32 x
property float32 y
property float32 z
property float32 I
end_header
-0.7121 -2.3280 -0.0958 0.9903
-0.6964 -2.3280 -0.0956 0.9903
-0.6651 -2.3280 -0.0953 0.9904
-0.6496 -2.3280 -0.0951 0.9904
-0.6341 -2.3280 -0.0950 0.9904
-0.6187 -2.3280 -0.0948 0.9904
-0.5879 -2.3281 -0.0945 0.9904
-0.5726 -2.3281 -0.0944 0.9904
-0.5574 -2.3281 -0.0942 0.9905
-0.5271 -2.3281 -0.0939 0.9905
-0.5119 -2.3281 -0.0938 0.9905
-0.4818 -2.3281 -0.0936 0.9905
-0.4668 -2.3281 -0.0935 0.9905
-0.4519 -2.3281 -0.0933 0.9906
-0.4072 -2.3282 -0.0930 0.9906
-0.3481 -2.3282 -0.0927 0.9906
-0.3334 -2.3282 -0.0926 0.9906
-0.3187 -2.3282 -0.0925 0.9906
-0.3041 -2.3282 -0.0924 0.9906
-0.2895 -2.3282 -0.0923 0.9907
-0.2602 -2.3282 -0.0922 0.9907
-0.2457 -2.3283 -0.0921 0.9907
-0.2311 -2.3283 -0.0921 0.9907
-0.2166 -2.3283 -0.0920 0.9907
-0.2021 -2.3283 -0.0920 0.9907
-0.1586 -2.3283 -0.0919 0.9907
-0.1442 -2.3283 -0.0918 0.9907
-0.1297 -2.3283 -0.0918 0.9907
-0.0576 -2.3284 -0.0917 0.9907
-0.0288 -2.3284 -0.0916 0.9907
-0.0144 -2.3284 -0.0916 0.9907
0.0000 -2.3284 -0.0916 0.9907
0.0432 -2.3284 -0.0917 0.9907
0.0576 -2.3284 -0.0917 0.9907
0.0720 -2.3284 -0.0917 0.9907
0.0864 -2.3284 -0.0917 0.9907
0.1297 -2.3285 -0.0918 0.9907
0.1442 -2.3285 -0.0918 0.9907
0.1586 -2.3285 -0.0919 0.9907
0.1731 -2.3285 -0.0919 0.9907
0.2457 -2.3285 -0.0922 0.9907
0.2603 -2.3285 -0.0922 0.9907
0.3041 -2.3286 -0.0924 0.9906
0.3188 -2.3286 -0.0925 0.9906
0.3334 -2.3286 -0.0926 0.9906
0.3982 -2.2768 -0.0910 0.9908
0.4128 -2.2768 -0.0911 0.9908
0.4880 -2.4338 -0.0977 0.9901
0.5037 -2.4338 -0.0978 0.9901
0.5194 -2.4338 -0.0979 0.9901
0.5510 -2.4338 -0.0982 0.9901
0.6147 -2.4338 -0.0988 0.9900
0.6629 -2.4339 -0.0993 0.9900
0.6791 -2.4339 -0.0995 0.9899
0.6954 -2.4339 -0.0996 0.9899
0.7117 -2.4339 -0.0998 0.9899
0.7280 -2.4339 -0.1000 0.9899
0.7445 -2.4339 -0.1002 0.9899
0.7776 -2.4339 -0.1006 0.9898
0.8109 -2.4340 -0.1010 0.9898
0.8954 -2.4340 -0.1021 0.9897
0.9067 -2.3739 -0.1000 0.9899
0.9236 -2.3739 -0.1003 0.9899
0.9818 -2.4341 -0.1033 0.9895
0.9994 -2.4341 -0.1036 0.9895
1.0170 -2.4341 -0.1038 0.9895
1.0347 -2.4341 -0.1041 0.9895
1.0526 -2.4341 -0.1044 0.9894
1.0885 -2.4341 -0.1049 0.9894
1.1066 -2.4341 -0.1052 0.9894
1.1248 -2.4342 -0.1055 0.9893
1.1432 -2.4342 -0.1058 0.9893
1.1616 -2.4342 -0.1062 0.9893
1.1988 -2.4342 -0.1068 0.9892
1.2365 -2.4342 -0.1075 0.9891
1.2938 -2.4342 -0.1085 0.9890
1.3132 -2.4343 -0.1089 0.9890
1.3327 -2.4343 -0.1092 0.9890
1.4323 -2.4343 -0.1112 0.9888
1.4938 -2.4343 -0.1124 0.9886
1.5262 -2.4195 -0.1126 0.9886
1.5262 -2.3866 -0.1115 0.9887
1.5391 -2.3742 -0.1114 0.9887
1.5600 -2.3743 -0.1118 0.9887
1.6212 -2.4344 -0.1151 0.9884
1.6650 -2.4344 -0.1161 0.9883
1.6872 -2.4344 -0.1166 0.9882
1.7550 -2.4345 -0.1181 0.9881
1.9450 -2.4346 -0.1226 0.9876
1.9949 -2.4346 -0.1239 0.9875
2.0202 -2.4346 -0.1245 0.9874
2.0240 -2.4088 -0.1238 0.9875
2.0372 -2.2777 -0.1203 0.9878
2.1628 -2.3295 -0.1251 0.9874
2.1897 -2.3296 -0.1258 0.9873
2.2171 -2.3296 -0.1266 0.9872
2.2447 -2.3296 -0.1273 0.9871
2.2727 -2.3296 -0.1281 0.9871
2.3586 -2.3296 -0.1305 0.9868
2.3880 -2.3297 -0.1313 0.9867
2.5094 -2.3297 -0.1348 0.9864
2.6047 -2.3298 -0.1375 0.9861
2.6374 -2.3298 -0.1385 0.9860
2.6705 -2.3298 -0.1395 0.9859
2.7041 -2.3298 -0.1405 0.9858
2.7727 -2.3299 -0.1425 0.9856
2.8796 -2.3299 -0.1458 0.9853
2.9164 -2.3299 -0.1469 0.9852
2.9537 -2.3300 -0.1481 0.9851
3.0301 -2.3300 -0.1504 0.9848
3.2705 -2.3577 -0.1587 0.9840
3.3259 -2.3665 -0.1607 0.9838
3.3827 -2.3755 -0.1627 0.9836
3.4409 -2.3848 -0.1648 0.9834
3.5589 -2.4020 -0.1690 0.9830
3.5711 -2.3781 -0.1689 0.9830
10.0002 -6.4825 -0.4691 0.9534
9.9986 -6.3940 -0.4671 0.9536
9.9937 -6.1327 -0.4615 0.9541
9.9921 -6.0470 -0.4597 0.9543
9.9905 -5.9619 -0.4579 0.9545
9.9889 -5.8775 -0.4562 0.9547
9.9827 -5.5461 -0.4495 0.9553
9.9797 -5.3840 -0.4463 0.9556
9.9781 -5.3037 -0.4448 0.9558
10.2108 -5.2665 -0.4522 0.9551
10.3601 -5.2626 -0.4574 0.9545
10.5127 -5.2586 -0.4627 0.9540
10.6690 -5.2545 -0.4681 0.9535
10.9927 -5.2461 -0.4794 0.9524
11.8884 -5.2286 -0.5112 0.9493
12.0832 -5.2253 -0.5182 0.9487
12.2834 -5.2220 -0.5253 0.9480
12.9190 -5.2113 -0.5483 0.9458
39.3778 -15.0412 -1.6591 0.8447
39.3696 -14.4828 -1.6511 0.8454
40.5472 -14.0676 -1.6892 0.8421
40.5474 -13.7873 -1.6857 0.8424
40.5520 -13.2316 -1.6789 0.8430
40.5522 -12.9548 -1.6756 0.8433
38.9409 -11.6485 -1.5998 0.8498
40.5487 -11.5850 -1.6598 0.8447
40.5490 -11.0445 -1.6541 0.8452
40.5491 -10.7756 -1.6514 0.8454
39.1018 -10.1325 -1.5899 0.8507
39.1019 -9.8749 -1.5873 0.8509
40.5496 -9.9741 -1.6436 0.8461
40.5500 -9.1800 -1.6364 0.8467
40.5502 -8.9167 -1.6342 0.8469
41.9797 -8.4178 -1.6852 0.8425
43.3732 -8.4186 -1.7390 0.8379
44.8589 -8.4194 -1.7964 0.8330
61.3319 -11.1190 -2.4533 0.7792
31.7276 -5.3475 -1.2664 0.8791
31.7193 -5.1446 -1.2648 0.8793
31.7140 -4.9426 -1.2633 0.8794
31.6960 -4.5390 -1.2603 0.8797
31.7019 -4.3400 -1.2594 0.8798
31.7019 -3.7423 -1.2564 0.8800
31.7003 -3.5434 -1.2555 0.8801
31.6939 -3.1463 -1.2536 0.8803
31.6918 -2.5534 -1.2514 0.8805
31.6913 -2.3562 -1.2508 0.8805
31.6898 -2.1591 -1.2502 0.8806
31.6912 -1.9624 -1.2497 0.8806
31.7165 -1.7671 -1.2503 0.8806
32.0683 -1.5879 -1.2637 0.8794
39.1065 -1.6940 -1.5407 0.8550
40.5543 -1.5055 -1.5973 0.8501
39.1068 -1.2096 -1.5400 0.8550
40.5547 -0.7525 -1.5965 0.8501
39.1071 -0.4837 -1.5394 0.8551
40.5550 -0.2508 -1.5963 0.8501
40.5551 -0.0000 -1.5962 0.8501
40.5552 0.2508 -1.5963 0.8501
40.5558 1.2544 -1.5970 0.8501
40.5561 1.7567 -1.5978 0.8500
31.2274 1.5462 -1.2306 0.8824
32.4929 1.8104 -1.2809 0.8779
32.5005 2.0125 -1.2817 0.8778
32.5124 2.6195 -1.2838 0.8776
32.5166 3.0250 -1.2854 0.8775
32.5186 3.2282 -1.2862 0.8774
31.1260 3.2845 -1.2319 0.8822
31.8589 3.7608 -1.2627 0.8795
40.5578 5.0421 -1.6086 0.8491
40.5640 5.5532 -1.6115 0.8488
40.5641 5.8089 -1.6129 0.8487
40.5628 6.0650 -1.6143 0.8486
40.5587 6.5782 -1.6172 0.8483
38.5250 7.2306 -1.5428 0.8548
40.5594 7.8724 -1.6262 0.8476
40.5598 8.6562 -1.6324 0.8470
40.5600 9.1822 -1.6368 0.8466
40.5602 9.4463 -1.6392 0.8464
40.5605 9.9768 -1.6440 0.8460
39.1128 10.1353 -1.5903 0.8507
39.0886 10.3874 -1.5919 0.8505
39.6100 10.7887 -1.6158 0.8485
39.5593 11.0381 -1.6165 0.8484
40.6155 11.6040 -1.6626 0.8444
40.6201 12.4249 -1.6719 0.8436
40.6217 12.7006 -1.6752 0.8433
60.9318 19.8813 -2.5227 0.7737
60.8007 20.2554 -2.5224 0.7737
60.6672 20.6286 -2.5221 0.7737
60.5313 21.0009 -2.5218 0.7738
60.3931 21.3723 -2.5215 0.7738
39.7079 15.4494 -1.6770 0.8432
59.2009 24.3076 -2.5189 0.7740
39.2612 16.4049 -1.6748 0.8434
39.2324 16.6786 -1.6779 0.8431
39.2639 16.9795 -1.6837 0.8426
38.8736 17.0968 -1.6715 0.8437
38.8737 17.3846 -1.6761 0.8433
38.8739 17.6739 -1.6808 0.8429
38.8742 18.2576 -1.6904 0.8420
38.8743 18.5519 -1.6954 0.8416
38.8439 19.1308 -1.7042 0.8409
38.7411 19.9816 -1.7157 0.8399
39.0982 20.4729 -1.7371 0.8381
39.0987 21.4066 -1.7545 0.8366
39.0990 22.0396 -1.7666 0.8355
3.4771 2.0171 -0.1582 0.9840
3.4249 2.0438 -0.1570 0.9842
3.2372 2.0142 -0.1501 0.9849
2.9287 1.9766 -0.1391 0.9860
2.8900 1.9766 -0.1378 0.9861
2.8521 1.9767 -0.1366 0.9862
2.8147 1.9767 -0.1354 0.9863
2.7781 1.9767 -0.1342 0.9864
2.7421 1.9767 -0.1330 0.9866
2.7067 1.9767 -0.1319 0.9867
2.6376 1.9768 -0.1297 0.9869
2.5708 1.9768 -0.1276 0.9871
2.3825 1.9769 -0.1219 0.9877
2.3234 1.9769 -0.1201 0.9879
2.2946 1.9770 -0.1192 0.9879
2.2661 1.9770 -0.1184 0.9880
2.2103 1.9770 -0.1167 0.9882
2.1830 1.9770 -0.1159 0.9883
2.1561 1.9771 -0.1151 0.9884
2.1295 1.9771 -0.1144 0.9884
2.1033 1.9771 -0.1136 0.9885
2.0774 1.9771 -0.1129 0.9886
1.9736 1.9253 -0.1085 0.9890
1.9493 1.9253 -0.1078 0.9891
1.9264 1.9264 -0.1072 0.9892
1.9264 1.9504 -0.1079 0.9891
1.9264 1.9747 -0.1086 0.9890
1.9264 1.9993 -0.1093 0.9889
1.9265 2.0242 -0.1100 0.9889
1.9265 2.0494 -0.1107 0.9888
1.9094 2.0823 -0.1112 0.9888
1.8859 2.0823 -0.1106 0.9888
1.8167 2.0824 -0.1088 0.9890
1.7719 2.0824 -0.1076 0.9891
1.6220 2.0825 -0.1039 0.9895
1.5810 2.0825 -0.1029 0.9896
1.5608 2.0825 -0.1024 0.9896
1.4580 2.0225 -0.0981 0.9901
1.4391 2.0225 -0.0977 0.9901
1.4287 2.0344 -0.0978 0.9901
1.4287 2.0614 -0.0987 0.9900
1.4244 2.0826 -0.0993 0.9900
1.3869 2.0826 -0.0985 0.9900
1.3500 2.0826 -0.0977 0.9901
1.3318 2.0826 -0.0973 0.9902
1.2958 2.0827 -0.0965 0.9902
1.2428 2.0827 -0.0955 0.9903
1.2254 2.0827 -0.0951 0.9904
1.2082 2.0827 -0.0948 0.9904
1.1910 2.0827 -0.0944 0.9904
1.1571 2.0827 -0.0938 0.9905
1.1403 2.0828 -0.0935 0.9905
1.0906 2.0828 -0.0925 0.9906
1.0742 2.0828 -0.0922 0.9907
1.0580 2.0828 -0.0919 0.9907
1.0418 2.0828 -0.0917 0.9907
1.0258 2.0828 -0.0914 0.9907
1.0098 2.0828 -0.0911 0.9908
0.9782 2.0828 -0.0906 0.9908
0.9470 2.0829 -0.0901 0.9909
0.9007 2.0829 -0.0893 0.9910
0.8855 2.0829 -0.0891 0.9910
0.8305 2.0228 -0.0861 0.9913
0.8160 2.0228 -0.0859 0.9913
0.7978 2.0504 -0.0866 0.9912
0.7956 2.0829 -0.0878 0.9911
0.7809 2.0829 -0.0876 0.9911
0.7371 2.0830 -0.0870 0.9912
0.7083 2.0830 -0.0866 0.9912
0.6939 2.0830 -0.0864 0.9912
0.6797 2.0830 -0.0862 0.9913
0.6654 2.0830 -0.0861 0.9913
0.6371 2.0830 -0.0857 0.9913
0.5812 2.0830 -0.0851 0.9914
0.5674 2.0831 -0.0850 0.9914
0.5536 2.0831 -0.0848 0.9914
0.5124 2.0831 -0.0844 0.9914
0.4716 2.0831 -0.0841 0.9915
0.4446 2.0831 -0.0838 0.9915
0.4311 2.0831 -0.0837 0.9915
0.4177 2.0831 -0.0836 0.9915
0.3910 2.0831 -0.0834 0.9916
0.3777 2.0832 -0.0833 0.9916
0.3369 1.9262 -0.0770 0.9922
0.3246 1.9262 -0.0769 0.9922
0.2583 1.9781 -0.0785 0.9920
0.2459 1.9781 -0.0785 0.9921
0.2335 1.9781 -0.0784 0.9921
0.2087 1.9781 -0.0783 0.9921
0.1964 1.9781 -0.0782 0.9921
0.1717 1.9781 -0.0782 0.9921
0.1225 1.9781 -0.0780 0.9921
0.1102 1.9781 -0.0780 0.9921
0.0857 1.9782 -0.0779 0.9921
0.0612 1.9782 -0.0779 0.9921
0.0367 1.9782 -0.0779 0.9921
0.0245 1.9782 -0.0779 0.9921
0.0122 1.9782 -0.0779 0.9921
0.0000 1.9782 -0.0779 0.9921
-0.0122 1.9782 -0.0779 0.9921
-0.0245 1.9782 -0.0779 0.9921
-0.0367 1.9782 -0.0779 0.9921
-0.0612 1.9782 -0.0779 0.9921
-0.0857 1.9783 -0.0779 0.9921
-0.0979 1.9783 -0.0780 0.9921
-0.1102 1.9783 -0.0780 0.9921
-0.1348 1.9783 -0.0780 0.9921
-0.1717 1.9783 -0.0782 0.9921
-0.1964 1.9783 -0.0782 0.9921
-0.2336 1.9783 -0.0784 0.9921
-0.2709 1.9784 -0.0786 0.9920
-0.2958 1.9784 -0.0787 0.9920
-0.3083 1.9784 -0.0788 0.9920
-0.3587 1.9784 -0.0791 0.9920
-0.4351 1.9785 -0.0797 0.9919
-0.4479 1.9784 -0.0798 0.9919
-0.4867 1.9785 -0.0802 0.9919
-0.5127 1.9785 -0.0804 0.9919
-0.5258 1.9785 -0.0806 0.9918
-0.5521 1.9785 -0.0808 0.9918
-0.5918 1.9785 -0.0813 0.9918
-0.6186 1.9786 -0.0816 0.9917
-0.6321 1.9786 -0.0818 0.9917
-0.6456 1.9786 -0.0819 0.9917
-0.6865 1.9786 -0.0824 0.9917
-0.7279 1.9786 -0.0830 0.9916
-0.7418 1.9786 -0.0832 0.9916
-0.7558 1.9786 -0.0834 0.9916
-0.7982 1.9786 -0.0840 0.9915
-0.8268 1.9787 -0.0844 0.9915
-0.8412 1.9787 -0.0846 0.9914
-0.8557 1.9787 -0.0849 0.9914
-0.8702 1.9787 -0.0851 0.9914
-0.8996 1.9787 -0.0856 0.9913
-0.9294 1.9787 -0.0860 0.9913
-0.9746 1.9787 -0.0868 0.9912
-0.9898 1.9787 -0.0871 0.9912
-1.0206 1.9788 -0.0876 0.9911
-1.0362 1.9788 -0.0879 0.9911
-1.0518 1.9788 -0.0882 0.9911
-1.0676 1.9788 -0.0885 0.9910
-1.0834 1.9788 -0.0888 0.9910
-1.0994 1.9788 -0.0891 0.9910
-1.1809 1.9788 -0.0907 0.9908
-1.3003 1.9789 -0.0932 0.9906
-1.3179 1.9789 -0.0936 0.9905
-1.3535 1.9789 -0.0944 0.9904
-1.3898 1.9790 -0.0952 0.9904
-1.5024 1.9790 -0.0978 0.9901
-1.5612 1.9791 -0.0992 0.9900
-1.6013 1.9791 -0.1002 0.9899
-1.6422 1.9791 -0.1012 0.9898
-1.6630 1.9791 -0.1017 0.9897
-1.7267 1.9791 -0.1034 0.9895
-1.7673 1.9274 -0.1029 0.9896
-1.7894 1.9274 -0.1035 0.9895
-1.8344 1.9274 -0.1047 0.9894
-2.0085 2.0845 -0.1139 0.9885
-2.0336 2.0845 -0.1146 0.9884
-2.0589 2.0845 -0.1153 0.9883
-2.1634 2.0846 -0.1182 0.9880
-2.2176 2.0846 -0.1198 0.9879
-2.2453 2.0846 -0.1206 0.9878
-2.2973 2.0548 -0.1213 0.9877
-2.4196 2.0847 -0.1257 0.9873
-2.4810 2.0847 -0.1275 0.9871
-2.5124 2.0847 -0.1285 0.9870
-2.6095 2.0848 -0.1315 0.9867
-2.6768 2.0848 -0.1335 0.9865
-2.7112 2.0848 -0.1346 0.9864
-2.7819 2.0849 -0.1368 0.9862
-2.8548 2.0849 -0.1391 0.9859
-2.9303 2.0850 -0.1415 0.9857
-2.9606 2.0249 -0.1412 0.9857
-3.1310 2.0851 -0.1481 0.9851
-3.1734 2.0851 -0.1495 0.9849
-3.2607 2.0851 -0.1523 0.9846
-3.4262 2.0734 -0.1576 0.9841
-3.4262 1.9875 -0.1559 0.9843
-3.4263 1.9313 -0.1548 0.9844
-3.4709 1.9283 -0.1563 0.9842
-3.6168 1.9802 -0.1623 0.9836
-3.7255 1.9802 -0.1661 0.9833
-3.7819 1.9803 -0.1680 0.9831
-3.8395 1.9803 -0.1700 0.9829
-3.9591 1.9804 -0.1742 0.9824
-4.0211 1.9804 -0.1764 0.9822
-4.0847 1.9804 -0.1787 0.9820
-4.2170 1.9805 -0.1834 0.9815
-4.2857 1.9805 -0.1858 0.9813
-21.8682 9.6177 -0.9403 0.9088
-21.8484 9.4482 -0.9369 0.9091
-21.8684 9.2967 -0.9353 0.9093
-21.8688 8.3533 -0.9214 0.9105
-21.8689 8.1987 -0.9192 0.9107
-21.8692 7.5874 -0.9111 0.9115
-21.8697 6.6895 -0.9001 0.9125
-21.8698 6.5419 -0.8985 0.9127
-21.8699 6.3948 -0.8968 0.9128
-21.8702 5.6672 -0.8892 0.9135
-21.8705 5.0935 -0.8839 0.9140
-21.8707 4.8092 -0.8814 0.9143
-21.8708 4.6676 -0.8802 0.9144
-21.8709 4.3855 -0.8780 0.9146
-21.8711 3.9650 -0.8749 0.9149
-21.8715 3.2702 -0.8704 0.9153
-21.8716 3.1321 -0.8696 0.9154
-21.8717 2.8565 -0.8682 0.9155
-21.8719 2.5818 -0.8668 0.9156
-21.8720 2.4448 -0.8662 0.9157
-21.8722 2.0348 -0.8646 0.9158
-21.8722 1.8984 -0.8641 0.9159
-21.8723 1.7622 -0.8637 0.9159
-21.8724 1.6261 -0.8633 0.9159
-21.8724 1.4902 -0.8629 0.9160
-24.2173 1.3492 -0.9547 0.9075
-27.2845 1.3509 -1.0752 0.8964
-36.1228 1.5647 -1.4231 0.8652
-47.9998 1.7818 -1.8905 0.8251
-47.9501 1.4831 -1.8882 0.8253
-47.9288 1.1858 -1.8870 0.8254
-47.9280 0.5928 -1.8866 0.8254
-47.9201 0.2963 -1.8861 0.8254
-50.8282 0.0000 -2.3787 0.8158
-21.8737 -0.1353 -1.0237 0.9161
-21.8738 -0.2706 -1.0237 0.9161
-21.8739 -0.5412 -1.0240 0.9161
-21.8741 -0.8120 -1.0244 0.9161
-21.8743 -1.2188 -1.0253 0.9160
-21.8744 -1.4904 -1.0260 0.9159
-21.8747 -1.8987 -1.0275 0.9158
-21.8750 -2.5822 -1.0308 0.9156
-21.8751 -2.7195 -1.0316 0.9155
-21.8752 -2.8570 -1.0324 0.9154
-21.8753 -2.9947 -1.0333 0.9154
-21.8754 -3.1327 -1.0342 0.9153
-21.8755 -3.4093 -1.0361 0.9152
-21.8756 -3.5480 -1.0371 0.9151
-21.8757 -3.8263 -1.0393 0.9149
-21.8758 -3.9659 -1.0404 0.9148
-21.8761 -4.5275 -1.0455 0.9144
-21.8762 -4.6688 -1.0468 0.9143
-21.8763 -4.8105 -1.0482 0.9142
-21.8765 -5.0950 -1.0512 0.9140
-21.8766 -5.3811 -1.0543 0.9137
-21.8767 -5.5248 -1.0559 0.9136
-21.8768 -5.6690 -1.0576 0.9135
-21.8769 -5.8136 -1.0593 0.9133
-21.8771 -6.2504 -1.0648 0.9129
-21.8772 -6.3970 -1.0667 0.9128
-21.8773 -6.5442 -1.0686 0.9126
-21.8774 -6.6919 -1.0706 0.9125
-21.8775 -6.8401 -1.0727 0.9123
-21.8775 -6.9890 -1.0748 0.9121
-21.8777 -7.2884 -1.0792 0.9118
-21.8778 -7.4391 -1.0814 0.9116
-21.8779 -7.5904 -1.0837 0.9114
-21.8783 -8.3569 -1.0960 0.9105
-21.8784 -8.5124 -1.0986 0.9103
-21.8785 -8.6686 -1.1013 0.9101
-21.8787 -8.9833 -1.1068 0.9096
-21.8788 -9.1419 -1.1097 0.9094
-21.8790 -9.4615 -1.1155 0.9090
-21.8792 -9.7845 -1.1216 0.9085
-21.8793 -9.9474 -1.1248 0.9082
-21.8796 -10.4416 -1.1345 0.9075
-23.9387 -12.3470 -1.2605 0.8978
-23.6778 -12.3983 -1.2508 0.8985
-22.7713 -12.2849 -1.2108 0.9016
-4.2485 -2.3261 -0.2267 0.9808
-4.1869 -2.3261 -0.2241 0.9810
-4.1266 -2.3261 -0.2217 0.9812
-4.0676 -2.3262 -0.2193 0.9814
-3.9535 -2.3262 -0.2147 0.9818
-3.5888 -2.3264 -0.2001 0.9830
-3.5407 -2.3264 -0.1983 0.9832
-3.4157 -2.2747 -0.1921 0.9837
-3.3287 -2.3996 -0.1920 0.9837
-3.3287 -2.4311 -0.1929 0.9836
-3.2867 -2.4317 -0.1913 0.9838
-3.1624 -2.4318 -0.1867 0.9842
-3.1223 -2.4318 -0.1852 0.9843
-3.0056 -2.4319 -0.1809 0.9846
-2.9680 -2.4319 -0.1796 0.9848
-2.8584 -2.3719 -0.1738 0.9852
-2.8309 -2.3787 -0.1730 0.9853
-2.8226 -2.4320 -0.1744 0.9852
-2.7876 -2.4320 -0.1731 0.9853
-2.7190 -2.4321 -0.1707 0.9855
-2.6854 -2.4321 -0.1695 0.9856
-2.6196 -2.4321 -0.1673 0.9858
-2.5874 -2.4321 -0.1662 0.9859
-2.5241 -2.4321 -0.1640 0.9861
-2.4931 -2.4322 -0.1630 0.9861
-2.2298 -2.3722 -0.1524 0.9870
-2.2024 -2.3722 -0.1515 0.9871
-2.1998 -2.3991 -0.1523 0.9871
-2.2028 -2.4323 -0.1536 0.9869
-2.1487 -2.4324 -0.1519 0.9871
-2.1221 -2.4324 -0.1511 0.9872
-2.0183 -2.4324 -0.1479 0.9874
-1.9931 -2.4324 -0.1472 0.9875
-1.9433 -2.4325 -0.1457 0.9876
-1.8946 -2.4325 -0.1443 0.9877
-1.6635 -2.2777 -0.1320 0.9888
-1.6635 -2.3076 -0.1331 0.9887
-1.6561 -2.3275 -0.1337 0.9886
-1.6345 -2.3275 -0.1331 0.9887
-1.5500 -2.3275 -0.1309 0.9889
-1.5293 -2.3276 -0.1303 0.9889
-1.5088 -2.3276 -0.1298 0.9890
-1.4884 -2.3276 -0.1293 0.9890
-1.4283 -2.3276 -0.1278 0.9891
-1.3696 -2.3276 -0.1264 0.9892
-1.3503 -2.3277 -0.1259 0.9893
-1.3311 -2.3277 -0.1255 0.9893
-1.3121 -2.3277 -0.1250 0.9894
-1.2932 -2.3277 -0.1246 0.9894
-1.2744 -2.3277 -0.1242 0.9894
-1.2188 -2.3277 -0.1230 0.9895
-1.1824 -2.3277 -0.1222 0.9896
-1.1286 -2.3278 -0.1211 0.9897
-1.1109 -2.3278 -0.1207 0.9897
-1.0932 -2.3278 -0.1203 0.9898
-1.0583 -2.3278 -0.1197 0.9898
-1.0410 -2.3278 -0.1193 0.9898
-0.9558 -2.3279 -0.1178 0.9900
-0.9390 -2.3279 -0.1175 0.9900
-0.9223 -2.3279 -0.1172 0.9900
-0.7916 -2.3280 -0.1151 0.9902
-0.7755 -2.3280 -0.1148 0.9902
-0.7596 -2.3280 -0.1146 0.9902
-0.7437 -2.3280 -0.1144 0.9903
-0.7279 -2.3280 -0.1141 0.9903
-0.6651 -2.3280 -0.1133 0.9904
-0.5879 -2.3280 -0.1124 0.9904
-0.5574 -2.3281 -0.1120 0.9905
-0.5422 -2.3281 -0.1119 0.9905
-0.5270 -2.3281 -0.1117 0.9905
-0.5119 -2.3281 -0.1116 0.9905
-0.4668 -2.3281 -0.1111 0.9905
-0.4519 -2.3281 -0.1110 0.9905
-0.4221 -2.3281 -0.1107 0.9906
-0.3924 -2.3282 -0.1105 0.9906
-0.3629 -2.3282 -0.1103 0.9906
-0.3481 -2.3282 -0.1102 0.9906
-0.3187 -2.3282 -0.1100 0.9906
-0.3041 -2.3282 -0.1099 0.9906
-0.2748 -2.3282 -0.1097 0.9907
-0.2457 -2.3282 -0.1096 0.9907
-0.2311 -2.3283 -0.1095 0.9907
-0.1876 -2.3283 -0.1093 0.9907
-0.1731 -2.3283 -0.1093 0.9907
-0.1586 -2.3283 -0.1092 0.9907
-0.1442 -2.3283 -0.1092 0.9907
-0.1297 -2.3283 -0.1091 0.9907
-0.1009 -2.3283 -0.1091 0.9907
-0.0720 -2.3283 -0.1090 0.9907
-0.0576 -2.3284 -0.1090 0.9907
-0.0432 -2.3284 -0.1090 0.9907
0.0144 -2.3284 -0.1090 0.9907
0.0288 -2.3284 -0.1090 0.9907
0.0576 -2.3284 -0.1090 0.9907
0.0864 -2.3284 -0.1090 0.9907
0.1009 -2.3284 -0.1091 0.9907
0.1297 -2.3285 -0.1091 0.9907
0.1442 -2.3285 -0.1092 0.9907
0.1586 -2.3285 -0.1092 0.9907
0.1731 -2.3285 -0.1093 0.9907
0.1876 -2.3285 -0.1093 0.9907
0.2312 -2.3285 -0.1095 0.9907
0.2457 -2.3285 -0.1096 0.9907
0.2603 -2.3285 -0.1096 0.9907
0.3041 -2.3286 -0.1099 0.9906
0.3188 -2.3286 -0.1100 0.9906
0.3482 -2.3286 -0.1102 0.9906
0.3837 -2.2768 -0.1081 0.9908
0.4128 -2.2768 -0.1083 0.9908
0.4273 -2.2768 -0.1084 0.9908
0.5194 -2.4338 -0.1165 0.9901
0.5510 -2.4338 -0.1168 0.9901
0.5987 -2.4338 -0.1173 0.9900
0.6146 -2.4339 -0.1175 0.9900
0.6307 -2.4339 -0.1177 0.9900
0.6791 -2.4339 -0.1183 0.9899
0.7280 -2.4339 -0.1189 0.9899
0.7610 -2.4339 -0.1193 0.9898
0.7775 -2.4340 -0.1196 0.9898
0.8276 -2.4340 -0.1203 0.9898
0.8444 -2.4340 -0.1206 0.9897
0.9067 -2.3739 -0.1189 0.9899
0.9406 -2.3739 -0.1195 0.9898
0.9818 -2.4341 -0.1228 0.9895
0.9994 -2.4341 -0.1231 0.9895
1.0170 -2.4341 -0.1235 0.9895
1.0705 -2.4341 -0.1244 0.9894
1.0885 -2.4341 -0.1248 0.9894
1.1067 -2.4341 -0.1251 0.9893
1.1249 -2.4342 -0.1255 0.9893
1.1432 -2.4342 -0.1258 0.9893
1.1988 -2.4342 -0.1270 0.9892
1.2939 -2.4342 -0.1290 0.9890
1.3132 -2.4342 -0.1294 0.9890
1.3328 -2.4342 -0.1299 0.9889
1.3524 -2.4343 -0.1303 0.9889
1.4323 -2.4343 -0.1322 0.9888
1.4527 -2.4343 -0.1327 0.9887
1.5262 -2.4194 -0.1339 0.9886
1.5391 -2.3743 -0.1324 0.9887
1.5600 -2.3743 -0.1329 0.9887
1.6212 -2.4344 -0.1369 0.9884
1.6430 -2.4344 -0.1374 0.9883
1.6650 -2.4344 -0.1380 0.9883
1.7096 -2.4345 -0.1392 0.9882
1.7322 -2.4345 -0.1398 0.9881
1.7780 -2.4345 -0.1411 0.9880
1.8012 -2.4345 -0.1417 0.9879
1.8721 -2.4345 -0.1437 0.9878
1.9204 -2.4346 -0.1451 0.9877
2.0202 -2.4346 -0.1481 0.9874
2.0239 -2.4087 -0.1472 0.9875
2.0239 -2.3787 -0.1462 0.9876
2.0240 -2.3491 -0.1451 0.9877
2.0240 -2.3200 -0.1441 0.9877
2.0373 -2.2777 -0.1430 0.9878
2.0628 -2.2777 -0.1438 0.9878
2.1628 -2.3296 -0.1488 0.9874
2.1898 -2.3296 -0.1496 0.9873
2.2171 -2.3296 -0.1505 0.9872
2.2447 -2.3296 -0.1514 0.9871
2.2727 -2.3296 -0.1523 0.9871
2.3010 -2.3296 -0.1532 0.9870
2.3296 -2.3296 -0.1542 0.9869
2.3880 -2.3296 -0.1561 0.9867
2.7041 -2.3298 -0.1670 0.9858
2.7728 -2.3299 -0.1695 0.9856
2.8079 -2.3299 -0.1707 0.9855
2.8435 -2.3299 -0.1720 0.9854
3.0301 -2.3300 -0.1789 0.9848
3.1123 -2.3326 -0.1820 0.9845
3.2165 -2.3491 -0.1864 0.9842
3.2705 -2.3577 -0.1887 0.9840
3.3259 -2.3665 -0.1910 0.9838
3.5710 -2.3781 -0.2008 0.9830
9.9915 -6.0466 -0.5465 0.9543
9.9897 -5.9614 -0.5444 0.9545
9.9880 -5.8769 -0.5423 0.9547
9.9828 -5.6272 -0.5363 0.9551
9.9811 -5.5452 -0.5343 0.9553
9.9794 -5.4637 -0.5324 0.9555
9.9777 -5.3829 -0.5306 0.9556
9.9760 -5.3026 -0.5287 0.9558
10.0451 -5.2599 -0.5306 0.9556
10.5001 -5.2523 -0.5494 0.9541
10.6590 -5.2496 -0.5560 0.9535
10.8219 -5.2469 -0.5628 0.9530
11.5151 -5.2354 -0.5920 0.9506
11.6998 -5.2322 -0.5998 0.9500
11.8895 -5.2291 -0.6078 0.9493
12.7023 -5.2155 -0.6426 0.9465
12.9203 -5.2119 -0.6520 0.9457
13.1447 -5.2081 -0.6617 0.9450
38.6686 -15.0451 -1.9417 0.8469
39.1476 -14.9533 -1.9611 0.8455
38.6690 -14.4971 -1.9326 0.8476
38.8944 -14.3079 -1.9394 0.8471
38.8947 -14.0356 -1.9351 0.8474
38.8949 -13.7644 -1.9308 0.8477
38.8952 -13.4944 -1.9266 0.8480
38.8957 -12.9579 -1.9186 0.8486
38.8962 -12.4257 -1.9109 0.8492
38.8964 -12.1613 -1.9072 0.8494
38.2396 -11.6968 -1.8714 0.8520
38.8969 -11.6353 -1.9000 0.8500
39.0612 -11.1600 -1.9011 0.8499
39.0618 -10.1221 -1.8884 0.8508
39.0624 -9.0975 -1.8770 0.8516
39.0625 -8.8432 -1.8743 0.8518
39.0626 -8.5896 -1.8717 0.8520
39.4243 -8.4139 -1.8865 0.8509
43.3732 -8.4185 -2.0677 0.8378
31.7124 -5.3449 -1.5050 0.8792
31.7007 -4.7400 -1.5000 0.8795
31.6966 -4.3393 -1.4972 0.8798
31.6933 -4.1393 -1.4958 0.8799
31.6899 -3.9397 -1.4944 0.8800
31.6867 -3.7404 -1.4932 0.8801
31.6833 -3.5415 -1.4919 0.8802
31.6801 -3.3429 -1.4908 0.8802
31.6742 -2.9467 -1.4887 0.8804
31.6716 -2.7490 -1.4877 0.8805
31.6655 -2.3543 -1.4860 0.8806
31.6932 -1.7658 -1.4855 0.8806
31.9851 -1.5837 -1.4987 0.8796
39.0666 -1.4502 -1.8295 0.8551
39.0673 -0.2416 -1.8283 0.8552
39.0675 0.2416 -1.8283 0.8552
31.3966 0.3883 -1.4694 0.8818
31.3358 0.5814 -1.4667 0.8821
31.2876 0.7741 -1.4646 0.8822
31.1941 1.1580 -1.4608 0.8825
31.1684 1.5433 -1.4604 0.8825
31.1347 2.1213 -1.4604 0.8825
31.1249 2.3140 -1.4606 0.8825
31.1120 2.7004 -1.4614 0.8825
31.1027 3.0876 -1.4627 0.8824
31.0978 3.2815 -1.4634 0.8823
31.5274 3.5241 -1.4846 0.8807
31.5227 3.7211 -1.4854 0.8806
38.9073 5.0814 -1.8362 0.8546
38.9075 5.5717 -1.8394 0.8544
38.9076 5.8175 -1.8410 0.8542
38.9078 6.3104 -1.8446 0.8540
38.9078 6.5577 -1.8465 0.8539
38.6810 7.2599 -1.8418 0.8542
39.0715 7.5836 -1.8626 0.8527
39.0716 7.8347 -1.8649 0.8525
39.0718 8.0863 -1.8672 0.8523
39.0720 8.5917 -1.8722 0.8520
39.0722 8.8454 -1.8748 0.8518
39.0726 9.6108 -1.8830 0.8512
39.0727 9.8675 -1.8859 0.8510
39.0729 10.3833 -1.8920 0.8505
40.7577 11.6447 -1.9837 0.8439
39.9847 11.6918 -1.9496 0.8464
39.6211 12.1193 -1.9390 0.8471
40.7669 13.0233 -2.0028 0.8425
50.8145 16.5801 -2.5014 0.8073
50.5958 17.2040 -2.5009 0.8074
50.3690 17.8249 -2.5004 0.8074
40.3330 14.5546 -2.0066 0.8422
40.0914 14.7482 -1.9991 0.8428
40.0192 15.0033 -2.0001 0.8427
39.7073 15.4492 -1.9939 0.8431
39.5521 15.6711 -1.9909 0.8434
39.2210 16.6737 -1.9944 0.8431
39.1251 16.9194 -1.9948 0.8431
38.8729 17.0965 -1.9873 0.8436
38.7732 19.3949 -2.0288 0.8406
39.1169 20.1754 -2.0597 0.8384
39.0786 21.0825 -2.0780 0.8371
39.0788 21.3957 -2.0850 0.8366
39.0791 22.0285 -2.0994 0.8356
3.4658 2.0392 -0.1882 0.9840
3.4249 2.0438 -0.1866 0.9842
3.2979 2.0238 -0.1811 0.9846
3.2372 2.0142 -0.1784 0.9848
3.1783 2.0049 -0.1759 0.9851
3.0112 1.9786 -0.1686 0.9857
2.9681 1.9766 -0.1669 0.9858
2.9287 1.9766 -0.1654 0.9860
2.8521 1.9767 -0.1624 0.9862
2.8148 1.9767 -0.1610 0.9863
2.7781 1.9767 -0.1596 0.9864
2.7066 1.9767 -0.1568 0.9867
2.6376 1.9768 -0.1543 0.9869
2.5708 1.9768 -0.1518 0.9871
2.5381 1.9768 -0.1506 0.9872
2.4744 1.9769 -0.1482 0.9874
2.4127 1.9769 -0.1460 0.9876
2.3527 1.9770 -0.1438 0.9878
2.2946 1.9770 -0.1417 0.9879
2.2380 1.9770 -0.1397 0.9881
2.1830 1.9770 -0.1378 0.9883
2.1561 1.9770 -0.1369 0.9884
2.0774 1.9771 -0.1342 0.9886
1.9981 1.9253 -0.1299 0.9890
1.9493 1.9253 -0.1282 0.9891
1.9264 1.9504 -0.1283 0.9891
1.9264 1.9746 -0.1291 0.9890
1.9264 2.0750 -0.1325 0.9887
1.8626 2.0824 -0.1307 0.9889
1.8395 2.0824 -0.1300 0.9889
1.7719 2.0824 -0.1280 0.9891
1.7063 2.0824 -0.1260 0.9893
1.6427 2.0825 -0.1241 0.9894
1.6220 2.0825 -0.1235 0.9895
1.6014 2.0825 -0.1229 0.9895
1.5608 2.0825 -0.1218 0.9896
1.5408 2.0825 -0.1212 0.9897
1.4580 2.0225 -0.1167 0.9901
1.4287 2.0614 -0.1174 0.9900
1.4056 2.0826 -0.1176 0.9900
1.3500 2.0826 -0.1161 0.9901
1.3318 2.0827 -0.1157 0.9901
1.2958 2.0827 -0.1148 0.9902
1.2780 2.0827 -0.1144 0.9903
1.2254 2.0827 -0.1131 0.9904
1.1910 2.0827 -0.1123 0.9904
1.1740 2.0827 -0.1119 0.9905
1.1571 2.0827 -0.1115 0.9905
1.1403 2.0828 -0.1111 0.9905
1.1071 2.0828 -0.1104 0.9906
1.0906 2.0828 -0.1100 0.9906
1.0580 2.0828 -0.1093 0.9907
1.0419 2.0828 -0.1090 0.9907
0.9315 2.0829 -0.1068 0.9909
0.9007 2.0829 -0.1062 0.9910
0.8855 2.0829 -0.1059 0.9910
0.8452 2.0228 -0.1026 0.9913
0.8306 2.0228 -0.1023 0.9913
0.8015 2.0228 -0.1018 0.9913
0.7977 2.0503 -0.1030 0.9912
0.7956 2.0829 -0.1043 0.9911
0.7662 2.0829 -0.1039 0.9912
0.7083 2.0830 -0.1030 0.9912
0.6797 2.0830 -0.1025 0.9913
0.6513 2.0830 -0.1021 0.9913
0.6231 2.0830 -0.1017 0.9913
0.6091 2.0830 -0.1016 0.9913
0.5812 2.0830 -0.1012 0.9914
0.5674 2.0831 -0.1010 0.9914
0.4446 2.0831 -0.0997 0.9915
0.4311 2.0831 -0.0996 0.9915
0.3777 2.0832 -0.0991 0.9916
0.3246 1.9262 -0.0914 0.9922
0.2637 1.9263 -0.0910 0.9922
0.2584 1.9781 -0.0934 0.9920
0.1471 1.9781 -0.0928 0.9921
0.0980 1.9782 -0.0927 0.9921
0.0857 1.9782 -0.0927 0.9921
0.0734 1.9782 -0.0926 0.9921
0.0612 1.9782 -0.0926 0.9921
0.0245 1.9782 -0.0926 0.9921
0.0122 1.9782 -0.0926 0.9921
-0.0122 1.9782 -0.0926 0.9921
-0.0489 1.9782 -0.0926 0.9921
-0.0612 1.9783 -0.0926 0.9921
-0.0734 1.9782 -0.0926 0.9921
-0.0857 1.9783 -0.0927 0.9921
-0.1471 1.9783 -0.0928 0.9921
-0.1594 1.9783 -0.0929 0.9921
-0.1840 1.9783 -0.0930 0.9921
-0.2211 1.9783 -0.0932 0.9921
-0.2335 1.9783 -0.0932 0.9921
-0.2584 1.9784 -0.0934 0.9920
-0.2833 1.9784 -0.0935 0.9920
-0.2958 1.9784 -0.0936 0.9920
-0.3209 1.9784 -0.0938 0.9920
-0.3460 1.9784 -0.0940 0.9920
-0.3587 1.9784 -0.0941 0.9920
-0.3713 1.9784 -0.0942 0.9920
-0.3967 1.9784 -0.0944 0.9920
-0.4479 1.9785 -0.0949 0.9919
-0.4737 1.9785 -0.0952 0.9919
-0.4867 1.9785 -0.0953 0.9919
-0.4996 1.9785 -0.0955 0.9919
-0.5127 1.9785 -0.0956 0.9918
-0.5389 1.9785 -0.0960 0.9918
-0.5653 1.9785 -0.0963 0.9918
-0.5786 1.9785 -0.0965 0.9918
-0.5919 1.9785 -0.0966 0.9918
-0.6052 1.9785 -0.0968 0.9917
-0.6186 1.9786 -0.0970 0.9917
-0.6592 1.9786 -0.0976 0.9917
-0.6728 1.9786 -0.0978 0.9917
-0.7418 1.9786 -0.0989 0.9916
-0.7698 1.9786 -0.0994 0.9915
-0.8268 1.9787 -0.1004 0.9914
-0.8412 1.9787 -0.1006 0.9914
-0.8849 1.9787 -0.1014 0.9914
-0.9144 1.9787 -0.1020 0.9913
-0.9443 1.9787 -0.1026 0.9913
-0.9594 1.9787 -0.1029 0.9912
-1.0362 1.9788 -0.1045 0.9911
-1.0518 1.9788 -0.1049 0.9911
-1.0834 1.9788 -0.1056 0.9910
-1.0994 1.9788 -0.1059 0.9910
-1.1154 1.9788 -0.1063 0.9909
-1.1479 1.9788 -0.1071 0.9909
-1.1976 1.9789 -0.1082 0.9908
-1.2144 1.9789 -0.1087 0.9907
-1.2655 1.9789 -0.1099 0.9906
-1.3003 1.9789 -0.1108 0.9906
-1.3179 1.9789 -0.1113 0.9905
-1.3356 1.9789 -0.1117 0.9905
-1.3898 1.9790 -0.1132 0.9904
-1.4267 1.9790 -0.1142 0.9903
-1.4642 1.9790 -0.1152 0.9902
-1.4832 1.9790 -0.1157 0.9901
-1.5024 1.9790 -0.1163 0.9901
-1.5414 1.9790 -0.1174 0.9900
-1.6013 1.9791 -0.1191 0.9899
-1.6630 1.9791 -0.1210 0.9897
-1.7052 1.9792 -0.1223 0.9896
-1.7484 1.9792 -0.1236 0.9895
-1.7611 1.9689 -0.1236 0.9895
-1.7673 1.9274 -0.1224 0.9896
-1.7894 1.9274 -0.1231 0.9895
-1.8118 1.9274 -0.1238 0.9895
-1.8344 1.9274 -0.1245 0.9894
-2.0085 2.0845 -0.1355 0.9885
-2.0336 2.0845 -0.1363 0.9884
-2.0589 2.0845 -0.1371 0.9883
-2.0845 2.0845 -0.1380 0.9883
-2.1105 2.0845 -0.1388 0.9882
-2.1368 2.0845 -0.1397 0.9881
-2.1904 2.0846 -0.1415 0.9880
-2.2177 2.0846 -0.1424 0.9879
-2.2454 2.0846 -0.1434 0.9878
-2.3018 2.0846 -0.1453 0.9876
-2.2974 2.0549 -0.1443 0.9877
-2.2974 2.0295 -0.1435 0.9878
-2.3206 2.0245 -0.1441 0.9877
-2.4501 2.0847 -0.1505 0.9872
-2.5124 2.0847 -0.1528 0.9870
-2.5767 2.0848 -0.1551 0.9868
-2.6768 2.0848 -0.1588 0.9865
-2.8922 2.0849 -0.1669 0.9858
-2.9303 2.0850 -0.1683 0.9857
-2.9284 2.0565 -0.1675 0.9858
-2.9284 2.0296 -0.1667 0.9858
-3.1310 2.0850 -0.1760 0.9850
-3.1734 2.0851 -0.1777 0.9849
-3.2166 2.0851 -0.1794 0.9848
-3.3056 2.0852 -0.1829 0.9845
-3.3981 2.0852 -0.1866 0.9842
-3.4263 2.0734 -0.1874 0.9841
-3.4263 2.0446 -0.1867 0.9841
-3.4263 2.0160 -0.1860 0.9842
-3.4263 1.9594 -0.1847 0.9843
-3.4709 1.9283 -0.1858 0.9842
-3.8395 1.9803 -0.2022 0.9828
-3.9591 1.9804 -0.2072 0.9824
-4.0211 1.9804 -0.2098 0.9822
-4.1500 1.9804 -0.2152 0.9818
-21.8686 9.6179 -1.1180 0.9088
-21.8688 9.1377 -1.1092 0.9095
-21.8689 8.9792 -1.1063 0.9097
-21.8691 8.6648 -1.1008 0.9101
-21.8691 8.5087 -1.0982 0.9103
-21.8692 8.3534 -1.0956 0.9105
-21.8694 8.0450 -1.0905 0.9109
-21.8695 7.7393 -1.0856 0.9113
-21.8696 7.5875 -1.0833 0.9115
-21.8697 7.4363 -1.0810 0.9117
-21.8698 7.2858 -1.0788 0.9118
-21.8699 6.9865 -1.0744 0.9122
-21.8701 6.5420 -1.0683 0.9126
-21.8702 6.3949 -1.0663 0.9128
-21.8704 6.1024 -1.0626 0.9131
-21.8704 5.9569 -1.0608 0.9132
-21.8705 5.8119 -1.0590 0.9134
-21.8706 5.6673 -1.0573 0.9135
-21.8707 5.3796 -1.0540 0.9138
-21.8710 4.9512 -1.0494 0.9141
-21.8712 4.5265 -1.0452 0.9144
-21.8713 4.3856 -1.0439 0.9145
-21.8713 4.2451 -1.0426 0.9146
-21.8716 3.6863 -1.0380 0.9150
-21.8717 3.5474 -1.0369 0.9151
-21.8718 3.4087 -1.0359 0.9152
-21.8719 3.2703 -1.0349 0.9153
-21.8720 2.9942 -1.0331 0.9154
-21.8721 2.8566 -1.0323 0.9155
-21.8721 2.7191 -1.0314 0.9155
-21.8724 2.3080 -1.0293 0.9157
-21.8726 1.8985 -1.0274 0.9158
-21.8727 1.7622 -1.0269 0.9159
-21.8728 1.6262 -1.0264 0.9159
-24.2174 1.3493 -1.1351 0.9074
-26.5391 1.3140 -1.2435 0.8991
-35.3336 1.3117 -1.6547 0.8680
-50.8411 0.6288 -2.3794 0.8158
-50.8346 0.3143 -2.3790 0.8158
-45.1932 0.0000 -2.4513 0.8344
-21.8741 -0.1353 -1.1865 0.9161
-21.8742 -0.4059 -1.1867 0.9161
-21.8743 -0.5412 -1.1869 0.9161
-21.8744 -0.8121 -1.1873 0.9160
-21.8745 -0.9476 -1.1876 0.9160
-21.8746 -1.2188 -1.1883 0.9160
-21.8749 -1.6263 -1.1898 0.9159
-21.8235 -2.4394 -1.1911 0.9158
-21.8236 -2.5762 -1.1920 0.9157
-21.8239 -3.1253 -1.1958 0.9155
-21.8240 -3.2632 -1.1969 0.9154
-21.8240 -3.4013 -1.1981 0.9153
-21.8762 -3.9660 -1.2059 0.9148
-21.8762 -4.1059 -1.2073 0.9147
-21.8765 -4.5276 -1.2118 0.9144
-21.8767 -4.9526 -1.2167 0.9141
-21.8768 -5.0950 -1.2184 0.9139
-21.8770 -5.3812 -1.2220 0.9137
-21.8772 -5.8137 -1.2278 0.9133
-21.8773 -5.9588 -1.2299 0.9132
-21.8775 -6.2505 -1.2341 0.9129
-21.8776 -6.3971 -1.2364 0.9127
-21.8776 -6.5443 -1.2386 0.9126
-21.8780 -7.1385 -1.2483 0.9119
-21.8781 -7.2886 -1.2508 0.9118
-21.9834 -7.4750 -1.2595 0.9112
-21.9834 -7.6270 -1.2621 0.9110
-21.9835 -7.7797 -1.2649 0.9108
-21.9837 -8.0871 -1.2705 0.9104
-21.9838 -8.2418 -1.2735 0.9102
-21.9348 -8.5344 -1.2767 0.9100
-21.9842 -8.8681 -1.2858 0.9094
-21.8792 -9.1420 -1.2862 0.9094
-21.8794 -9.4616 -1.2930 0.9089
-21.8797 -9.9475 -1.3037 0.9082
-21.8798 -10.1113 -1.3074 0.9080
-21.8798 -10.2760 -1.3112 0.9077
-21.8800 -10.4417 -1.3150 0.9074
-21.8801 -10.7761 -1.3229 0.9069
-24.4069 -12.3979 -1.4849 0.8961
-23.3260 -12.3985 -1.4329 0.8996
-22.7717 -12.2851 -1.4035 0.9015
-4.2485 -2.3261 -0.2627 0.9808
-4.1869 -2.3261 -0.2598 0.9810
-4.1266 -2.3261 -0.2569 0.9812
-3.8982 -2.3262 -0.2462 0.9820
-3.5888 -2.3264 -0.2320 0.9830
-3.5407 -2.3264 -0.2298 0.9832
-3.4157 -2.2747 -0.2226 0.9837
-3.3704 -2.2747 -0.2206 0.9838
-3.3287 -2.2767 -0.2187 0.9840
-3.3287 -2.3070 -0.2197 0.9839
-3.3287 -2.3685 -0.2216 0.9838
-3.3287 -2.3997 -0.2226 0.9837
-3.3288 -2.4311 -0.2236 0.9836
-3.2867 -2.4317 -0.2218 0.9838
-3.1223 -2.4318 -0.2147 0.9843
-3.0439 -2.4319 -0.2113 0.9845
-2.9679 -2.4319 -0.2081 0.9847
-2.8227 -2.4320 -0.2021 0.9852
-2.7190 -2.4320 -0.1979 0.9855
-2.6854 -2.4321 -0.1965 0.9856
-2.6196 -2.4321 -0.1939 0.9858
-2.5874 -2.4321 -0.1926 0.9859
-2.5555 -2.4321 -0.1914 0.9860
-2.4931 -2.4322 -0.1889 0.9861
-2.4624 -2.4322 -0.1877 0.9862
-2.4322 -2.4322 -0.1866 0.9863
-2.3148 -2.4322 -0.1821 0.9866
-2.2024 -2.3722 -0.1756 0.9871
-2.1999 -2.3991 -0.1766 0.9870
-2.2028 -2.4323 -0.1780 0.9869
-2.1756 -2.4323 -0.1770 0.9870
-2.1221 -2.4324 -0.1751 0.9872
-2.0184 -2.4324 -0.1714 0.9874
-1.9931 -2.4324 -0.1706 0.9875
-1.9681 -2.4325 -0.1697 0.9875
-1.9433 -2.4325 -0.1689 0.9876
-1.7499 -2.2756 -0.1557 0.9886
-1.7276 -2.2756 -0.1550 0.9886
-1.7055 -2.2756 -0.1543 0.9887
-1.6635 -2.2778 -0.1530 0.9888
-1.6635 -2.3076 -0.1543 0.9887
-1.6561 -2.3275 -0.1549 0.9886
-1.6345 -2.3275 -0.1543 0.9887
-1.6131 -2.3275 -0.1536 0.9887
-1.5500 -2.3275 -0.1517 0.9889
-1.5088 -2.3275 -0.1505 0.9890
-1.4682 -2.3276 -0.1493 0.9890
-1.4482 -2.3276 -0.1487 0.9891
-1.4086 -2.3276 -0.1476 0.9892
-1.3890 -2.3276 -0.1470 0.9892
-1.3696 -2.3276 -0.1465 0.9892
-1.3503 -2.3277 -0.1460 0.9893
-1.3311 -2.3277 -0.1454 0.9893
-1.3121 -2.3277 -0.1449 0.9894
-1.2744 -2.3277 -0.1439 0.9894
-1.2558 -2.3277 -0.1435 0.9895
-1.2006 -2.3277 -0.1421 0.9896
-1.1644 -2.3278 -0.1412 0.9896
-1.1109 -2.3278 -0.1399 0.9897
-1.0757 -2.3278 -0.1391 0.9898
-1.0583 -2.3278 -0.1387 0.9898
-1.0410 -2.3278 -0.1383 0.9898
-0.9896 -2.3278 -0.1372 0.9899
-0.9727 -2.3279 -0.1368 0.9899
-0.9558 -2.3279 -0.1365 0.9900
-0.8892 -2.3279 -0.1352 0.9901
-0.8563 -2.3279 -0.1345 0.9901
-0.8238 -2.3279 -0.1339 0.9902
-0.8077 -2.3279 -0.1337 0.9902
-0.7916 -2.3279 -0.1334 0.9902
-0.7596 -2.3280 -0.1328 0.9902
-0.7437 -2.3280 -0.1326 0.9903
-0.7121 -2.3280 -0.1320 0.9903
-0.6964 -2.3280 -0.1318 0.9903
-0.6807 -2.3280 -0.1316 0.9903
-0.6651 -2.3280 -0.1313 0.9903
-0.6187 -2.3280 -0.1307 0.9904
-0.5574 -2.3281 -0.1298 0.9905
-0.5270 -2.3281 -0.1295 0.9905
-0.4519 -2.3281 -0.1286 0.9905
-0.4221 -2.3282 -0.1283 0.9906
-0.3924 -2.3282 -0.1281 0.9906
-0.3629 -2.3282 -0.1278 0.9906
-0.3481 -2.3282 -0.1277 0.9906
-0.3334 -2.3282 -0.1276 0.9906
-0.2895 -2.3282 -0.1273 0.9906
-0.2748 -2.3282 -0.1272 0.9907
-0.2457 -2.3282 -0.1270 0.9907
-0.2311 -2.3283 -0.1269 0.9907
-0.2021 -2.3283 -0.1268 0.9907
-0.1731 -2.3283 -0.1266 0.9907
-0.1297 -2.3283 -0.1265 0.9907
-0.1008 -2.3283 -0.1264 0.9907
-0.0864 -2.3283 -0.1264 0.9907
-0.0720 -2.3283 -0.1264 0.9907
-0.0432 -2.3284 -0.1263 0.9907
-0.0288 -2.3284 -0.1263 0.9907
-0.0144 -2.3284 -0.1263 0.9907
0.0576 -2.3284 -0.1263 0.9907
0.0864 -2.3284 -0.1264 0.9907
0.1153 -2.3284 -0.1265 0.9907
0.1442 -2.3285 -0.1265 0.9907
0.1586 -2.3285 -0.1266 0.9907
0.1731 -2.3285 -0.1266 0.9907
0.1876 -2.3285 -0.1267 0.9907
0.2021 -2.3285 -0.1268 0.9907
0.2166 -2.3285 -0.1268 0.9907
0.2457 -2.3285 -0.1270 0.9907
0.2603 -2.3285 -0.1271 0.9907
0.2895 -2.3285 -0.1273 0.9906
0.3188 -2.3286 -0.1275 0.9906
0.3590 -2.3035 -0.1265 0.9907
0.3693 -2.2768 -0.1251 0.9908
0.4880 -2.4338 -0.1346 0.9901
0.5352 -2.4338 -0.1352 0.9901
0.5510 -2.4338 -0.1354 0.9901
0.5668 -2.4338 -0.1355 0.9900
0.5827 -2.4338 -0.1357 0.9900
0.5987 -2.4339 -0.1359 0.9900
0.6146 -2.4339 -0.1362 0.9900
0.6307 -2.4339 -0.1364 0.9900
0.6468 -2.4339 -0.1366 0.9900
0.6629 -2.4339 -0.1368 0.9899
0.6791 -2.4339 -0.1371 0.9899
0.6954 -2.4339 -0.1373 0.9899
0.7117 -2.4339 -0.1375 0.9899
0.7445 -2.4339 -0.1381 0.9899
0.7610 -2.4339 -0.1383 0.9898
0.7775 -2.4339 -0.1386 0.9898
0.8276 -2.4340 -0.1394 0.9898
0.8444 -2.4340 -0.1397 0.9897
0.8613 -2.4340 -0.1400 0.9897
0.8952 -2.3879 -0.1383 0.9898
0.9068 -2.3739 -0.1378 0.9899
0.9236 -2.3739 -0.1382 0.9898
0.9406 -2.3739 -0.1385 0.9898
0.9819 -2.4341 -0.1424 0.9895
0.9994 -2.4341 -0.1427 0.9895
1.0170 -2.4341 -0.1431 0.9895
1.1249 -2.4342 -0.1454 0.9893
1.1616 -2.4342 -0.1463 0.9893
1.1802 -2.4342 -0.1467 0.9892
1.1988 -2.4342 -0.1472 0.9892
1.2746 -2.4342 -0.1490 0.9891
1.2939 -2.4342 -0.1495 0.9890
1.3524 -2.4343 -0.1510 0.9889
1.3722 -2.4343 -0.1516 0.9889
1.4938 -2.4343 -0.1549 0.9886
1.5146 -2.4343 -0.1555 0.9886
1.5261 -2.3865 -0.1537 0.9887
1.5391 -2.3742 -0.1535 0.9887
1.6212 -2.4344 -0.1586 0.9884
1.6430 -2.4344 -0.1593 0.9883
1.6872 -2.4345 -0.1607 0.9882
1.7096 -2.4345 -0.1614 0.9882
1.7322 -2.4345 -0.1621 0.9881
1.7550 -2.4345 -0.1628 0.9880
1.8246 -2.4345 -0.1650 0.9879
1.8482 -2.4345 -0.1658 0.9878
1.9698 -2.4346 -0.1699 0.9875
2.0239 -2.3491 -0.1682 0.9877
2.0240 -2.2912 -0.1658 0.9878
2.0628 -2.2777 -0.1667 0.9878
2.1897 -2.3296 -0.1734 0.9873
2.3010 -2.3296 -0.1776 0.9870
2.3296 -2.3296 -0.1787 0.9869
2.5094 -2.3297 -0.1857 0.9864
2.5407 -2.3298 -0.1870 0.9863
2.6373 -2.3298 -0.1909 0.9860
2.7727 -2.3299 -0.1964 0.9856
2.8078 -2.3299 -0.1979 0.9855
2.9164 -2.3300 -0.2025 0.9852
2.9916 -2.3300 -0.2057 0.9849
3.1123 -2.3326 -0.2110 0.9845
3.1638 -2.3408 -0.2135 0.9844
3.3260 -2.3665 -0.2214 0.9838
3.3827 -2.3755 -0.2242 0.9836
3.5007 -2.3943 -0.2300 0.9832
3.5588 -2.4019 -0.2329 0.9829
3.5710 -2.3781 -0.2327 0.9830
10.0026 -6.4841 -0.6466 0.9534
10.0007 -6.3954 -0.6439 0.9536
9.9989 -6.3074 -0.6412 0.9537
9.9953 -6.1336 -0.6361 0.9541
9.9935 -6.0478 -0.6336 0.9543
9.9882 -5.7942 -0.6263 0.9548
9.9813 -5.4648 -0.6172 0.9554
9.9779 -5.3036 -0.6129 0.9557
10.1941 -5.2578 -0.6222 0.9551
10.6599 -5.2501 -0.6445 0.9535
10.8228 -5.2473 -0.6524 0.9530
11.3362 -5.2388 -0.6774 0.9512
11.7009 -5.2327 -0.6952 0.9499
12.2858 -5.2230 -0.7241 0.9479
38.4318 -14.9529 -2.2368 0.8477
38.4331 -13.8690 -2.2162 0.8490
38.4334 -13.6011 -2.2114 0.8493
38.4340 -13.0687 -2.2019 0.8499
38.4344 -12.8042 -2.1974 0.8502
38.4800 -12.2928 -2.1911 0.8506
38.5970 -11.8061 -2.1893 0.8507
38.6831 -11.5713 -2.1901 0.8507
39.0608 -11.4216 -2.2074 0.8496
39.0609 -11.1599 -2.2035 0.8498
39.0610 -10.8991 -2.1997 0.8501
39.0612 -10.6392 -2.1959 0.8503
39.0613 -10.3802 -2.1923 0.8505
39.0616 -9.8647 -2.1853 0.8510
39.0617 -9.3524 -2.1786 0.8514
39.0619 -8.8430 -2.1724 0.8518
39.4242 -8.4139 -2.1866 0.8509
40.6697 -8.4171 -2.2527 0.8467
41.9797 -8.4178 -2.3224 0.8424
31.7489 -5.7558 -1.7502 0.8787
31.7225 -5.5486 -1.7468 0.8790
31.7252 -5.3471 -1.7451 0.8791
31.7146 -5.1438 -1.7427 0.8792
31.7009 -4.5397 -1.7370 0.8796
31.6974 -4.3394 -1.7353 0.8797
31.6925 -4.1392 -1.7336 0.8798
31.6892 -3.9396 -1.7321 0.8799
31.6858 -3.7403 -1.7306 0.8800
31.6791 -3.3428 -1.7279 0.8802
31.6720 -2.9465 -1.7254 0.8804
31.6686 -2.7487 -1.7242 0.8804
31.6595 -2.1570 -1.7212 0.8806
31.6595 -1.9604 -1.7205 0.8807
39.0660 -1.6922 -2.1210 0.8550
39.0663 -1.2084 -2.1200 0.8551
39.0665 -0.9666 -2.1197 0.8551
39.0668 -0.4832 -2.1192 0.8551
31.1985 0.1929 -1.6923 0.8825
31.0762 0.3844 -1.6857 0.8829
31.1196 1.3480 -1.6896 0.8827
31.1219 1.5410 -1.6902 0.8827
31.1186 1.7338 -1.6905 0.8826
31.1153 1.9267 -1.6910 0.8826
31.1087 2.3129 -1.6920 0.8825
30.9700 2.8812 -1.6871 0.8829
38.6592 4.8061 -2.1131 0.8555
38.6596 6.2702 -2.1244 0.8548
38.6597 6.7620 -2.1288 0.8545
39.0712 7.5835 -2.1588 0.8526
39.0713 7.8346 -2.1615 0.8525
39.0717 8.5916 -2.1699 0.8519
39.0719 8.8453 -2.1729 0.8517
39.0720 9.0997 -2.1760 0.8515
39.0721 9.6107 -2.1825 0.8511
39.0722 9.8673 -2.1859 0.8509
39.7282 10.8209 -2.2334 0.8479
39.9847 11.6918 -2.2596 0.8463
40.9093 12.7906 -2.3249 0.8422
43.5741 14.2177 -2.4862 0.8323
43.2921 15.0199 -2.4855 0.8323
40.3600 14.5643 -2.3274 0.8421
42.6820 16.6065 -2.4842 0.8324
39.2607 16.1203 -2.3021 0.8437
39.2734 16.4100 -2.3087 0.8432
39.1344 16.6370 -2.3066 0.8434
39.0283 16.8776 -2.3064 0.8434
38.9251 17.1194 -2.3065 0.8434
39.6319 18.6134 -2.3750 0.8391
39.4862 18.8439 -2.3732 0.8392
38.6163 18.7229 -2.3278 0.8421
38.7005 19.0602 -2.3399 0.8413
38.7895 19.4030 -2.3525 0.8405
39.0776 20.7711 -2.4004 0.8375
39.0779 21.0822 -2.4084 0.8371
3.4657 2.0392 -0.2181 0.9840
3.3605 2.0337 -0.2131 0.9844
3.2980 2.0238 -0.2099 0.9846
3.2373 2.0142 -0.2068 0.9848
3.0654 1.9871 -0.1982 0.9855
3.0113 1.9786 -0.1954 0.9857
2.9681 1.9766 -0.1934 0.9858
2.8521 1.9767 -0.1882 0.9862
2.8148 1.9767 -0.1866 0.9863
2.7067 1.9767 -0.1818 0.9867
2.5707 1.9768 -0.1759 0.9871
2.5060 1.9768 -0.1731 0.9873
2.4744 1.9769 -0.1718 0.9874
2.4433 1.9769 -0.1705 0.9875
2.3825 1.9769 -0.1679 0.9877
2.3528 1.9769 -0.1667 0.9878
2.3234 1.9770 -0.1655 0.9879
2.2946 1.9770 -0.1643 0.9879
2.1295 1.9771 -0.1576 0.9884
2.1033 1.9771 -0.1566 0.9885
1.9981 1.9253 -0.1505 0.9889
1.9263 1.9503 -0.1487 0.9891
1.9263 1.9746 -0.1496 0.9890
1.9264 1.9992 -0.1506 0.9889
1.9264 2.0241 -0.1516 0.9889
1.9264 2.0749 -0.1536 0.9887
1.9094 2.0823 -0.1532 0.9887
1.8859 2.0823 -0.1524 0.9888
1.7719 2.0824 -0.1483 0.9891
1.7498 2.0824 -0.1475 0.9892
1.7063 2.0824 -0.1460 0.9893
1.6637 2.0824 -0.1446 0.9894
1.6014 2.0825 -0.1425 0.9895
1.5810 2.0825 -0.1418 0.9896
1.5408 2.0825 -0.1405 0.9897
1.4244 2.0826 -0.1369 0.9899
1.4056 2.0826 -0.1363 0.9900
1.3869 2.0826 -0.1357 0.9900
1.3138 2.0827 -0.1336 0.9902
1.2958 2.0827 -0.1330 0.9902
1.2780 2.0827 -0.1325 0.9903
1.2604 2.0827 -0.1320 0.9903
1.2428 2.0827 -0.1316 0.9903
1.2254 2.0827 -0.1311 0.9904
1.1403 2.0827 -0.1288 0.9905
1.0742 2.0828 -0.1271 0.9907
1.0580 2.0828 -0.1267 0.9907
1.0419 2.0828 -0.1263 0.9907
1.0258 2.0828 -0.1259 0.9907
0.9626 2.0828 -0.1245 0.9909
0.9470 2.0829 -0.1241 0.9909
0.9161 2.0829 -0.1234 0.9909
0.9007 2.0829 -0.1231 0.9910
0.8855 2.0829 -0.1228 0.9910
0.8306 2.0228 -0.1186 0.9913
0.8160 2.0228 -0.1183 0.9913
0.8015 2.0228 -0.1180 0.9913
0.7809 2.0829 -0.1207 0.9911
0.7662 2.0829 -0.1204 0.9911
0.7517 2.0829 -0.1201 0.9912
0.7371 2.0829 -0.1198 0.9912
0.7227 2.0830 -0.1196 0.9912
0.7083 2.0830 -0.1193 0.9912
0.6796 2.0830 -0.1188 0.9913
0.6654 2.0830 -0.1186 0.9913
0.6371 2.0830 -0.1182 0.9913
0.6231 2.0830 -0.1179 0.9913
0.6091 2.0830 -0.1177 0.9913
0.5536 2.0831 -0.1169 0.9914
0.5398 2.0831 -0.1167 0.9914
0.5124 2.0831 -0.1164 0.9914
0.4987 2.0831 -0.1162 0.9915
0.4851 2.0831 -0.1160 0.9915
0.4446 2.0831 -0.1155 0.9915
0.4311 2.0831 -0.1154 0.9915
0.4043 2.0832 -0.1151 0.9915
0.3246 1.9262 -0.1060 0.9922
0.2880 1.9262 -0.1056 0.9922
0.2758 1.9263 -0.1055 0.9922
0.2637 1.9263 -0.1055 0.9922
0.2211 1.9781 -0.1080 0.9921
0.2087 1.9781 -0.1079 0.9921
0.1840 1.9781 -0.1078 0.9921
0.1594 1.9781 -0.1076 0.9921
0.1471 1.9781 -0.1076 0.9921
0.1348 1.9781 -0.1075 0.9921
0.1225 1.9781 -0.1075 0.9921
0.1102 1.9782 -0.1075 0.9921
0.0979 1.9782 -0.1074 0.9921
0.0245 1.9782 -0.1073 0.9921
0.0000 1.9782 -0.1073 0.9921
-0.0245 1.9782 -0.1073 0.9921
-0.0367 1.9782 -0.1073 0.9921
-0.0489 1.9783 -0.1073 0.9921
-0.0734 1.9783 -0.1074 0.9921
-0.0857 1.9783 -0.1074 0.9921
-0.0979 1.9783 -0.1074 0.9921
-0.1102 1.9783 -0.1075 0.9921
-0.1471 1.9783 -0.1076 0.9921
-0.1717 1.9783 -0.1077 0.9921
-0.1964 1.9783 -0.1078 0.9921
-0.2087 1.9783 -0.1079 0.9921
-0.2211 1.9783 -0.1080 0.9921
-0.2335 1.9783 -0.1081 0.9921
-0.2708 1.9784 -0.1083 0.9920
-0.2833 1.9784 -0.1084 0.9920
-0.2958 1.9784 -0.1085 0.9920
-0.3209 1.9784 -0.1087 0.9920
-0.3587 1.9784 -0.1091 0.9920
-0.3713 1.9784 -0.1092 0.9920
-0.3840 1.9784 -0.1093 0.9920
-0.3967 1.9784 -0.1094 0.9919
-0.4095 1.9784 -0.1096 0.9919
-0.4222 1.9784 -0.1097 0.9919
-0.4479 1.9785 -0.1100 0.9919
-0.4608 1.9785 -0.1102 0.9919
-0.4866 1.9785 -0.1105 0.9919
-0.5127 1.9785 -0.1109 0.9918
-0.5389 1.9785 -0.1112 0.9918
-0.5521 1.9785 -0.1114 0.9918
-0.5653 1.9785 -0.1116 0.9918
-0.5785 1.9785 -0.1118 0.9918
-0.6052 1.9786 -0.1122 0.9917
-0.6186 1.9786 -0.1124 0.9917
-0.6865 1.9786 -0.1136 0.9916
-0.7140 1.9786 -0.1141 0.9916
-0.7279 1.9786 -0.1144 0.9916
-0.7558 1.9786 -0.1149 0.9916
-0.7699 1.9786 -0.1152 0.9915
-0.7982 1.9787 -0.1157 0.9915
-0.8124 1.9787 -0.1160 0.9915
-0.8849 1.9787 -0.1176 0.9914
-0.9144 1.9787 -0.1182 0.9913
-0.9594 1.9787 -0.1193 0.9912
-0.9898 1.9787 -0.1200 0.9912
-1.0206 1.9788 -0.1208 0.9911
-1.0362 1.9788 -0.1212 0.9911
-1.0518 1.9788 -0.1216 0.9911
-1.0675 1.9788 -0.1220 0.9910
-1.1154 1.9788 -0.1232 0.9909
-1.1644 1.9789 -0.1245 0.9908
-1.1976 1.9789 -0.1255 0.9908
-1.2313 1.9789 -0.1264 0.9907
-1.2655 1.9789 -0.1274 0.9906
-1.2828 1.9789 -0.1279 0.9906
-1.3356 1.9789 -0.1295 0.9905
-1.3535 1.9790 -0.1300 0.9904
-1.3716 1.9790 -0.1306 0.9904
-1.4267 1.9790 -0.1323 0.9903
-1.4642 1.9790 -0.1335 0.9902
-1.5024 1.9790 -0.1348 0.9901
-1.5218 1.9790 -0.1354 0.9900
-1.5414 1.9791 -0.1361 0.9900
-1.5612 1.9791 -0.1367 0.9900
-1.6013 1.9791 -0.1381 0.9899
-1.6217 1.9791 -0.1388 0.9898
-1.6422 1.9791 -0.1395 0.9898
-1.6630 1.9791 -0.1402 0.9897
-1.6840 1.9791 -0.1410 0.9896
-1.7053 1.9792 -0.1417 0.9896
-1.7484 1.9792 -0.1432 0.9895
-1.7612 1.9446 -0.1423 0.9895
-1.7673 1.9274 -0.1418 0.9896
-1.8118 1.9274 -0.1435 0.9895
-1.8344 1.9274 -0.1443 0.9894
-2.1105 2.0845 -0.1609 0.9882
-2.1368 2.0846 -0.1619 0.9881
-2.1634 2.0845 -0.1630 0.9880
-2.2177 2.0846 -0.1651 0.9879
-2.3018 2.0846 -0.1684 0.9876
-2.2974 2.0549 -0.1672 0.9877
-2.3206 2.0245 -0.1670 0.9877
-2.4196 2.0847 -0.1732 0.9873
-2.4501 2.0847 -0.1745 0.9872
-2.4810 2.0847 -0.1758 0.9871
-2.5124 2.0847 -0.1771 0.9870
-2.5443 2.0847 -0.1784 0.9869
-2.5767 2.0848 -0.1798 0.9868
-2.6096 2.0848 -0.1812 0.9867
-2.6429 2.0848 -0.1826 0.9866
-2.7112 2.0848 -0.1855 0.9864
-2.7818 2.0849 -0.1886 0.9862
-2.8548 2.0849 -0.1917 0.9859
-2.8922 2.0849 -0.1934 0.9858
-2.9285 2.0565 -0.1941 0.9858
-2.9285 2.0296 -0.1933 0.9858
-2.9606 2.0249 -0.1946 0.9857
-3.0894 2.0850 -0.2022 0.9852
-3.2166 2.0851 -0.2079 0.9848
-3.2607 2.0851 -0.2099 0.9846
-3.3055 2.0852 -0.2120 0.9845
-3.3514 2.0852 -0.2141 0.9843
-3.4264 1.9876 -0.2149 0.9843
-3.4709 1.9283 -0.2154 0.9842
-3.6168 1.9802 -0.2237 0.9836
-3.7256 1.9802 -0.2289 0.9832
-3.8395 1.9803 -0.2343 0.9828
-3.8986 1.9803 -0.2372 0.9826
-3.9591 1.9804 -0.2401 0.9824
-4.0211 1.9804 -0.2431 0.9822
-4.0847 1.9804 -0.2462 0.9820
-4.1500 1.9805 -0.2494 0.9817
-4.3563 1.9806 -0.2596 0.9810
-21.9742 9.3417 -1.2952 0.9088
-21.9252 9.1612 -1.2889 0.9092
-21.9745 8.8642 -1.2853 0.9094
-21.8695 8.5089 -1.2729 0.9103
-21.8697 8.1990 -1.2669 0.9107
-21.8699 7.7394 -1.2583 0.9113
-21.8700 7.5876 -1.2556 0.9114
-21.8705 6.5421 -1.2382 0.9126
-21.8706 6.2485 -1.2338 0.9129
-21.8709 5.8120 -1.2275 0.9133
-21.8710 5.6674 -1.2255 0.9135
-21.8710 5.5233 -1.2236 0.9136
-21.8712 5.2365 -1.2198 0.9138
-21.8712 5.0937 -1.2181 0.9140
-21.8196 4.7979 -1.2118 0.9144
-21.8199 4.2351 -1.2056 0.9148
-21.8200 3.9558 -1.2028 0.9150
-21.8204 3.2626 -1.1967 0.9154
-21.8723 3.1322 -1.1985 0.9153
-21.8725 2.7192 -1.1955 0.9155
-21.8726 2.4449 -1.1938 0.9156
-21.8727 2.3080 -1.1930 0.9157
-21.8729 2.0348 -1.1915 0.9158
-26.5395 1.3141 -1.4413 0.8990
-35.3028 1.5292 -1.9167 0.8680
-35.3562 0.8748 -1.9184 0.8679
-45.1896 0.5589 -2.4513 0.8344
-45.1923 0.2794 -2.4513 0.8344
-21.8744 -0.1353 -1.3495 0.9161
-21.8745 -0.4059 -1.3497 0.9161
-21.8747 -0.6766 -1.3501 0.9160
-21.8749 -1.0831 -1.3511 0.9160
-21.8750 -1.3545 -1.3521 0.9159
-21.8752 -1.6264 -1.3532 0.9158
-21.8753 -1.7625 -1.3539 0.9158
-21.9806 -2.0449 -1.3619 0.9153
-21.9807 -2.1821 -1.3627 0.9153
-21.9808 -2.3195 -1.3635 0.9152
-21.9317 -2.4515 -1.3614 0.9154
-21.9811 -2.8709 -1.3675 0.9150
-21.9811 -3.0092 -1.3687 0.9149
-21.9812 -3.1478 -1.3699 0.9149
-21.9814 -3.4258 -1.3724 0.9147
-21.9814 -3.5652 -1.3738 0.9146
-21.8764 -3.8264 -1.3701 0.9148
-21.8765 -3.9660 -1.3716 0.9148
-21.8767 -4.2462 -1.3748 0.9146
-21.8768 -4.3868 -1.3765 0.9145
-21.8769 -4.6690 -1.3800 0.9143
-21.8771 -4.9527 -1.3838 0.9140
-21.8772 -5.2380 -1.3878 0.9138
-21.8773 -5.3812 -1.3899 0.9137
-21.8774 -5.5250 -1.3920 0.9135
-21.8776 -5.8138 -1.3965 0.9133
-21.8777 -5.9589 -1.3988 0.9131
-21.8777 -6.1045 -1.4012 0.9130
-21.8780 -6.5444 -1.4088 0.9125
-21.8782 -6.8404 -1.4141 0.9122
-21.9837 -7.4751 -1.4325 0.9111
-21.9840 -7.9332 -1.4418 0.9106
-21.9842 -8.2420 -1.4484 0.9102
-21.9843 -8.3974 -1.4518 0.9100
-21.9844 -8.7106 -1.4588 0.9096
-21.9845 -8.8683 -1.4624 0.9094
-21.8795 -9.1422 -1.4629 0.9093
-21.8796 -9.3016 -1.4667 0.9091
-21.8798 -9.6229 -1.4746 0.9087
-21.8799 -9.7849 -1.4786 0.9084
-21.8800 -9.9477 -1.4828 0.9082
-21.8802 -10.2762 -1.4913 0.9077
-21.8803 -10.4419 -1.4956 0.9074
-24.4715 -12.2409 -1.6880 0.8961
-23.3259 -12.3985 -1.6296 0.8995
-22.7721 -12.2854 -1.5962 0.9015
