ply
format ascii 1.0
element vertex 1594
property float32 x
property float32 y
property float32 z
property float32 I
end_header
-1.2689 7.2545 -2.3920 0.9695
-1.3137 7.2462 -2.3919 0.9695
-1.3584 7.2377 -2.3918 0.9695
-1.4477 7.2197 -2.3916 0.9695
-1.4923 7.2103 -2.3915 0.9695
-1.5812 7.1906 -2.3913 0.9695
-1.6256 7.1804 -2.3912 0.9695
-1.6698 7.1700 -2.3911 0.9695
-1.7141 7.1592 -2.3910 0.9695
-1.8464 7.1253 -2.3907 0.9695
-1.8903 7.1134 -2.3906 0.9695
-1.9780 7.0889 -2.3904 0.9695
-2.0217 7.0762 -2.3903 0.9695
-2.0653 7.0633 -2.3902 0.9695
-2.1089 7.0501 -2.3901 0.9695
-2.1524 7.0366 -2.3900 0.9695
-2.1958 7.0229 -2.3899 0.9695
-2.2823 6.9946 -2.3897 0.9695
-2.3684 6.9653 -2.3895 0.9695
-2.4113 6.9502 -2.3894 0.9695
-2.4542 6.9349 -2.3893 0.9695
-2.5395 6.9034 -2.3891 0.9695
-2.9186 6.7490 -2.3883 0.9695
-3.0016 6.7119 -2.3881 0.9696
-3.0841 6.6737 -2.3879 0.9696
-3.1252 6.6543 -2.3878 0.9696
-3.4094 6.5110 -2.3871 0.9696
-3.4893 6.4678 -2.3870 0.9696
-3.5292 6.4459 -2.3869 0.9696
-3.6083 6.4012 -2.3867 0.9696
-3.6477 6.3786 -2.3866 0.9696
-3.8425 6.2616 -2.3861 0.9696
-3.9956 6.1637 -2.3858 0.9696
-4.0334 6.1387 -2.3857 0.9696
-4.0712 6.1134 -2.3856 0.9696
-4.1462 6.0621 -2.3855 0.9696
-4.2206 6.0100 -2.3853 0.9696
-4.2575 5.9835 -2.3852 0.9696
-4.2942 5.9569 -2.3851 0.9696
-4.5113 5.7923 -2.3846 0.9696
-4.7222 5.6198 -2.3841 0.9696
-4.8251 5.5307 -2.3839 0.9696
-4.8591 5.5005 -2.3838 0.9696
-4.8929 5.4702 -2.3837 0.9696
-4.9598 5.4089 -2.3836 0.9696
-4.9930 5.3780 -2.3835 0.9696
-5.0260 5.3469 -2.3834 0.9696
-5.0588 5.3155 -2.3834 0.9696
-5.0914 5.2839 -2.3833 0.9696
-5.1239 5.2522 -2.3832 0.9696
-5.1561 5.2202 -2.3831 0.9696
-5.2515 5.1232 -2.3829 0.9696
-5.2829 5.0905 -2.3828 0.9696
-5.4066 4.9577 -2.3826 0.9696
-5.5858 4.7529 -2.3822 0.9696
-5.6150 4.7181 -2.3821 0.9696
-5.6726 4.6480 -2.3820 0.9696
-5.7293 4.5773 -2.3818 0.9696
-5.7574 4.5416 -2.3818 0.9696
-5.7852 4.5058 -2.3817 0.9696
-5.8673 4.3974 -2.3815 0.9696
-5.9474 4.2874 -2.3813 0.9696
-5.9737 4.2504 -2.3813 0.9696
-6.0764 4.1010 -2.3810 0.9696
-6.1014 4.0632 -2.3810 0.9696
-6.1263 4.0253 -2.3809 0.9696
-6.1510 3.9872 -2.3809 0.9696
-6.1996 3.9107 -2.3807 0.9696
-6.2706 3.7947 -2.3806 0.9696
-6.2938 3.7558 -2.3805 0.9696
-6.3168 3.7167 -2.3805 0.9696
-6.3620 3.6382 -2.3804 0.9696
-6.3842 3.5987 -2.3803 0.9696
-6.4062 3.5590 -2.3803 0.9696
-6.4280 3.5193 -2.3802 0.9696
-6.4495 3.4794 -2.3802 0.9697
-6.4707 3.4394 -2.3801 0.9697
-6.4917 3.3992 -2.3801 0.9697
-6.5125 3.3589 -2.3800 0.9697
-6.6125 3.1556 -2.3798 0.9697
-6.7061 2.9494 -2.3795 0.9697
-6.7241 2.9077 -2.3794 0.9697
-6.7417 2.8661 -2.3794 0.9697
-6.7592 2.8242 -2.3793 0.9697
-6.7764 2.7823 -2.3793 0.9697
-6.8100 2.6982 -2.3792 0.9697
-6.8264 2.6560 -2.3791 0.9697
-6.8425 2.6136 -2.3790 0.9697
-6.8584 2.5712 -2.3790 0.9697
-6.8740 2.5287 -2.3789 0.9697
-6.8894 2.4861 -2.3789 0.9697
-6.9193 2.4006 -2.3788 0.9697
-6.9339 2.3577 -2.3788 0.9697
-6.9623 2.2717 -2.3787 0.9697
-7.0029 2.1420 -2.3785 0.9697
-7.0158 2.0986 -2.3785 0.9697
-7.0410 2.0116 -2.3784 0.9697
-7.0651 1.9243 -2.3783 0.9697
-7.0992 1.7928 -2.3782 0.9697
-7.1101 1.7488 -2.3782 0.9697
-7.1206 1.7048 -2.3781 0.9697
-7.1507 1.5724 -2.3780 0.9697
-7.1694 1.4837 -2.3779 0.9697
-7.1783 1.4394 -2.3779 0.9697
-7.1870 1.3949 -2.3779 0.9697
-7.1954 1.3504 -2.3778 0.9697
-7.2035 1.3059 -2.3778 0.9697
-7.2113 1.2613 -2.3778 0.9697
-7.2189 1.2167 -2.3778 0.9697
-7.2262 1.1720 -2.3777 0.9697
-7.2400 1.0825 -2.3777 0.9697
-7.2585 0.9480 -2.3776 0.9697
-7.2795 0.7681 -2.3775 0.9697
-7.2840 0.7231 -2.3775 0.9697
-7.2923 0.6329 -2.3774 0.9697
-7.2994 0.5427 -2.3774 0.9697
-7.3026 0.4975 -2.3774 0.9697
-7.3125 0.3167 -2.3773 0.9697
-7.3142 0.2715 -2.3773 0.9697
-7.3157 0.2262 -2.3773 0.9697
-7.3179 0.1357 -2.3772 0.9697
-7.1395 -0.0000 -2.3776 0.9703
-7.1389 -0.0883 -2.3776 0.9703
-7.1382 -0.1325 -2.3776 0.9703
-7.1327 -0.3090 -2.3776 0.9703
-7.1283 -0.3972 -2.3776 0.9703
-7.1196 -0.5293 -2.3776 0.9703
-7.1086 -0.6613 -2.3776 0.9703
-7.1044 -0.7053 -2.3776 0.9703
-7.0847 -0.8808 -2.3776 0.9703
-7.0791 -0.9246 -2.3776 0.9703
-7.0733 -0.9684 -2.3776 0.9703
-7.0608 -1.0558 -2.3776 0.9703
-7.0542 -1.0994 -2.3776 0.9703
-7.0401 -1.1866 -2.3776 0.9703
-7.0326 -1.2301 -2.3776 0.9703
-7.0169 -1.3170 -2.3776 0.9703
-7.0087 -1.3604 -2.3776 0.9703
-6.9914 -1.4470 -2.3776 0.9703
-6.9730 -1.5333 -2.3777 0.9703
-6.9635 -1.5765 -2.3777 0.9703
-6.9536 -1.6195 -2.3777 0.9703
-6.9435 -1.6625 -2.3777 0.9703
-6.9331 -1.7054 -2.3777 0.9703
-6.9225 -1.7482 -2.3777 0.9703
-6.9004 -1.8338 -2.3778 0.9703
-6.8890 -1.8764 -2.3778 0.9703
-6.8773 -1.9190 -2.3778 0.9703
-6.8654 -1.9615 -2.3778 0.9703
-6.8532 -2.0039 -2.3779 0.9703
-6.8150 -2.1308 -2.3779 0.9703
-6.8018 -2.1729 -2.3779 0.9703
-6.7745 -2.2569 -2.3780 0.9703
-6.7605 -2.2988 -2.3780 0.9703
-6.7018 -2.4654 -2.3781 0.9703
-6.6866 -2.5068 -2.3781 0.9703
-6.6710 -2.5482 -2.3782 0.9703
-6.6391 -2.6305 -2.3782 0.9703
-6.6228 -2.6716 -2.3783 0.9703
-6.6063 -2.7125 -2.3783 0.9703
-6.5895 -2.7534 -2.3783 0.9703
-6.5724 -2.7941 -2.3784 0.9703
-6.5375 -2.8753 -2.3784 0.9703
-6.5197 -2.9157 -2.3785 0.9703
-6.4833 -2.9962 -2.3785 0.9703
-6.4269 -3.1161 -2.3786 0.9703
-6.3881 -3.1954 -2.3787 0.9703
-6.3683 -3.2349 -2.3787 0.9703
-6.3483 -3.2743 -2.3788 0.9703
-6.3075 -3.3527 -2.3789 0.9703
-6.2446 -3.4693 -2.3790 0.9703
-6.1573 -3.6230 -2.3792 0.9703
-6.1349 -3.6611 -2.3792 0.9703
-6.0895 -3.7368 -2.3793 0.9703
-6.0430 -3.8120 -2.3794 0.9703
-5.9956 -3.8866 -2.3795 0.9703
-5.9716 -3.9237 -2.3796 0.9703
-5.9229 -3.9974 -2.3797 0.9703
-5.8732 -4.0706 -2.3798 0.9703
-5.8481 -4.1069 -2.3798 0.9703
-5.8227 -4.1431 -2.3799 0.9703
-5.7971 -4.1791 -2.3799 0.9703
-5.7713 -4.2150 -2.3800 0.9703
-5.7453 -4.2507 -2.3800 0.9703
-5.6658 -4.3569 -2.3802 0.9703
-5.5844 -4.4615 -2.3804 0.9703
-5.5569 -4.4961 -2.3805 0.9703
-5.5011 -4.5647 -2.3806 0.9703
-5.4445 -4.6326 -2.3807 0.9703
-5.4159 -4.6663 -2.3808 0.9703
-5.2697 -4.8322 -2.3811 0.9703
-5.1492 -4.9616 -2.3814 0.9703
-5.0255 -5.0881 -2.3816 0.9703
-4.9941 -5.1192 -2.3817 0.9703
-4.9625 -5.1501 -2.3818 0.9703
-4.8987 -5.2114 -2.3819 0.9703
-4.8665 -5.2418 -2.3820 0.9703
-4.8342 -5.2720 -2.3821 0.9703
-4.8016 -5.3019 -2.3821 0.9703
-4.7689 -5.3317 -2.3822 0.9703
-4.7029 -5.3906 -2.3824 0.9703
-4.6696 -5.4197 -2.3824 0.9703
-4.6362 -5.4487 -2.3825 0.9703
-4.6025 -5.4774 -2.3826 0.9703
-4.5347 -5.5343 -2.3827 0.9703
-4.5005 -5.5624 -2.3828 0.9703
-4.3970 -5.6455 -2.3831 0.9703
-4.3271 -5.6999 -2.3832 0.9703
-4.2919 -5.7267 -2.3833 0.9703
-4.2566 -5.7533 -2.3834 0.9703
-4.1854 -5.8059 -2.3835 0.9703
-4.1496 -5.8319 -2.3836 0.9703
-4.1136 -5.8577 -2.3837 0.9703
-4.0774 -5.8832 -2.3838 0.9703
-4.0046 -5.9336 -2.3840 0.9703
-3.8943 -6.0075 -2.3842 0.9703
-3.8200 -6.0557 -2.3844 0.9703
-3.6316 -6.1720 -2.3848 0.9703
-3.5935 -6.1946 -2.3849 0.9703
-3.5552 -6.2169 -2.3850 0.9703
-3.4783 -6.2609 -2.3852 0.9703
-3.4397 -6.2825 -2.3853 0.9703
-3.2444 -6.3871 -2.3857 0.9702
-3.2050 -6.4073 -2.3858 0.9702
-3.0859 -6.4664 -2.3861 0.9702
-3.0060 -6.5046 -2.3863 0.9702
-2.8851 -6.5600 -2.3866 0.9702
-2.7633 -6.6132 -2.3869 0.9702
-2.6815 -6.6475 -2.3871 0.9702
-2.5993 -6.6806 -2.3873 0.9702
-2.5580 -6.6969 -2.3874 0.9702
-2.5167 -6.7129 -2.3875 0.9702
-2.3920 -6.7592 -2.3878 0.9702
-2.3084 -6.7889 -2.3880 0.9702
-2.2244 -6.8175 -2.3882 0.9702
-2.1401 -6.8450 -2.3884 0.9702
-2.0979 -6.8585 -2.3885 0.9702
-1.9705 -6.8971 -2.3888 0.9702
-1.9279 -6.9095 -2.3889 0.9702
-1.8852 -6.9215 -2.3890 0.9702
-1.8425 -6.9333 -2.3891 0.9702
-1.7567 -6.9562 -2.3893 0.9702
-1.6276 -6.9885 -2.3896 0.9702
-1.5412 -7.0087 -2.3898 0.9702
-1.4979 -7.0184 -2.3899 0.9702
-1.4545 -7.0279 -2.3901 0.9702
-1.4110 -7.0371 -2.3902 0.9702
-1.2804 -7.0630 -2.3905 0.9702
-1.1055 -7.0938 -2.3909 0.9702
-0.9739 -7.1140 -2.3912 0.9702
-0.8418 -7.1318 -2.3916 0.9702
-0.7537 -7.1423 -2.3918 0.9702
-0.7095 -7.1472 -2.3919 0.9702
-0.6653 -7.1518 -2.3920 0.9702
-0.5769 -7.1601 -2.3922 0.9702
-0.5326 -7.1639 -2.3923 0.9702
-0.4440 -7.1705 -2.3925 0.9702
-0.3996 -7.1735 -2.3926 0.9702
-0.3109 -7.1786 -2.3929 0.9702
-0.1777 -7.1841 -2.3932 0.9702
-0.0889 -7.1864 -2.3934 0.9702
-0.0444 -7.1871 -2.3935 0.9702
0.0000 -7.1876 -2.3936 0.9702
0.0889 -7.1877 -2.3939 0.9701
0.3112 -7.1832 -2.3944 0.9701
0.4000 -7.1795 -2.3946 0.9701
0.4888 -7.1746 -2.3949 0.9701
0.5332 -7.1718 -2.3950 0.9701
0.6220 -7.1654 -2.3952 0.9701
0.7106 -7.1578 -2.3954 0.9701
0.8434 -7.1444 -2.3958 0.9701
0.9318 -7.1340 -2.3960 0.9701
1.0200 -7.1226 -2.3962 0.9701
1.0472 -7.0040 -2.3584 0.9706
1.0476 -6.7221 -2.2656 0.9717
1.0921 -5.8191 -1.9717 0.9753
1.1372 -5.6712 -1.9262 0.9759
1.1548 -5.2515 -1.7907 0.9776
1.1550 -5.1018 -1.7420 0.9782
1.1085 -4.7596 -1.6275 0.9796
0.9993 -4.1738 -1.4293 0.9821
1.0490 -4.1539 -1.4268 0.9821
1.0514 -3.9565 -1.3633 0.9829
1.0515 -3.8606 -1.3325 0.9833
1.0516 -3.7690 -1.3031 0.9836
1.0518 -3.6813 -1.2750 0.9840
1.0519 -3.5973 -1.2482 0.9843
1.0520 -3.5168 -1.2225 0.9846
1.0522 -3.3654 -1.1742 0.9852
1.0524 -3.2253 -1.1298 0.9858
1.0525 -3.0955 -1.0888 0.9863
1.0527 -2.9747 -1.0508 0.9868
1.0529 -2.8621 -1.0156 0.9872
1.0529 -2.8086 -0.9989 0.9874
1.0530 -2.7066 -0.9672 0.9878
1.0532 -2.6109 -0.9376 0.9882
1.0534 -2.4360 -0.8838 0.9889
1.0535 -2.3953 -0.8714 0.9890
1.0574 -2.3258 -0.8508 0.9893
1.1099 -2.3258 -0.8582 0.9892
1.1277 -2.3258 -0.8608 0.9892
1.1634 -2.3259 -0.8661 0.9891
1.1814 -2.3259 -0.8688 0.9891
1.2363 -2.3259 -0.8772 0.9890
1.2548 -2.3259 -0.8801 0.9889
1.3493 -2.3260 -0.8955 0.9887
1.3880 -2.3260 -0.9020 0.9886
1.4076 -2.3260 -0.9054 0.9886
1.4273 -2.3260 -0.9088 0.9886
1.4472 -2.3260 -0.9123 0.9885
1.4673 -2.3260 -0.9159 0.9885
1.5078 -2.3260 -0.9231 0.9884
1.5699 -2.3261 -0.9346 0.9882
1.5909 -2.3261 -0.9385 0.9882
1.6121 -2.3261 -0.9425 0.9881
1.6335 -2.3261 -0.9466 0.9881
1.6551 -2.3261 -0.9507 0.9880
1.6988 -2.3262 -0.9593 0.9879
1.7210 -2.3262 -0.9636 0.9879
1.7434 -2.3262 -0.9681 0.9878
1.7660 -2.3262 -0.9726 0.9878
1.9061 -2.3263 -1.0015 0.9874
1.9303 -2.3263 -1.0067 0.9873
1.9547 -2.3263 -1.0119 0.9873
2.0043 -2.3263 -1.0226 0.9871
2.0808 -2.3264 -1.0394 0.9869
2.1332 -2.3264 -1.0511 0.9868
2.1598 -2.3264 -1.0572 0.9867
2.2141 -2.3264 -1.0695 0.9866
2.2417 -2.3264 -1.0759 0.9865
2.2696 -2.3265 -1.0824 0.9864
2.2979 -2.3265 -1.0890 0.9863
2.3554 -2.3265 -1.1025 0.9861
2.3848 -2.3265 -1.1095 0.9861
2.4145 -2.3265 -1.1166 0.9860
2.6012 -2.3266 -1.1622 0.9854
2.6338 -2.3267 -1.1704 0.9853
2.8117 -2.2750 -1.2045 0.9849
2.8476 -2.2750 -1.2138 0.9848
2.9968 -2.2751 -1.2530 0.9843
3.0356 -2.2751 -1.2633 0.9841
3.0751 -2.2751 -1.2739 0.9840
3.4184 -2.4323 -1.3972 0.9825
3.4635 -2.4323 -1.4094 0.9823
3.5095 -2.4323 -1.4220 0.9822
3.5563 -2.4324 -1.4349 0.9820
3.6040 -2.4324 -1.4480 0.9818
3.6077 -2.3704 -1.4376 0.9820
3.6078 -2.3071 -1.4261 0.9821
3.6571 -2.2754 -1.4344 0.9820
3.9001 -2.3274 -1.5125 0.9810
3.9555 -2.3274 -1.5284 0.9808
4.0121 -2.3275 -1.5447 0.9806
4.0700 -2.3275 -1.5614 0.9804
4.2513 -2.3276 -1.6141 0.9798
4.3791 -2.3277 -1.6516 0.9793
4.4454 -2.3277 -1.6711 0.9791
4.7266 -2.3279 -1.7546 0.9780
4.8014 -2.3279 -1.7770 0.9778
4.8781 -2.3280 -1.8000 0.9775
5.0376 -2.3280 -1.8481 0.9769
5.2060 -2.3282 -1.8992 0.9762
5.2937 -2.3282 -1.9259 0.9759
5.4767 -2.3283 -1.9819 0.9752
5.6708 -2.3284 -2.0415 0.9745
5.7162 -2.3058 -2.0527 0.9743
6.2556 -2.4339 -2.2354 0.9721
6.2520 -2.3881 -2.2288 0.9722
6.3333 -2.2854 -2.2423 0.9720
6.5634 -2.2771 -2.3136 0.9711
6.8831 -2.2459 -2.4112 0.9699
6.8970 -2.2033 -2.4112 0.9699
6.9241 -2.1180 -2.4113 0.9699
6.9372 -2.0751 -2.4114 0.9699
6.9870 -1.9031 -2.4116 0.9699
6.9987 -1.8599 -2.4116 0.9699
7.0103 -1.8166 -2.4117 0.9699
7.0431 -1.6863 -2.4118 0.9699
7.0536 -1.6428 -2.4119 0.9699
7.0637 -1.5991 -2.4119 0.9699
7.0832 -1.5117 -2.4120 0.9699
7.1104 -1.3801 -2.4121 0.9699
7.1271 -1.2921 -2.4122 0.9699
7.1351 -1.2480 -2.4122 0.9699
7.1502 -1.1597 -2.4123 0.9699
7.1573 -1.1155 -2.4123 0.9699
7.1642 -1.0712 -2.4124 0.9699
7.1771 -0.9826 -2.4124 0.9699
7.1831 -0.9382 -2.4125 0.9699
7.1889 -0.8937 -2.4125 0.9699
7.1944 -0.8493 -2.4125 0.9699
7.1996 -0.8048 -2.4126 0.9699
7.2045 -0.7603 -2.4126 0.9699
7.2092 -0.7157 -2.4126 0.9699
7.2136 -0.6711 -2.4127 0.9699
7.2176 -0.6265 -2.4127 0.9699
7.2250 -0.5372 -2.4127 0.9699
7.2312 -0.4478 -2.4128 0.9699
7.2385 -0.3136 -2.4129 0.9699
7.2403 -0.2688 -2.4129 0.9699
7.2432 -0.1792 -2.4129 0.9699
7.2442 -0.1345 -2.4129 0.9699
7.2450 -0.0896 -2.4129 0.9699
7.2456 -0.0000 -2.4130 0.9699
7.2456 0.0448 -2.4130 0.9699
7.2446 0.1344 -2.4130 0.9699
7.2436 0.1792 -2.4130 0.9699
7.2409 0.2687 -2.4131 0.9699
7.2391 0.3136 -2.4131 0.9699
7.2321 0.4478 -2.4131 0.9699
7.2261 0.5372 -2.4131 0.9699
7.2226 0.5819 -2.4131 0.9699
7.2149 0.6712 -2.4131 0.9699
7.2013 0.8049 -2.4131 0.9699
7.1962 0.8494 -2.4131 0.9699
7.1908 0.8939 -2.4131 0.9699
7.1729 1.0272 -2.4131 0.9699
7.1664 1.0715 -2.4131 0.9699
7.1526 1.1601 -2.4131 0.9699
7.1377 1.2484 -2.4131 0.9699
7.1132 1.3806 -2.4131 0.9699
7.0863 1.5123 -2.4131 0.9699
7.0768 1.5561 -2.4130 0.9699
7.0670 1.5998 -2.4130 0.9699
7.0569 1.6435 -2.4130 0.9699
7.0466 1.6871 -2.4130 0.9699
7.0360 1.7306 -2.4130 0.9699
7.0140 1.8175 -2.4130 0.9699
7.0025 1.8608 -2.4129 0.9699
6.9216 1.9775 -2.3973 0.9701
6.5865 1.9259 -2.2853 0.9715
6.4540 1.9306 -2.2434 0.9720
6.4419 1.9704 -2.2434 0.9720
6.4169 2.0499 -2.2434 0.9720
6.1545 2.0503 -2.1603 0.9730
5.6655 1.9264 -1.9929 0.9751
5.4823 1.9783 -1.9410 0.9757
5.3781 1.9784 -1.9084 0.9761
4.9052 1.9787 -1.7615 0.9779
4.7357 1.9788 -1.7093 0.9786
4.4996 1.9789 -1.6370 0.9795
4.4252 1.9789 -1.6143 0.9798
4.2824 1.9790 -1.5711 0.9803
4.0821 1.9791 -1.5108 0.9811
4.0186 1.9792 -1.4918 0.9813
3.8376 1.9793 -1.4380 0.9820
3.7800 1.9793 -1.4210 0.9822
3.5731 1.9276 -1.3520 0.9830
3.5209 1.9277 -1.3368 0.9832
3.5102 2.0073 -1.3466 0.9831
3.3232 1.9278 -1.2794 0.9839
3.2305 1.9278 -1.2529 0.9843
2.9729 1.9798 -1.1895 0.9851
2.9335 1.9798 -1.1786 0.9852
2.8567 1.9798 -1.1575 0.9855
2.8193 1.9798 -1.1473 0.9856
2.7110 1.9799 -1.1180 0.9859
2.6762 1.9799 -1.1086 0.9861
2.6081 1.9800 -1.0905 0.9863
2.5749 1.9800 -1.0817 0.9864
2.4785 1.9801 -1.0564 0.9867
2.4473 1.9801 -1.0484 0.9868
2.4166 1.9801 -1.0404 0.9869
2.3863 1.9801 -1.0327 0.9870
2.3566 1.9801 -1.0251 0.9871
2.3272 1.9801 -1.0176 0.9872
2.2697 1.9802 -1.0031 0.9874
2.1865 1.9802 -0.9824 0.9876
2.1596 1.9802 -0.9758 0.9877
2.1329 1.9802 -0.9693 0.9878
2.1067 1.9803 -0.9629 0.9879
2.0552 1.9803 -0.9505 0.9880
2.0299 1.9803 -0.9444 0.9881
2.0050 1.9803 -0.9385 0.9882
1.9804 1.9803 -0.9327 0.9883
1.9082 1.9804 -0.9159 0.9885
1.8386 1.9804 -0.9000 0.9887
1.8160 1.9804 -0.8948 0.9887
1.7495 1.9804 -0.8800 0.9889
1.7064 1.9805 -0.8706 0.9890
1.6852 1.9805 -0.8660 0.9891
1.6642 1.9805 -0.8615 0.9892
1.6434 1.9805 -0.8571 0.9892
1.6025 1.9805 -0.8484 0.9893
1.5623 1.9805 -0.8401 0.9894
1.5426 1.9806 -0.8360 0.9895
1.5036 1.9806 -0.8281 0.9896
1.3910 1.9806 -0.8060 0.9898
1.3728 1.9807 -0.8025 0.9899
1.3191 1.9807 -0.7925 0.9900
1.2840 1.9807 -0.7861 0.9901
1.2324 1.9807 -0.7769 0.9902
1.2155 1.9807 -0.7739 0.9903
1.1820 1.9808 -0.7682 0.9903
1.1655 1.9808 -0.7654 0.9904
1.1328 1.9808 -0.7599 0.9904
1.1005 1.9808 -0.7546 0.9905
1.0845 1.9808 -0.7521 0.9905
1.0217 1.9809 -0.7423 0.9906
0.9909 1.9809 -0.7376 0.9907
0.9756 1.9809 -0.7354 0.9907
0.9604 1.9809 -0.7331 0.9908
0.9561 2.1378 -0.7799 0.9902
0.9560 2.2107 -0.8021 0.9899
0.9560 2.2488 -0.8138 0.9898
0.9560 2.4128 -0.8643 0.9891
0.9559 2.5026 -0.8922 0.9888
0.9559 2.5498 -0.9069 0.9886
0.9559 2.7011 -0.9542 0.9880
0.9559 2.7551 -0.9712 0.9878
0.9558 2.9294 -1.0262 0.9871
0.9558 2.9919 -1.0460 0.9868
0.9557 3.3450 -1.1585 0.9854
0.9557 3.4250 -1.1842 0.9851
0.9556 3.5086 -1.2110 0.9848
0.9556 3.5960 -1.2391 0.9844
0.9556 3.6876 -1.2686 0.9841
0.9369 3.8088 -1.3062 0.9836
1.0553 4.6615 -1.5917 0.9801
1.0095 4.7300 -1.6107 0.9798
1.0298 4.9759 -1.6922 0.9788
1.0602 5.2872 -1.7958 0.9775
1.0601 5.4619 -1.8529 0.9768
0.9226 5.4737 -1.8486 0.9769
0.9548 5.8872 -1.9862 0.9752
0.9548 6.1262 -2.0648 0.9742
0.9546 6.6659 -2.2426 0.9720
0.9545 6.9721 -2.3436 0.9708
0.9324 7.1392 -2.3977 0.9701
0.8440 7.1494 -2.3975 0.9701
0.7997 7.1542 -2.3974 0.9701
0.6667 7.1666 -2.3970 0.9701
0.6224 7.1703 -2.3969 0.9701
0.5780 7.1736 -2.3967 0.9701
0.4447 7.1820 -2.3964 0.9701
0.1335 7.1919 -2.3955 0.9701
0.0445 7.1922 -2.3953 0.9701
-0.1334 7.1896 -2.3948 0.9701
-0.2223 7.1867 -2.3945 0.9701
-0.3111 7.1826 -2.3943 0.9701
-0.4886 7.1714 -2.3938 0.9701
-0.5329 7.1679 -2.3937 0.9702
-0.5772 7.1642 -2.3936 0.9702
-0.6657 7.1559 -2.3934 0.9702
-0.8424 7.1361 -2.3930 0.9702
-0.8864 7.1304 -2.3929 0.9702
-0.9745 7.1183 -2.3927 0.9702
-1.1939 7.0833 -2.3922 0.9702
-1.2376 7.0755 -2.3921 0.9702
-1.2813 7.0674 -2.3920 0.9702
-1.4554 7.0324 -2.3916 0.9702
-1.4988 7.0230 -2.3915 0.9702
-1.5421 7.0132 -2.3914 0.9702
-1.6718 6.9826 -2.3911 0.9702
-1.7149 6.9718 -2.3910 0.9702
-1.8008 6.9495 -2.3908 0.9702
-1.8865 6.9262 -2.3906 0.9702
-1.9292 6.9141 -2.3905 0.9702
-1.9719 6.9017 -2.3904 0.9702
-2.0993 6.8631 -2.3901 0.9702
-2.1416 6.8497 -2.3900 0.9702
-2.2680 6.8080 -2.3897 0.9702
-2.3100 6.7936 -2.3896 0.9702
-2.3519 6.7789 -2.3896 0.9702
-2.4354 6.7487 -2.3894 0.9702
-2.6011 6.6854 -2.3890 0.9702
-2.6423 6.6689 -2.3889 0.9702
-2.7653 6.6179 -2.3886 0.9702
-2.8060 6.6005 -2.3885 0.9702
-2.8872 6.5647 -2.3883 0.9702
-2.9277 6.5465 -2.3882 0.9702
-2.9680 6.5280 -2.3881 0.9702
-3.0082 6.5093 -2.3881 0.9702
-3.0482 6.4903 -2.3880 0.9702
-3.1280 6.4516 -2.3878 0.9702
-3.2074 6.4120 -2.3876 0.9702
-3.3644 6.3297 -2.3872 0.9702
-3.4422 6.2872 -2.3871 0.9702
-3.4809 6.2655 -2.3870 0.9702
-3.5195 6.2436 -2.3869 0.9702
-3.6343 6.1766 -2.3866 0.9702
-3.7101 6.1307 -2.3864 0.9702
-3.7479 6.1074 -2.3864 0.9702
-3.8228 6.0602 -2.3862 0.9702
-3.8601 6.0362 -2.3861 0.9702
-3.8972 6.0120 -2.3860 0.9702
-3.9342 5.9876 -2.3859 0.9702
-4.0442 5.9129 -2.3857 0.9702
-4.0805 5.8876 -2.3856 0.9703
-4.1527 5.8363 -2.3854 0.9703
-4.1886 5.8103 -2.3854 0.9703
-4.2952 5.7310 -2.3851 0.9703
-4.3304 5.7041 -2.3850 0.9703
-4.3655 5.6771 -2.3849 0.9703
-4.4003 5.6498 -2.3849 0.9703
-4.5039 5.5666 -2.3846 0.9703
-4.5722 5.5101 -2.3845 0.9703
-4.6731 5.4238 -2.3842 0.9703
-4.7065 5.3946 -2.3842 0.9703
-4.7396 5.3653 -2.3841 0.9703
-4.7725 5.3357 -2.3840 0.9703
-4.8378 5.2759 -2.3839 0.9703
-4.9344 5.1848 -2.3836 0.9703
-5.0605 5.0605 -2.3834 0.9703
-5.0916 5.0290 -2.3833 0.9703
-5.1224 4.9972 -2.3832 0.9703
-5.1530 4.9653 -2.3831 0.9703
-5.1835 4.9332 -2.3831 0.9703
-5.2138 4.9009 -2.3830 0.9703
-5.2438 4.8685 -2.3829 0.9703
-5.2737 4.8358 -2.3829 0.9703
-5.3911 4.7033 -2.3826 0.9703
-5.4486 4.6360 -2.3825 0.9703
-5.5052 4.5681 -2.3823 0.9703
-5.5332 4.5338 -2.3823 0.9703
-5.5885 4.4648 -2.3821 0.9703
-5.6159 4.4300 -2.3821 0.9703
-5.6430 4.3951 -2.3820 0.9703
-5.6699 4.3600 -2.3820 0.9703
-5.6967 4.3247 -2.3819 0.9703
-5.7232 4.2893 -2.3818 0.9703
-5.7494 4.2537 -2.3818 0.9703
-5.8269 4.1460 -2.3816 0.9703
-5.8774 4.0734 -2.3815 0.9703
-5.9024 4.0369 -2.3814 0.9703
-5.9516 3.9634 -2.3813 0.9703
-5.9999 3.8893 -2.3812 0.9703
-6.0706 3.7771 -2.3810 0.9703
-6.0937 3.7394 -2.3810 0.9703
-6.1165 3.7015 -2.3809 0.9703
-6.1392 3.6636 -2.3809 0.9703
-6.1837 3.5872 -2.3808 0.9703
-6.2057 3.5488 -2.3807 0.9703
-6.3118 3.3549 -2.3805 0.9703
-6.3726 3.2370 -2.3803 0.9703
-6.4312 3.1181 -2.3802 0.9703
-6.4690 3.0382 -2.3801 0.9703
-6.4874 2.9980 -2.3800 0.9703
-6.5237 2.9174 -2.3799 0.9703
-6.5415 2.8770 -2.3799 0.9703
-6.6100 2.7140 -2.3797 0.9703
-6.6589 2.5908 -2.3795 0.9703
-6.6901 2.5081 -2.3794 0.9703
-6.7204 2.4251 -2.3793 0.9703
-6.7777 2.2579 -2.3791 0.9703
-6.8049 2.1738 -2.3790 0.9703
-6.8181 2.1317 -2.3790 0.9703
-6.8917 1.8771 -2.3787 0.9703
-6.9142 1.7917 -2.3787 0.9703
-6.9250 1.7488 -2.3786 0.9703
-6.9459 1.6630 -2.3785 0.9703
-6.9560 1.6200 -2.3785 0.9703
-6.9658 1.5769 -2.3785 0.9703
-6.9935 1.4474 -2.3784 0.9703
-7.0107 1.3607 -2.3783 0.9703
-7.0189 1.3173 -2.3783 0.9703
-7.0268 1.2739 -2.3782 0.9703
-7.0345 1.2304 -2.3782 0.9703
-7.0748 0.9685 -2.3781 0.9703
-7.0805 0.9247 -2.3780 0.9703
-7.0860 0.8809 -2.3780 0.9703
-7.0963 0.7932 -2.3780 0.9703
-7.1096 0.6614 -2.3779 0.9703
-7.1134 0.6174 -2.3779 0.9703
-7.1171 0.5734 -2.3778 0.9703
-7.1204 0.5294 -2.3778 0.9703
-7.1263 0.4412 -2.3778 0.9703
-7.1288 0.3972 -2.3778 0.9703
-7.1363 0.2207 -2.3777 0.9703
-7.1375 0.1766 -2.3777 0.9703
-7.1384 0.1324 -2.3777 0.9703
-6.9678 -0.0000 -2.3781 0.9710
-6.9656 -0.1724 -2.3780 0.9710
-6.9629 -0.2585 -2.3780 0.9710
-6.9515 -0.4737 -2.3780 0.9710
-6.9484 -0.5166 -2.3780 0.9710
-6.9415 -0.6025 -2.3780 0.9710
-6.9376 -0.6454 -2.3780 0.9710
-6.9244 -0.7740 -2.3780 0.9710
-6.9143 -0.8596 -2.3780 0.9710
-6.9089 -0.9024 -2.3780 0.9710
-6.8972 -0.9877 -2.3780 0.9710
-6.8910 -1.0304 -2.3780 0.9710
-6.8845 -1.0730 -2.3780 0.9710
-6.8777 -1.1155 -2.3780 0.9710
-6.8635 -1.2005 -2.3780 0.9710
-6.8560 -1.2430 -2.3780 0.9710
-6.8318 -1.3699 -2.3781 0.9710
-6.8232 -1.4122 -2.3781 0.9710
-6.8053 -1.4965 -2.3781 0.9710
-6.7765 -1.6225 -2.3781 0.9710
-6.7663 -1.6644 -2.3782 0.9710
-6.7454 -1.7479 -2.3782 0.9710
-6.7233 -1.8313 -2.3782 0.9710
-6.7119 -1.8728 -2.3782 0.9710
-6.6762 -1.9971 -2.3783 0.9710
-6.6511 -2.0796 -2.3783 0.9710
-6.6115 -2.2026 -2.3784 0.9710
-6.5979 -2.2435 -2.3784 0.9710
-6.5840 -2.2843 -2.3785 0.9710
-6.5697 -2.3250 -2.3785 0.9710
-6.4951 -2.5271 -2.3786 0.9710
-6.3974 -2.7665 -2.3788 0.9710
-6.3629 -2.8455 -2.3789 0.9710
-6.3273 -2.9241 -2.3789 0.9710
-6.3092 -2.9632 -2.3790 0.9710
-6.2909 -3.0022 -2.3790 0.9710
-6.1956 -3.1955 -2.3792 0.9710
-6.1757 -3.2338 -2.3792 0.9710
-6.1150 -3.3480 -2.3794 0.9710
-6.0734 -3.4235 -2.3794 0.9710
-6.0522 -3.4611 -2.3795 0.9710
-5.9429 -3.6469 -2.3797 0.9710
-5.9203 -3.6836 -2.3798 0.9710
-5.8975 -3.7203 -2.3798 0.9710
-5.8745 -3.7567 -2.3798 0.9710
-5.8279 -3.8293 -2.3799 0.9710
-5.7073 -4.0080 -2.3802 0.9710
-5.6826 -4.0433 -2.3803 0.9710
-5.6323 -4.1135 -2.3804 0.9710
-5.6069 -4.1483 -2.3804 0.9710
-5.5031 -4.2862 -2.3806 0.9709
-5.4767 -4.3202 -2.3807 0.9709
-5.4500 -4.3541 -2.3808 0.9709
-5.4231 -4.3878 -2.3808 0.9709
-5.3134 -4.5211 -2.3811 0.9709
-5.2573 -4.5867 -2.3812 0.9709
-5.2290 -4.6192 -2.3812 0.9709
-5.2005 -4.6516 -2.3813 0.9709
-5.1718 -4.6838 -2.3814 0.9709
-5.0844 -4.7794 -2.3816 0.9709
-5.0549 -4.8108 -2.3816 0.9709
-4.9953 -4.8732 -2.3818 0.9709
-4.9349 -4.9349 -2.3819 0.9709
-4.9044 -4.9655 -2.3820 0.9709
-4.8738 -4.9959 -2.3820 0.9709
-4.8429 -5.0261 -2.3821 0.9709
-4.8119 -5.0561 -2.3822 0.9709
-4.7807 -5.0859 -2.3822 0.9709
-4.7493 -5.1155 -2.3823 0.9709
-4.7177 -5.1449 -2.3824 0.9709
-4.6539 -5.2032 -2.3825 0.9709
-4.6218 -5.2321 -2.3826 0.9709
-4.5571 -5.2891 -2.3827 0.9709
-4.4254 -5.4009 -2.3830 0.9709
-4.3586 -5.4556 -2.3832 0.9709
-4.3249 -5.4826 -2.3833 0.9709
-4.1885 -5.5887 -2.3836 0.9709
-4.1193 -5.6404 -2.3838 0.9709
-4.0144 -5.7164 -2.3840 0.9709
-3.9791 -5.7413 -2.3841 0.9709
-3.9436 -5.7660 -2.3842 0.9709
-3.8723 -5.8148 -2.3843 0.9709
-3.8004 -5.8626 -2.3845 0.9709
-3.7642 -5.8863 -2.3846 0.9709
-3.6547 -5.9557 -2.3848 0.9709
-3.6179 -5.9784 -2.3849 0.9709
-3.5440 -6.0231 -2.3851 0.9709
-3.3188 -6.1518 -2.3856 0.9709
-3.2808 -6.1725 -2.3857 0.9709
-3.0890 -6.2721 -2.3862 0.9709
-3.0503 -6.2913 -2.3863 0.9709
-3.0114 -6.3103 -2.3863 0.9709
-2.9334 -6.3476 -2.3865 0.9709
-2.8549 -6.3839 -2.3867 0.9709
-2.7759 -6.4192 -2.3869 0.9709
-2.7363 -6.4365 -2.3870 0.9709
-2.6167 -6.4870 -2.3873 0.9709
-2.4962 -6.5352 -2.3876 0.9709
-2.4154 -6.5661 -2.3878 0.9709
-2.3342 -6.5960 -2.3880 0.9709
-2.0472 -6.6928 -2.3887 0.9709
-2.0058 -6.7056 -2.3888 0.9709
-1.9644 -6.7181 -2.3889 0.9708
-1.7562 -6.7771 -2.3894 0.9708
-1.6303 -6.8094 -2.3897 0.9708
-1.5882 -6.8196 -2.3898 0.9708
-1.4617 -6.8488 -2.3901 0.9708
-1.3770 -6.8669 -2.3903 0.9708
-1.2920 -6.8840 -2.3905 0.9708
-1.2495 -6.8922 -2.3906 0.9708
-1.2069 -6.9001 -2.3907 0.9708
-1.1642 -6.9078 -2.3908 0.9708
-0.9932 -6.9356 -2.3912 0.9708
-0.9504 -6.9420 -2.3913 0.9708
-0.8645 -6.9538 -2.3915 0.9708
-0.7785 -6.9646 -2.3918 0.9708
-0.7354 -6.9696 -2.3919 0.9708
-0.6492 -6.9787 -2.3921 0.9708
-0.4333 -6.9971 -2.3926 0.9708
-0.3034 -7.0048 -2.3929 0.9708
-0.2601 -7.0069 -2.3930 0.9708
-0.1734 -7.0102 -2.3933 0.9708
-0.0867 -7.0124 -2.3935 0.9708
0.0000 -7.0136 -2.3937 0.9708
0.0868 -7.0137 -2.3939 0.9708
0.1736 -7.0127 -2.3941 0.9708
0.2603 -7.0107 -2.3943 0.9708
0.3036 -7.0092 -2.3944 0.9708
0.3470 -7.0076 -2.3946 0.9708
0.3904 -7.0056 -2.3947 0.9708
0.4337 -7.0034 -2.3948 0.9708
0.5203 -6.9981 -2.3950 0.9708
0.6069 -6.9918 -2.3952 0.9708
0.7366 -6.9803 -2.3955 0.9708
0.7798 -6.9759 -2.3956 0.9708
0.9091 -6.9612 -2.3960 0.9708
0.9522 -6.9557 -2.3961 0.9708
1.0383 -6.9441 -2.3963 0.9708
1.0475 -6.7212 -2.3216 0.9717
1.0479 -6.4606 -2.2338 0.9727
1.0178 -5.8190 -2.0161 0.9753
1.0961 -5.6473 -1.9634 0.9760
1.1096 -5.5337 -1.9262 0.9764
1.1054 -5.3412 -1.8616 0.9772
1.1357 -5.3213 -1.8570 0.9773
1.1547 -5.2510 -1.8349 0.9775
1.1551 -4.9596 -1.7380 0.9787
1.0218 -4.1539 -1.4599 0.9821
1.0512 -4.0565 -1.4302 0.9824
1.0513 -3.9562 -1.3971 0.9828
1.0514 -3.8603 -1.3655 0.9832
1.0516 -3.7687 -1.3354 0.9836
1.0517 -3.6810 -1.3066 0.9839
1.0520 -3.4393 -1.2275 0.9849
1.0521 -3.3651 -1.2033 0.9852
1.0525 -3.0953 -1.1158 0.9863
1.0525 -3.0338 -1.0960 0.9865
1.0526 -2.9745 -1.0769 0.9868
1.0528 -2.8619 -1.0407 0.9872
1.0529 -2.8084 -1.0236 0.9874
1.0529 -2.7566 -1.0071 0.9876
1.0530 -2.7064 -0.9911 0.9878
1.0530 -2.6579 -0.9757 0.9880
1.0532 -2.5207 -0.9324 0.9885
1.0534 -2.4358 -0.9057 0.9888
1.0534 -2.3952 -0.8930 0.9890
1.0535 -2.3557 -0.8807 0.9892
1.0574 -2.3258 -0.8720 0.9893
1.0748 -2.3258 -0.8744 0.9892
1.0923 -2.3258 -0.8770 0.9892
1.1099 -2.3258 -0.8795 0.9892
1.1277 -2.3259 -0.8822 0.9891
1.1634 -2.3259 -0.8876 0.9891
1.1996 -2.3259 -0.8932 0.9890
1.2179 -2.3259 -0.8960 0.9890
1.2735 -2.3259 -0.9050 0.9889
1.2922 -2.3259 -0.9081 0.9888
1.3301 -2.3260 -0.9145 0.9887
1.3686 -2.3260 -0.9211 0.9887
1.4273 -2.3260 -0.9314 0.9885
1.4473 -2.3260 -0.9350 0.9885
1.4673 -2.3260 -0.9386 0.9884
1.5699 -2.3261 -0.9578 0.9882
1.5909 -2.3261 -0.9618 0.9882
1.6122 -2.3261 -0.9659 0.9881
1.6335 -2.3261 -0.9701 0.9881
1.6769 -2.3261 -0.9787 0.9880
1.7434 -2.3262 -0.9921 0.9878
1.7660 -2.3262 -0.9968 0.9877
1.7888 -2.3262 -1.0015 0.9877
1.8118 -2.3262 -1.0063 0.9876
1.8350 -2.3262 -1.0112 0.9876
1.8822 -2.3263 -1.0213 0.9874
1.9061 -2.3262 -1.0264 0.9874
1.9303 -2.3263 -1.0317 0.9873
1.9547 -2.3263 -1.0370 0.9872
2.0296 -2.3263 -1.0536 0.9870
2.0550 -2.3263 -1.0594 0.9870
2.1069 -2.3264 -1.0712 0.9868
2.1332 -2.3264 -1.0772 0.9867
2.2141 -2.3264 -1.0961 0.9865
2.2979 -2.3265 -1.1160 0.9863
2.3555 -2.3265 -1.1299 0.9861
2.3848 -2.3265 -1.1371 0.9860
2.4145 -2.3265 -1.1444 0.9859
2.4751 -2.3266 -1.1593 0.9857
2.5373 -2.3266 -1.1749 0.9856
2.5690 -2.3266 -1.1829 0.9855
2.6012 -2.3267 -1.1911 0.9854
2.6279 -2.3214 -1.1967 0.9853
2.6423 -2.3052 -1.1968 0.9853
2.7764 -2.2750 -1.2250 0.9849
2.8117 -2.2750 -1.2344 0.9848
2.8476 -2.2750 -1.2439 0.9847
2.9210 -2.2750 -1.2636 0.9845
2.9586 -2.2751 -1.2738 0.9843
2.9968 -2.2751 -1.2841 0.9842
3.2874 -2.4322 -1.3957 0.9829
3.3740 -2.4323 -1.4195 0.9826
3.5095 -2.4323 -1.4573 0.9821
3.6076 -2.3071 -1.4615 0.9821
3.6077 -2.2757 -1.4558 0.9821
4.0121 -2.3275 -1.5830 0.9806
4.0700 -2.3275 -1.6002 0.9804
4.1895 -2.3276 -1.6357 0.9799
4.2513 -2.3276 -1.6542 0.9797
4.3792 -2.3277 -1.6926 0.9793
4.4454 -2.3277 -1.7126 0.9790
4.7266 -2.3279 -1.7982 0.9780
4.8014 -2.3279 -1.8211 0.9777
4.8781 -2.3279 -1.8447 0.9774
4.9568 -2.3280 -1.8690 0.9771
5.0377 -2.3281 -1.8940 0.9768
5.1207 -2.3281 -1.9198 0.9765
5.3839 -2.3283 -2.0020 0.9755
5.4768 -2.3283 -2.0311 0.9752
5.5724 -2.3284 -2.0612 0.9748
5.6708 -2.3284 -2.0922 0.9744
5.7461 -2.2767 -2.1094 0.9742
6.1895 -2.2769 -2.2508 0.9725
6.6729 -2.3151 -2.4106 0.9706
6.6872 -2.2738 -2.4106 0.9706
6.7013 -2.2325 -2.4107 0.9706
6.7287 -2.1496 -2.4108 0.9706
6.7420 -2.1079 -2.4108 0.9706
6.7678 -2.0245 -2.4109 0.9706
6.7804 -1.9826 -2.4110 0.9706
6.7926 -1.9407 -2.4110 0.9706
6.8046 -1.8987 -2.4111 0.9706
6.8164 -1.8566 -2.4111 0.9706
6.8279 -1.8145 -2.4112 0.9706
6.8391 -1.7722 -2.4112 0.9706
6.8500 -1.7299 -2.4113 0.9706
6.8607 -1.6876 -2.4113 0.9706
6.8813 -1.6027 -2.4114 0.9706
6.8912 -1.5601 -2.4114 0.9706
6.9103 -1.4748 -2.4115 0.9706
6.9531 -1.2606 -2.4117 0.9706
6.9609 -1.2176 -2.4118 0.9706
6.9756 -1.1314 -2.4118 0.9706
6.9826 -1.0882 -2.4119 0.9706
6.9892 -1.0451 -2.4119 0.9706
7.0237 -0.7851 -2.4121 0.9706
7.0285 -0.7417 -2.4121 0.9706
7.0373 -0.6547 -2.4122 0.9706
7.0413 -0.6112 -2.4122 0.9706
7.0517 -0.4804 -2.4123 0.9706
7.0572 -0.3932 -2.4123 0.9706
7.0596 -0.3496 -2.4123 0.9706
7.0617 -0.3059 -2.4124 0.9706
7.0635 -0.2622 -2.4124 0.9706
7.0650 -0.2185 -2.4124 0.9706
7.0663 -0.1748 -2.4124 0.9706
7.0680 -0.0874 -2.4125 0.9706
7.0676 0.1311 -2.4125 0.9706
7.0666 0.1748 -2.4125 0.9706
7.0640 0.2622 -2.4126 0.9706
7.0580 0.3932 -2.4126 0.9706
7.0554 0.4369 -2.4126 0.9706
7.0426 0.6112 -2.4126 0.9706
7.0387 0.6548 -2.4126 0.9706
7.0253 0.7853 -2.4126 0.9706
7.0096 0.9154 -2.4126 0.9706
7.0038 0.9588 -2.4126 0.9706
6.9913 1.0453 -2.4126 0.9706
6.9779 1.1317 -2.4126 0.9706
6.9707 1.1748 -2.4126 0.9706
6.9477 1.3040 -2.4126 0.9706
6.9395 1.3469 -2.4126 0.9706
6.9309 1.3898 -2.4126 0.9706
6.9222 1.4326 -2.4126 0.9706
6.9132 1.4754 -2.4126 0.9706
6.8944 1.5607 -2.4125 0.9706
6.8845 1.6033 -2.4125 0.9706
6.8744 1.6459 -2.4125 0.9706
6.8641 1.6884 -2.4125 0.9706
6.8426 1.7731 -2.4125 0.9706
6.8314 1.8154 -2.4124 0.9706
6.8084 1.8997 -2.4124 0.9706
6.7964 1.9418 -2.4124 0.9706
6.7632 1.9776 -2.4049 0.9707
6.2968 1.9261 -2.2474 0.9726
6.2603 1.9999 -2.2430 0.9726
6.1999 2.0229 -2.2258 0.9728
5.6185 1.9493 -2.0297 0.9752
5.5902 1.9783 -2.0238 0.9752
5.4823 1.9783 -1.9892 0.9757
5.3781 1.9784 -1.9558 0.9761
5.2773 1.9784 -1.9235 0.9765
5.0853 1.9786 -1.8623 0.9772
4.9938 1.9786 -1.8333 0.9776
4.8192 1.9787 -1.7780 0.9782
4.7357 1.9787 -1.7517 0.9785
4.6547 1.9788 -1.7262 0.9788
4.5760 1.9788 -1.7015 0.9791
4.4995 1.9789 -1.6776 0.9794
4.2824 1.9790 -1.6101 0.9803
4.2139 1.9791 -1.5889 0.9805
4.1471 1.9791 -1.5683 0.9808
4.0186 1.9792 -1.5288 0.9812
3.5731 1.9276 -1.3856 0.9830
3.5101 1.9786 -1.3752 0.9831
3.5101 2.0362 -1.3849 0.9830
3.5101 2.0653 -1.3900 0.9829
3.2306 1.9278 -1.2840 0.9842
3.1417 1.9279 -1.2580 0.9845
3.0563 1.9279 -1.2333 0.9848
2.9345 1.9281 -1.1984 0.9853
2.9225 1.9462 -1.1983 0.9853
2.9103 1.9642 -1.1983 0.9853
2.8947 1.9798 -1.1969 0.9853
2.7826 1.9799 -1.1655 0.9857
2.6419 1.9800 -1.1268 0.9861
2.5749 1.9800 -1.1086 0.9864
2.5101 1.9800 -1.0911 0.9866
2.4784 1.9800 -1.0827 0.9867
2.4473 1.9801 -1.0744 0.9868
2.3272 1.9801 -1.0429 0.9872
2.2983 1.9801 -1.0354 0.9873
2.2697 1.9802 -1.0280 0.9873
2.2416 1.9802 -1.0208 0.9874
2.1596 1.9802 -1.0000 0.9877
2.0808 1.9803 -0.9804 0.9879
2.0552 1.9803 -0.9741 0.9880
2.0299 1.9803 -0.9679 0.9881
2.0050 1.9803 -0.9618 0.9882
1.9320 1.9804 -0.9442 0.9884
1.8847 1.9804 -0.9331 0.9885
1.8616 1.9804 -0.9276 0.9886
1.8387 1.9804 -0.9223 0.9886
1.8160 1.9804 -0.9171 0.9887
1.7936 1.9804 -0.9119 0.9888
1.7714 1.9804 -0.9068 0.9888
1.7064 1.9805 -0.8922 0.9890
1.6228 1.9805 -0.8739 0.9892
1.5823 1.9805 -0.8652 0.9893
1.5623 1.9806 -0.8610 0.9894
1.4844 1.9806 -0.8447 0.9896
1.3909 1.9807 -0.8260 0.9898
1.3727 1.9806 -0.8225 0.9899
1.3547 1.9807 -0.8190 0.9899
1.3368 1.9807 -0.8156 0.9900
1.3190 1.9807 -0.8122 0.9900
1.3014 1.9807 -0.8089 0.9900
1.2495 1.9807 -0.7993 0.9902
1.2324 1.9807 -0.7962 0.9902
1.2155 1.9808 -0.7932 0.9902
1.1987 1.9807 -0.7902 0.9903
1.1328 1.9808 -0.7788 0.9904
1.0687 1.9808 -0.7682 0.9905
1.0529 1.9808 -0.7656 0.9906
1.0217 1.9809 -0.7607 0.9906
0.9756 1.9809 -0.7536 0.9907
0.9604 1.9809 -0.7513 0.9907
0.9560 2.0033 -0.7576 0.9907
0.9560 2.0355 -0.7675 0.9905
0.9560 2.0687 -0.7778 0.9904
0.9560 2.1377 -0.7992 0.9902
0.9560 2.1736 -0.8104 0.9900
0.9560 2.2106 -0.8220 0.9899
0.9560 2.2878 -0.8462 0.9896
0.9559 2.4568 -0.8997 0.9889
0.9559 2.5984 -0.9449 0.9884
0.9558 2.7549 -0.9952 0.9878
0.9558 2.8109 -1.0133 0.9875
0.9558 2.8689 -1.0321 0.9873
0.9557 2.9917 -1.0719 0.9868
0.9557 3.1244 -1.1151 0.9863
0.9556 3.2682 -1.1621 0.9857
0.9556 3.4247 -1.2135 0.9851
0.9556 3.5083 -1.2410 0.9847
0.9555 3.5957 -1.2698 0.9844
0.9555 3.6873 -1.3000 0.9840
0.9555 3.7834 -1.3318 0.9836
0.9037 3.8800 -1.3597 0.9833
1.0111 4.5980 -1.6068 0.9803
1.0602 4.9676 -1.7336 0.9788
1.0601 5.2866 -1.8402 0.9775
1.0600 5.4612 -1.8987 0.9768
1.0273 5.4736 -1.9007 0.9767
0.9574 5.4737 -1.8965 0.9768
0.9226 5.4737 -1.8945 0.9768
0.9547 5.8864 -2.0353 0.9751
0.9546 6.3840 -2.2030 0.9731
0.9545 6.6649 -2.2979 0.9719
0.9098 6.9659 -2.3976 0.9707
0.7803 6.9805 -2.3972 0.9707
0.7371 6.9848 -2.3971 0.9708
0.6938 6.9889 -2.3970 0.9708
0.6072 6.9962 -2.3968 0.9708
0.4339 7.0077 -2.3963 0.9708
0.3906 7.0099 -2.3962 0.9708
0.1736 7.0169 -2.3956 0.9708
0.0000 7.0176 -2.3951 0.9708
-0.1302 7.0153 -2.3947 0.9708
-0.2602 7.0106 -2.3943 0.9708
-0.3036 7.0085 -2.3942 0.9708
-0.3469 7.0061 -2.3941 0.9708
-0.5200 6.9944 -2.3937 0.9708
-0.6064 6.9868 -2.3935 0.9708
-0.6496 6.9827 -2.3934 0.9708
-0.6928 6.9782 -2.3933 0.9708
-0.7789 6.9685 -2.3931 0.9708
-0.9080 6.9520 -2.3928 0.9708
-0.9509 6.9460 -2.3927 0.9708
-0.9938 6.9397 -2.3926 0.9708
-1.2503 6.8964 -2.3921 0.9708
-1.4626 6.8530 -2.3916 0.9708
-1.5049 6.8436 -2.3915 0.9708
-1.5471 6.8339 -2.3914 0.9708
-1.5893 6.8239 -2.3913 0.9708
-1.6314 6.8137 -2.3912 0.9708
-1.6734 6.8032 -2.3911 0.9708
-1.7154 6.7924 -2.3910 0.9708
-1.7573 6.7814 -2.3909 0.9708
-1.7991 6.7701 -2.3908 0.9708
-1.8409 6.7586 -2.3907 0.9708
-1.8825 6.7469 -2.3906 0.9708
-2.0071 6.7100 -2.3903 0.9708
-2.0486 6.6972 -2.3902 0.9708
-2.0898 6.6841 -2.3901 0.9708
-2.3765 6.5856 -2.3895 0.9708
-2.4171 6.5705 -2.3894 0.9708
-2.4576 6.5552 -2.3893 0.9708
-2.5383 6.5238 -2.3891 0.9708
-2.5785 6.5077 -2.3890 0.9708
-2.6585 6.4748 -2.3888 0.9709
-2.7382 6.4410 -2.3887 0.9709
-2.7779 6.4237 -2.3886 0.9709
-2.8175 6.4061 -2.3885 0.9709
-2.8962 6.3703 -2.3883 0.9709
-2.9355 6.3520 -2.3882 0.9709
-3.1299 6.2571 -2.3878 0.9709
-3.1684 6.2374 -2.3877 0.9709
-3.2832 6.1768 -2.3874 0.9709
-3.3591 6.1353 -2.3872 0.9709
-3.3969 6.1142 -2.3872 0.9709
-3.5093 6.0495 -2.3869 0.9709
-3.6205 5.9827 -2.3866 0.9709
-3.6574 5.9600 -2.3866 0.9709
-3.6940 5.9371 -2.3865 0.9709
-3.7669 5.8905 -2.3863 0.9709
-3.8392 5.8430 -2.3861 0.9709
-3.9109 5.7947 -2.3860 0.9709
-3.9820 5.7455 -2.3858 0.9709
-4.0173 5.7206 -2.3857 0.9709
-4.0525 5.6954 -2.3857 0.9709
-4.0875 5.6701 -2.3856 0.9709
-4.2259 5.5665 -2.3853 0.9709
-4.3618 5.4596 -2.3850 0.9709
-4.3953 5.4323 -2.3849 0.9709
-4.4287 5.4048 -2.3848 0.9709
-4.5277 5.3212 -2.3846 0.9709
-4.5929 5.2645 -2.3844 0.9709
-4.6253 5.2358 -2.3843 0.9709
-4.7212 5.1487 -2.3841 0.9709
-4.7842 5.0896 -2.3840 0.9709
-4.8465 5.0297 -2.3838 0.9709
-4.9080 4.9691 -2.3837 0.9709
-4.9385 4.9385 -2.3836 0.9709
-4.9688 4.9077 -2.3836 0.9709
-4.9989 4.8768 -2.3835 0.9709
-5.0288 4.8456 -2.3834 0.9709
-5.0586 4.8143 -2.3834 0.9709
-5.1466 4.7192 -2.3832 0.9709
-5.2042 4.6549 -2.3830 0.9709
-5.2328 4.6225 -2.3830 0.9709
-5.2611 4.5900 -2.3829 0.9709
-5.3172 4.5243 -2.3828 0.9709
-5.3450 4.4912 -2.3827 0.9709
-5.3725 4.4579 -2.3826 0.9709
-5.5333 4.2549 -2.3823 0.9709
-5.5594 4.2205 -2.3822 0.9709
-5.5852 4.1859 -2.3821 0.9709
-5.6109 4.1512 -2.3821 0.9709
-5.6615 4.0813 -2.3820 0.9709
-5.6865 4.0461 -2.3819 0.9709
-5.7358 3.9753 -2.3818 0.9709
-5.7602 3.9396 -2.3817 0.9709
-5.7843 3.9038 -2.3817 0.9709
-5.8082 3.8679 -2.3816 0.9709
-5.8319 3.8318 -2.3816 0.9709
-5.8553 3.7956 -2.3815 0.9709
-5.9243 3.6861 -2.3814 0.9709
-5.9469 3.6493 -2.3813 0.9709
-5.9692 3.6123 -2.3813 0.9709
-6.0132 3.5381 -2.3812 0.9709
-6.0562 3.4633 -2.3811 0.9709
-6.0774 3.4257 -2.3810 0.9709
-6.0983 3.3880 -2.3810 0.9709
-6.2191 3.1591 -2.3807 0.9709
-6.2575 3.0818 -2.3806 0.9709
-6.2949 3.0041 -2.3805 0.9710
-6.3313 2.9258 -2.3804 0.9710
-6.4180 2.7284 -2.3801 0.9710
-6.4346 2.6886 -2.3801 0.9710
-6.4509 2.6487 -2.3800 0.9710
-6.5291 2.4478 -2.3798 0.9710
-6.5439 2.4073 -2.3797 0.9710
-6.5730 2.3261 -2.3796 0.9710
-6.5871 2.2853 -2.3796 0.9710
-6.6010 2.2445 -2.3796 0.9710
-6.6280 2.1626 -2.3795 0.9710
-6.6411 2.1216 -2.3794 0.9710
-6.6540 2.0804 -2.3794 0.9710
-6.6666 2.0392 -2.3793 0.9710
-6.6911 1.9565 -2.3793 0.9710
-6.7029 1.9150 -2.3792 0.9710
-6.7584 1.7067 -2.3790 0.9710
-6.7788 1.6230 -2.3790 0.9710
-6.7886 1.5810 -2.3789 0.9710
-6.7982 1.5390 -2.3789 0.9710
-6.8075 1.4969 -2.3789 0.9710
-6.8165 1.4547 -2.3788 0.9710
-6.8253 1.4125 -2.3788 0.9710
-6.8338 1.3703 -2.3788 0.9710
-6.8652 1.2008 -2.3786 0.9710
-6.8724 1.1583 -2.3786 0.9710
-6.8925 1.0306 -2.3785 0.9710
-6.8987 0.9879 -2.3785 0.9710
-6.9156 0.8597 -2.3784 0.9710
-6.9255 0.7741 -2.3784 0.9710
-6.9301 0.7312 -2.3784 0.9710
-6.9423 0.6025 -2.3783 0.9710
-6.9616 0.3015 -2.3782 0.9710
-6.9658 0.1723 -2.3781 0.9710
-6.9667 0.1292 -2.3781 0.9710
-6.9674 0.0862 -2.3781 0.9710
-6.8032 -0.0421 -2.3785 0.9716
-6.8021 -0.1262 -2.3785 0.9716
-6.8012 -0.1683 -2.3784 0.9716
-6.7985 -0.2524 -2.3784 0.9716
-6.7968 -0.2945 -2.3784 0.9716
-6.7902 -0.4205 -2.3784 0.9716
-6.7874 -0.4625 -2.3784 0.9716
-6.7812 -0.5464 -2.3784 0.9716
-6.7776 -0.5883 -2.3784 0.9716
-6.7698 -0.6721 -2.3784 0.9716
-6.7655 -0.7139 -2.3784 0.9716
-6.7610 -0.7558 -2.3784 0.9716
-6.7562 -0.7976 -2.3784 0.9716
-6.7458 -0.8811 -2.3784 0.9716
-6.7403 -0.9228 -2.3784 0.9716
-6.7284 -1.0061 -2.3784 0.9716
-6.7220 -1.0477 -2.3784 0.9716
-6.7154 -1.0892 -2.3784 0.9716
-6.7086 -1.1307 -2.3784 0.9716
-6.6787 -1.2963 -2.3785 0.9716
-6.6447 -1.4611 -2.3785 0.9716
-6.6356 -1.5022 -2.3785 0.9716
-6.6262 -1.5432 -2.3785 0.9716
-6.6165 -1.5842 -2.3785 0.9716
-6.6066 -1.6251 -2.3786 0.9716
-6.5965 -1.6659 -2.3786 0.9716
-6.5862 -1.7067 -2.3786 0.9716
-6.5755 -1.7474 -2.3786 0.9716
-6.5646 -1.7880 -2.3786 0.9716
-6.5421 -1.8691 -2.3787 0.9716
-6.5305 -1.9096 -2.3787 0.9716
-6.5186 -1.9499 -2.3787 0.9716
-6.4941 -2.0304 -2.3787 0.9716
-6.4814 -2.0706 -2.3788 0.9716
-6.4421 -2.1905 -2.3788 0.9716
-6.4285 -2.2304 -2.3789 0.9716
-6.3265 -2.5066 -2.3790 0.9716
-6.2952 -2.5848 -2.3791 0.9716
-6.2628 -2.6625 -2.3792 0.9716
-6.1954 -2.8168 -2.3793 0.9716
-6.1779 -2.8551 -2.3793 0.9716
-6.1058 -3.0072 -2.3795 0.9716
-6.0683 -3.0825 -2.3795 0.9716
-6.0493 -3.1201 -2.3796 0.9716
-6.0299 -3.1575 -2.3796 0.9716
-6.0104 -3.1947 -2.3797 0.9716
-5.9706 -3.2689 -2.3797 0.9716
-5.9504 -3.3059 -2.3798 0.9716
-5.9093 -3.3793 -2.3799 0.9716
-5.8884 -3.4159 -2.3799 0.9716
-5.8243 -3.5247 -2.3800 0.9716
-5.7358 -3.6680 -2.3802 0.9716
-5.7131 -3.7035 -2.3803 0.9716
-5.6902 -3.7388 -2.3803 0.9716
-5.6671 -3.7740 -2.3804 0.9716
-5.5724 -3.9133 -2.3806 0.9716
-5.5483 -3.9478 -2.3806 0.9716
-5.4993 -4.0163 -2.3807 0.9716
-5.4495 -4.0842 -2.3808 0.9716
-5.4242 -4.1179 -2.3809 0.9716
-5.2684 -4.3169 -2.3812 0.9716
-5.1879 -4.4143 -2.3814 0.9715
-5.0776 -4.5417 -2.3816 0.9715
-5.0496 -4.5731 -2.3817 0.9715
-5.0213 -4.6044 -2.3818 0.9715
-4.8478 -4.7882 -2.3821 0.9715
-4.7885 -4.8481 -2.3823 0.9715
-4.7284 -4.9072 -2.3824 0.9715
-4.6676 -4.9656 -2.3826 0.9715
-4.6370 -4.9946 -2.3826 0.9715
-4.5751 -5.0518 -2.3828 0.9715
-4.5439 -5.0802 -2.3828 0.9715
-4.5125 -5.1083 -2.3829 0.9715
-4.4174 -5.1916 -2.3831 0.9715
-4.3854 -5.2190 -2.3832 0.9715
-4.2226 -5.3529 -2.3836 0.9715
-4.1229 -5.4309 -2.3838 0.9715
-4.0894 -5.4564 -2.3839 0.9715
-4.0557 -5.4818 -2.3840 0.9715
-3.9879 -5.5319 -2.3841 0.9715
-3.9537 -5.5566 -2.3842 0.9715
-3.9194 -5.5812 -2.3843 0.9715
-3.8155 -5.6535 -2.3845 0.9715
-3.7456 -5.7007 -2.3847 0.9715
-3.6396 -5.7698 -2.3849 0.9715
-3.5323 -5.8369 -2.3852 0.9715
-3.4962 -5.8588 -2.3853 0.9715
-3.4601 -5.8805 -2.3853 0.9715
-3.4238 -5.9021 -2.3854 0.9715
-3.3507 -5.9444 -2.3856 0.9715
-3.3140 -5.9652 -2.3857 0.9715
-3.2772 -5.9858 -2.3858 0.9715
-3.2031 -6.0263 -2.3859 0.9715
-3.1659 -6.0462 -2.3860 0.9715
-3.0911 -6.0854 -2.3862 0.9715
-3.0536 -6.1046 -2.3863 0.9715
-3.0159 -6.1236 -2.3864 0.9715
-2.9780 -6.1424 -2.3865 0.9715
-2.9402 -6.1609 -2.3866 0.9715
-2.9021 -6.1792 -2.3867 0.9715
-2.8256 -6.2151 -2.3868 0.9715
-2.7102 -6.2672 -2.3871 0.9715
-2.5938 -6.3171 -2.3874 0.9715
-2.5547 -6.3333 -2.3875 0.9715
-2.4764 -6.3649 -2.3877 0.9715
-2.4371 -6.3803 -2.3878 0.9715
-2.3977 -6.3955 -2.3879 0.9715
-2.3582 -6.4105 -2.3880 0.9715
-2.2789 -6.4397 -2.3881 0.9715
-2.2391 -6.4539 -2.3882 0.9715
-2.1993 -6.4679 -2.3883 0.9715
-2.0791 -6.5084 -2.3886 0.9715
-1.9987 -6.5341 -2.3888 0.9715
-1.9583 -6.5466 -2.3889 0.9715
-1.8367 -6.5826 -2.3892 0.9715
-1.7553 -6.6054 -2.3894 0.9715
-1.6736 -6.6271 -2.3896 0.9715
-1.6327 -6.6376 -2.3897 0.9715
-1.5917 -6.6479 -2.3898 0.9714
-1.5505 -6.6579 -2.3899 0.9714
-1.5094 -6.6676 -2.3900 0.9714
-1.4270 -6.6864 -2.3902 0.9714
-1.3443 -6.7041 -2.3904 0.9714
-1.3029 -6.7125 -2.3905 0.9714
-1.1783 -6.7364 -2.3908 0.9714
-1.0532 -6.7580 -2.3911 0.9714
-1.0115 -6.7646 -2.3912 0.9714
-0.9278 -6.7772 -2.3914 0.9714
-0.8859 -6.7831 -2.3915 0.9714
-0.8020 -6.7941 -2.3917 0.9714
-0.7600 -6.7992 -2.3918 0.9714
-0.7180 -6.8041 -2.3919 0.9714
-0.6759 -6.8087 -2.3921 0.9714
-0.4230 -6.8309 -2.3927 0.9714
-0.3807 -6.8337 -2.3928 0.9714
-0.3385 -6.8362 -2.3929 0.9714
-0.2962 -6.8385 -2.3930 0.9714
-0.2539 -6.8405 -2.3931 0.9714
-0.1693 -6.8437 -2.3933 0.9714
-0.1270 -6.8449 -2.3934 0.9714
-0.0846 -6.8459 -2.3935 0.9714
0.0424 -6.8471 -2.3938 0.9714
0.0847 -6.8471 -2.3939 0.9714
0.1271 -6.8467 -2.3940 0.9714
0.1695 -6.8461 -2.3942 0.9714
0.2117 -6.8452 -2.3943 0.9714
0.2964 -6.8427 -2.3945 0.9714
0.3387 -6.8411 -2.3946 0.9714
0.4234 -6.8369 -2.3948 0.9714
0.5925 -6.8256 -2.3952 0.9714
0.6346 -6.8221 -2.3953 0.9714
0.6769 -6.8183 -2.3954 0.9714
0.7612 -6.8100 -2.3956 0.9714
0.8034 -6.8055 -2.3957 0.9714
0.9296 -6.7904 -2.3961 0.9714
0.9716 -6.7848 -2.3962 0.9714
1.0549 -5.8191 -2.0675 0.9753
1.0984 -5.4775 -1.9531 0.9766
1.1547 -5.1009 -1.8284 0.9781
1.1549 -4.9591 -1.7801 0.9787
1.0218 -4.1539 -1.4955 0.9820
1.0512 -3.9558 -1.4310 0.9828
1.0519 -3.4391 -1.2573 0.9849
1.0520 -3.3649 -1.2325 0.9852
1.0522 -3.2249 -1.1859 0.9857
1.0524 -3.0951 -1.1429 0.9862
1.0525 -3.0336 -1.1226 0.9865
1.0526 -2.9171 -1.0842 0.9869
1.0527 -2.8617 -1.0660 0.9872
1.0528 -2.8082 -1.0485 0.9874
1.0530 -2.6577 -0.9994 0.9880
1.0531 -2.6106 -0.9841 0.9881
1.0534 -2.3555 -0.9021 0.9891
1.0574 -2.3258 -0.8932 0.9892
1.1100 -2.3259 -0.9010 0.9891
1.1455 -2.3259 -0.9064 0.9891
1.1815 -2.3259 -0.9120 0.9890
1.1996 -2.3259 -0.9149 0.9890
1.2179 -2.3259 -0.9179 0.9889
1.2363 -2.3259 -0.9209 0.9889
1.2734 -2.3259 -0.9270 0.9888
1.2922 -2.3259 -0.9302 0.9888
1.3111 -2.3260 -0.9334 0.9887
1.3493 -2.3260 -0.9401 0.9887
1.3686 -2.3260 -0.9435 0.9886
1.4076 -2.3260 -0.9505 0.9885
1.5079 -2.3261 -0.9691 0.9883
1.5284 -2.3261 -0.9730 0.9883
1.6335 -2.3261 -0.9937 0.9880
1.6769 -2.3261 -1.0025 0.9879
1.6988 -2.3262 -1.0070 0.9879
1.7210 -2.3262 -1.0116 0.9878
1.7434 -2.3262 -1.0163 0.9878
1.7888 -2.3262 -1.0259 0.9876
1.8118 -2.3262 -1.0308 0.9876
1.9303 -2.3263 -1.0568 0.9873
1.9547 -2.3263 -1.0623 0.9872
2.0044 -2.3263 -1.0735 0.9871
2.1332 -2.3264 -1.1035 0.9867
2.1599 -2.3264 -1.1098 0.9866
2.2141 -2.3264 -1.1228 0.9865
2.2979 -2.3265 -1.1432 0.9862
2.3265 -2.3265 -1.1503 0.9862
2.3555 -2.3265 -1.1574 0.9861
2.4446 -2.3266 -1.1798 0.9858
2.5224 -2.3129 -1.1964 0.9856
2.6075 -2.2749 -1.2098 0.9854
2.6403 -2.2749 -1.2184 0.9853
2.6736 -2.2749 -1.2273 0.9852
2.7074 -2.2749 -1.2363 0.9851
2.7416 -2.2749 -1.2455 0.9850
2.8117 -2.2750 -1.2645 0.9848
2.8476 -2.2750 -1.2742 0.9847
2.8840 -2.2750 -1.2842 0.9846
3.1100 -2.3915 -1.3716 0.9835
3.2874 -2.4322 -1.4296 0.9828
3.3303 -2.4322 -1.4417 0.9827
3.3740 -2.4322 -1.4541 0.9825
3.4184 -2.4323 -1.4667 0.9824
3.4636 -2.4323 -1.4796 0.9822
3.5564 -2.4324 -1.5063 0.9819
3.6040 -2.4324 -1.5201 0.9817
3.6075 -2.3385 -1.5030 0.9819
3.7926 -2.3274 -1.5557 0.9813
3.8458 -2.3274 -1.5715 0.9811
3.9001 -2.3274 -1.5878 0.9809
4.0122 -2.3275 -1.6216 0.9805
4.2513 -2.3276 -1.6945 0.9797
4.3792 -2.3277 -1.7338 0.9792
4.4454 -2.3277 -1.7543 0.9790
4.5132 -2.3278 -1.7753 0.9787
4.5826 -2.3278 -1.7969 0.9785
4.6537 -2.3279 -1.8191 0.9782
4.8014 -2.3279 -1.8655 0.9776
4.9568 -2.3280 -1.9145 0.9771
5.0377 -2.3281 -1.9402 0.9768
5.2060 -2.3282 -1.9938 0.9761
5.2937 -2.3282 -2.0218 0.9758
5.5724 -2.3284 -2.1114 0.9747
5.6708 -2.3284 -2.1432 0.9744
5.7160 -2.3057 -2.1548 0.9742
5.7461 -2.2767 -2.1608 0.9742
5.9748 -2.3247 -2.2413 0.9732
6.0732 -2.2769 -2.2675 0.9729
6.1896 -2.2770 -2.3057 0.9724
6.5933 -2.0168 -2.4104 0.9712
6.6057 -1.9760 -2.4105 0.9712
6.6180 -1.9352 -2.4105 0.9712
6.6416 -1.8532 -2.4106 0.9712
6.6531 -1.8121 -2.4107 0.9712
6.6643 -1.7710 -2.4107 0.9712
6.6860 -1.6885 -2.4108 0.9712
6.6964 -1.6472 -2.4109 0.9712
6.7066 -1.6057 -2.4109 0.9712
6.7165 -1.5643 -2.4110 0.9712
6.7356 -1.4811 -2.4110 0.9712
6.7447 -1.4395 -2.4111 0.9712
6.7536 -1.3978 -2.4111 0.9712
6.7706 -1.3142 -2.4112 0.9712
6.7787 -1.2723 -2.4112 0.9712
6.8014 -1.1464 -2.4113 0.9712
6.8085 -1.1043 -2.4114 0.9712
6.8218 -1.0200 -2.4114 0.9712
6.8281 -0.9778 -2.4115 0.9712
6.8398 -0.8933 -2.4115 0.9712
6.8453 -0.8510 -2.4116 0.9712
6.8505 -0.8087 -2.4116 0.9712
6.8601 -0.7239 -2.4116 0.9712
6.8646 -0.6815 -2.4117 0.9712
6.8687 -0.6390 -2.4117 0.9712
6.8726 -0.5965 -2.4117 0.9712
6.8796 -0.5115 -2.4118 0.9712
6.8827 -0.4690 -2.4118 0.9712
6.8881 -0.3838 -2.4118 0.9712
6.8924 -0.2986 -2.4119 0.9712
6.8942 -0.2560 -2.4119 0.9712
6.8957 -0.2133 -2.4119 0.9712
6.8991 -0.0427 -2.4120 0.9712
6.8962 0.2133 -2.4121 0.9712
6.8947 0.2559 -2.4121 0.9712
6.8864 0.4264 -2.4121 0.9712
6.8836 0.4690 -2.4121 0.9712
6.8806 0.5115 -2.4121 0.9712
6.8774 0.5541 -2.4121 0.9712
6.8659 0.6816 -2.4121 0.9712
6.8616 0.7240 -2.4122 0.9712
6.8570 0.7664 -2.4122 0.9712
6.8521 0.8088 -2.4122 0.9712
6.8470 0.8512 -2.4122 0.9712
6.8300 0.9781 -2.4122 0.9712
6.8238 1.0203 -2.4121 0.9712
6.8174 1.0625 -2.4121 0.9712
6.7965 1.1888 -2.4121 0.9712
6.7889 1.2307 -2.4121 0.9712
6.7732 1.3146 -2.4121 0.9712
6.7648 1.3565 -2.4121 0.9712
6.7563 1.3983 -2.4121 0.9712
6.7385 1.4817 -2.4121 0.9712
6.7291 1.5233 -2.4121 0.9712
6.7196 1.5649 -2.4120 0.9712
6.7097 1.6064 -2.4120 0.9712
6.6996 1.6479 -2.4120 0.9712
6.6893 1.6893 -2.4120 0.9712
6.6677 1.7719 -2.4120 0.9712
6.6452 1.8542 -2.4119 0.9712
6.6336 1.8952 -2.4119 0.9712
6.6217 1.9362 -2.4119 0.9712
6.2968 1.9261 -2.3021 0.9725
6.1606 1.9261 -2.2566 0.9730
6.0981 1.9897 -2.2425 0.9732
5.6183 1.9492 -2.0790 0.9751
5.5901 1.9783 -2.0731 0.9752
5.0853 1.9786 -1.9077 0.9771
4.9052 1.9787 -1.8491 0.9778
4.8191 1.9787 -1.8213 0.9782
4.7357 1.9787 -1.7943 0.9785
4.5760 1.9788 -1.7430 0.9791
4.4995 1.9789 -1.7185 0.9794
4.4251 1.9789 -1.6947 0.9797
4.3528 1.9790 -1.6717 0.9799
4.2824 1.9790 -1.6493 0.9802
4.2138 1.9790 -1.6276 0.9805
4.1471 1.9791 -1.6065 0.9807
4.0186 1.9792 -1.5661 0.9812
3.9568 1.9792 -1.5467 0.9814
3.8375 1.9793 -1.5095 0.9819
3.7800 1.9793 -1.4917 0.9821
3.7239 1.9793 -1.4744 0.9823
3.5731 1.9276 -1.4193 0.9829
3.5209 1.9277 -1.4033 0.9831
3.5100 1.9500 -1.4038 0.9831
3.5100 2.0072 -1.4136 0.9830
3.4933 2.0846 -1.4222 0.9829
3.4447 2.0846 -1.4076 0.9831
3.3972 2.0846 -1.3935 0.9833
3.0986 1.9279 -1.2758 0.9847
2.9742 1.9279 -1.2391 0.9851
2.9343 1.9280 -1.2275 0.9852
2.8952 1.9280 -1.2161 0.9854
2.8568 1.9280 -1.2049 0.9855
2.8166 1.9521 -1.1981 0.9856
2.7826 1.9799 -1.1939 0.9856
2.7465 1.9799 -1.1837 0.9858
2.7110 1.9799 -1.1736 0.9859
2.6761 1.9799 -1.1638 0.9860
2.6418 1.9799 -1.1542 0.9861
2.5101 1.9800 -1.1177 0.9865
2.4472 1.9801 -1.1005 0.9867
2.3863 1.9801 -1.0841 0.9869
2.3566 1.9801 -1.0761 0.9870
2.2697 1.9801 -1.0530 0.9873
2.2416 1.9802 -1.0457 0.9874
2.1596 1.9802 -1.0243 0.9877
2.1067 1.9802 -1.0108 0.9878
2.0808 1.9803 -1.0042 0.9879
2.0299 1.9803 -0.9914 0.9881
2.0050 1.9803 -0.9852 0.9881
1.9082 1.9804 -0.9615 0.9884
1.8616 1.9804 -0.9502 0.9885
1.8160 1.9804 -0.9394 0.9887
1.7936 1.9804 -0.9341 0.9887
1.7495 1.9804 -0.9238 0.9889
1.6852 1.9805 -0.9091 0.9890
1.6642 1.9805 -0.9044 0.9891
1.6434 1.9805 -0.8997 0.9892
1.6025 1.9805 -0.8907 0.9893
1.5623 1.9805 -0.8819 0.9894
1.5426 1.9806 -0.8777 0.9894
1.5036 1.9806 -0.8694 0.9895
1.4278 1.9806 -0.8536 0.9897
1.3547 1.9807 -0.8389 0.9899
1.3368 1.9807 -0.8354 0.9899
1.2667 1.9807 -0.8220 0.9901
1.2495 1.9807 -0.8187 0.9901
1.2324 1.9807 -0.8156 0.9902
