ply
format ascii 1.0
element vertex 1592
property float32 x
property float32 y
property float32 z
property float32 I
end_header
-10.3676 2.0123 -2.5823 0.9574
-10.8596 1.8995 -2.6956 0.9556
-11.4957 1.9375 -2.8504 0.9531
-12.0222 1.5701 -2.9645 0.9513
-12.0455 1.4219 -2.9657 0.9513
-12.0564 1.3476 -2.9662 0.9513
-12.0854 1.1243 -2.9677 0.9512
-12.0939 1.0497 -2.9682 0.9512
-12.1091 0.9003 -2.9690 0.9512
-12.1159 0.8254 -2.9693 0.9512
-12.1220 0.7506 -2.9696 0.9512
-12.1369 0.5257 -2.9703 0.9512
-12.1406 0.4507 -2.9705 0.9512
-12.1438 0.3756 -2.9707 0.9512
-12.1464 0.3005 -2.9708 0.9512
-12.1506 0.0751 -2.9710 0.9512
-11.6670 -0.2165 -2.9451 0.9530
-11.6649 -0.2886 -2.9450 0.9530
-11.6591 -0.4328 -2.9447 0.9530
-11.6461 -0.6489 -2.9439 0.9530
-11.6407 -0.7208 -2.9436 0.9530
-11.6281 -0.8645 -2.9429 0.9530
-11.5868 -1.2227 -2.9406 0.9531
-11.5663 -1.3654 -2.9395 0.9531
-11.5554 -1.4366 -2.9389 0.9531
-11.5438 -1.5077 -2.9383 0.9531
-11.5316 -1.5787 -2.9376 0.9531
-11.4632 -1.9320 -2.9340 0.9532
-11.4155 -2.1425 -2.9315 0.9532
-11.3809 -2.2821 -2.9296 0.9532
-11.3629 -2.3517 -2.9287 0.9533
-11.0928 -2.3674 -2.8628 0.9543
-10.5192 -2.3131 -2.7184 0.9565
-10.4707 -2.4386 -2.7134 0.9566
-10.2441 -2.4527 -2.6586 0.9575
-10.0333 -2.4679 -2.6078 0.9583
-9.0910 -2.3558 -2.3703 0.9620
-8.0746 -2.3611 -2.1233 0.9659
-7.8387 -2.3977 -2.0689 0.9667
-7.6268 -2.3846 -2.0168 0.9676
-7.5642 -2.4164 -2.0042 0.9678
-7.5540 -2.4648 -2.0055 0.9678
-7.5846 -2.5268 -2.0177 0.9676
-7.5080 -2.6048 -2.0057 0.9677
-7.2705 -2.7771 -1.9643 0.9684
-7.1326 -2.8772 -1.9411 0.9688
-6.9539 -2.8553 -1.8973 0.9695
-6.9184 -2.8908 -1.8924 0.9695
-6.8844 -3.0278 -1.8982 0.9694
-6.8630 -3.0692 -1.8975 0.9695
-6.8204 -3.1520 -1.8963 0.9695
-6.7992 -3.1933 -1.8959 0.9695
-6.7779 -3.2346 -1.8955 0.9695
-6.7353 -3.3172 -1.8949 0.9695
-6.7140 -3.3585 -1.8947 0.9695
-6.6511 -3.3785 -1.8828 0.9697
-6.7525 -3.9171 -1.9703 0.9683
-6.7506 -4.0853 -1.9915 0.9680
-6.7500 -4.1421 -1.9988 0.9679
-6.8954 -4.7161 -2.1085 0.9661
-8.0679 -5.7405 -2.4991 0.9600
-8.0670 -5.8154 -2.5099 0.9598
-7.9416 -6.0290 -2.5166 0.9597
-7.7401 -6.0284 -2.4762 0.9603
-7.5450 -6.0279 -2.4374 0.9609
-7.4497 -6.0276 -2.4186 0.9612
-7.3559 -6.0273 -2.4002 0.9615
-7.0827 -6.0265 -2.3471 0.9624
-6.9943 -6.0262 -2.3301 0.9626
-6.7365 -6.0254 -2.2811 0.9634
-6.6529 -6.0252 -2.2654 0.9636
-6.5705 -6.0249 -2.2500 0.9639
-6.1746 -6.0237 -2.1771 0.9650
-6.0984 -6.0234 -2.1634 0.9653
-6.0232 -6.0232 -2.1499 0.9655
-5.9489 -6.0230 -2.1366 0.9657
-5.8031 -6.0225 -2.1108 0.9661
-5.6607 -6.0221 -2.0860 0.9665
-5.5312 -6.1075 -2.0797 0.9666
-5.5312 -6.1839 -2.0940 0.9664
-6.2809 -7.1101 -2.3944 0.9616
-6.2475 -7.1611 -2.3986 0.9616
-6.1960 -7.1913 -2.3958 0.9616
-6.0947 -7.2533 -2.3911 0.9617
-6.0938 -7.3439 -2.4085 0.9614
-6.0928 -7.4358 -2.4263 0.9611
-6.0231 -7.5391 -2.4355 0.9610
-5.8709 -7.5378 -2.4114 0.9614
-5.7958 -7.5371 -2.3997 0.9615
-5.5751 -7.5354 -2.3658 0.9621
-5.5222 -7.6603 -2.3834 0.9618
-5.5211 -7.8619 -2.4247 0.9611
-5.5209 -7.9660 -2.4462 0.9608
-5.8958 -8.6203 -2.6359 0.9578
-5.8352 -8.6460 -2.6326 0.9579
-5.7745 -8.6712 -2.6294 0.9579
-5.6528 -8.7204 -2.6229 0.9580
-5.5919 -8.7444 -2.6197 0.9581
-5.4696 -8.7909 -2.6131 0.9582
-5.4084 -8.8135 -2.6099 0.9582
-5.2857 -8.8575 -2.6033 0.9583
-5.2242 -8.8788 -2.6001 0.9584
-5.1011 -8.9201 -2.5935 0.9585
-3.7552 -6.8588 -1.9736 0.9683
-3.7001 -6.8585 -1.9669 0.9684
-3.6454 -6.8583 -1.9603 0.9685
-3.5911 -6.8581 -1.9538 0.9686
-3.5371 -6.8578 -1.9475 0.9687
-3.4834 -6.8576 -1.9413 0.9688
-3.3771 -6.8571 -1.9292 0.9690
-3.3245 -6.8569 -1.9233 0.9691
-3.2248 -6.8664 -1.9146 0.9692
-3.2214 -6.9707 -1.9381 0.9688
-3.2195 -7.0814 -1.9633 0.9684
-3.2177 -7.1950 -1.9893 0.9680
-3.2978 -7.6259 -2.0970 0.9663
-3.2539 -7.6539 -2.0991 0.9663
-3.2475 -7.7721 -2.1260 0.9658
-3.2254 -7.9959 -2.1761 0.9651
-3.4255 -9.3118 -2.5042 0.9599
-3.1772 -9.3440 -2.4909 0.9601
-2.7686 -8.8551 -2.3416 0.9624
-2.7085 -8.8548 -2.3371 0.9625
-2.6795 -8.9575 -2.3598 0.9622
-2.5584 -9.3930 -2.4571 0.9606
-2.4969 -9.3961 -2.4538 0.9607
-2.3128 -9.4029 -2.4439 0.9608
-2.2516 -9.4044 -2.4407 0.9609
-1.2240 -5.2557 -1.3620 0.9780
-1.1896 -5.2549 -1.3599 0.9780
-1.1554 -5.2542 -1.3578 0.9781
-0.9854 -5.2505 -1.3483 0.9782
-0.9517 -5.2498 -1.3466 0.9782
-0.8846 -5.2483 -1.3433 0.9783
-0.8511 -5.2475 -1.3417 0.9783
-0.7844 -5.2461 -1.3388 0.9784
-0.7512 -5.2454 -1.3374 0.9784
-0.7180 -5.2447 -1.3361 0.9784
-0.6849 -5.2440 -1.3348 0.9784
-0.6518 -5.2432 -1.3335 0.9784
-0.6188 -5.2425 -1.3323 0.9785
-0.5859 -5.2418 -1.3312 0.9785
-0.5202 -5.2404 -1.3291 0.9785
-0.4875 -5.2397 -1.3282 0.9785
-0.4547 -5.2390 -1.3272 0.9785
-0.4221 -5.2383 -1.3264 0.9786
-0.3568 -5.2369 -1.3248 0.9786
-0.2917 -5.2354 -1.3234 0.9786
-0.1295 -5.2320 -1.3209 0.9786
0.0970 -5.2271 -1.3195 0.9787
0.1293 -5.2264 -1.3195 0.9787
0.2587 -5.2236 -1.3200 0.9787
0.2910 -5.2229 -1.3203 0.9787
0.3558 -5.2215 -1.3209 0.9786
0.3881 -5.2208 -1.3213 0.9786
0.4206 -5.2202 -1.3218 0.9786
0.4855 -5.2188 -1.3229 0.9786
0.5180 -5.2181 -1.3235 0.9786
0.5831 -5.2167 -1.3248 0.9786
0.6484 -5.2153 -1.3264 0.9786
0.7794 -5.2125 -1.3302 0.9785
0.8782 -5.2104 -1.3336 0.9784
0.9112 -5.2097 -1.3348 0.9784
0.9444 -5.2090 -1.3361 0.9784
1.0108 -5.2076 -1.3389 0.9784
1.0775 -5.2062 -1.3418 0.9783
1.2118 -5.2033 -1.3484 0.9782
1.2456 -5.2026 -1.3502 0.9782
1.2796 -5.2019 -1.3520 0.9781
1.3135 -5.2012 -1.3539 0.9781
1.5196 -5.1969 -1.3666 0.9779
1.5543 -5.1961 -1.3689 0.9779
1.5892 -5.1954 -1.3712 0.9778
1.6242 -5.1947 -1.3737 0.9778
1.7298 -5.1925 -1.3813 0.9777
1.7653 -5.1917 -1.3840 0.9776
1.8368 -5.1902 -1.3896 0.9775
1.8727 -5.1895 -1.3924 0.9775
3.2505 -8.5098 -2.2991 0.9631
3.3963 -8.4194 -2.2913 0.9632
3.4444 -8.3888 -2.2888 0.9633
2.7605 -6.3836 -1.7553 0.9717
2.7232 -6.1917 -1.7072 0.9725
2.7193 -6.0806 -1.6812 0.9729
2.7193 -5.8842 -1.6360 0.9736
2.7470 -5.7561 -1.6097 0.9740
2.8037 -5.6051 -1.5818 0.9745
2.8111 -5.5341 -1.5666 0.9747
2.7970 -5.4229 -1.5400 0.9751
2.7832 -5.3153 -1.5143 0.9756
2.7699 -5.2112 -1.4895 0.9759
2.7391 -4.9303 -1.4235 0.9770
2.7287 -4.7037 -1.3725 0.9778
2.7344 -4.6471 -1.3609 0.9780
2.7521 -4.4848 -1.3281 0.9785
2.7578 -4.4324 -1.3176 0.9787
2.7689 -4.3299 -1.2972 0.9790
2.7743 -4.2797 -1.2873 0.9792
2.7796 -4.2304 -1.2775 0.9793
2.7846 -4.1815 -1.2680 0.9795
2.7912 -4.0809 -1.2478 0.9798
2.8080 -3.9465 -1.2225 0.9802
2.8142 -3.9038 -1.2146 0.9803
2.8277 -3.8220 -1.1999 0.9806
2.8409 -3.7905 -1.1956 0.9806
2.8633 -3.7716 -1.1952 0.9807
2.9091 -3.7351 -1.1949 0.9807
2.9789 -3.6817 -1.1953 0.9807
3.0022 -3.6639 -1.1955 0.9806
3.1194 -3.5755 -1.1976 0.9806
3.1425 -3.5573 -1.1980 0.9806
3.2441 -3.4943 -1.2034 0.9805
3.2728 -3.4818 -1.2061 0.9805
3.3017 -3.4692 -1.2087 0.9804
3.3305 -3.4565 -1.2115 0.9804
3.3595 -3.4437 -1.2142 0.9803
3.3886 -3.4308 -1.2171 0.9803
3.4180 -3.4180 -1.2200 0.9803
3.4475 -3.4051 -1.2230 0.9802
3.4767 -3.3918 -1.2259 0.9802
3.5061 -3.3783 -1.2289 0.9801
3.5355 -3.3648 -1.2319 0.9801
3.5651 -3.3512 -1.2349 0.9800
3.5881 -3.3312 -1.2357 0.9800
3.6109 -3.3111 -1.2365 0.9800
3.6341 -3.2912 -1.2374 0.9800
3.6804 -3.2512 -1.2394 0.9799
3.7034 -3.2309 -1.2404 0.9799
3.7263 -3.2106 -1.2414 0.9799
3.7492 -3.1901 -1.2425 0.9799
3.7942 -3.1484 -1.2444 0.9799
3.8382 -3.1055 -1.2461 0.9798
3.8601 -3.0839 -1.2470 0.9798
3.9303 -3.0223 -1.2513 0.9798
3.9536 -3.0015 -1.2528 0.9797
4.0001 -2.9595 -1.2559 0.9797
4.0540 -2.9225 -1.2613 0.9796
4.0811 -2.9038 -1.2641 0.9795
4.1081 -2.8849 -1.2670 0.9795
4.1620 -2.8466 -1.2726 0.9794
4.2157 -2.8074 -1.2784 0.9793
4.2423 -2.7874 -1.2812 0.9793
4.3482 -2.7055 -1.2925 0.9791
4.3746 -2.6845 -1.2954 0.9790
7.1197 -4.2487 -2.0926 0.9664
7.1419 -4.2022 -2.0914 0.9664
7.1637 -4.1557 -2.0902 0.9664
7.2067 -4.0623 -2.0880 0.9664
7.2692 -3.9216 -2.0846 0.9665
7.2895 -3.8746 -2.0835 0.9665
7.3096 -3.8275 -2.0825 0.9665
7.3294 -3.7803 -2.0814 0.9666
7.3490 -3.7330 -2.0804 0.9666
7.3873 -3.6383 -2.0783 0.9666
7.5135 -3.3045 -2.0716 0.9667
7.5472 -3.2085 -2.0698 0.9667
7.5637 -3.1604 -2.0689 0.9667
7.5799 -3.1123 -2.0681 0.9668
7.5959 -3.0641 -2.0672 0.9668
7.6116 -3.0158 -2.0664 0.9668
7.6271 -2.9675 -2.0656 0.9668
7.6423 -2.9191 -2.0648 0.9668
7.6573 -2.8707 -2.0640 0.9668
7.7282 -2.6278 -2.0602 0.9669
7.7417 -2.5791 -2.0595 0.9669
7.7548 -2.5303 -2.0588 0.9669
7.7804 -2.4326 -2.0574 0.9669
7.8284 -2.2366 -2.0549 0.9670
7.8398 -2.1875 -2.0543 0.9670
7.8724 -2.0400 -2.0525 0.9670
7.8929 -1.9414 -2.0514 0.9670
7.9027 -1.8921 -2.0509 0.9670
7.9123 -1.8428 -2.0504 0.9670
7.9216 -1.7933 -2.0499 0.9670
7.9307 -1.7439 -2.0494 0.9671
7.9395 -1.6944 -2.0490 0.9671
7.9481 -1.6449 -2.0485 0.9671
7.9564 -1.5954 -2.0481 0.9671
7.9644 -1.5459 -2.0477 0.9671
7.9723 -1.4963 -2.0472 0.9671
7.9871 -1.3970 -2.0465 0.9671
8.0009 -1.2977 -2.0457 0.9671
8.0074 -1.2480 -2.0454 0.9671
8.0254 -1.0987 -2.0444 0.9671
8.0309 -1.0489 -2.0441 0.9671
8.0362 -0.9991 -2.0439 0.9671
8.0412 -0.9492 -2.0436 0.9671
8.0546 -0.7996 -2.0429 0.9672
8.0658 -0.6498 -2.0423 0.9672
8.0746 -0.5000 -2.0419 0.9672
8.0771 -0.4500 -2.0417 0.9672
8.0793 -0.4000 -2.0416 0.9672
8.0812 -0.3500 -2.0415 0.9672
8.0829 -0.3001 -2.0414 0.9672
8.0870 -0.1000 -2.0412 0.9672
8.0874 -0.0500 -2.0412 0.9672
8.0864 0.1500 -2.0413 0.9672
8.0855 0.2000 -2.0413 0.9672
8.0845 0.2500 -2.0414 0.9672
8.0830 0.3001 -2.0415 0.9672
8.0814 0.3501 -2.0416 0.9672
8.0795 0.4000 -2.0417 0.9672
8.0749 0.5000 -2.0419 0.9672
8.0723 0.5500 -2.0421 0.9672
8.0693 0.5999 -2.0422 0.9672
8.0627 0.6998 -2.0426 0.9672
8.0590 0.7497 -2.0428 0.9672
8.0551 0.7996 -2.0430 0.9672
8.0465 0.8994 -2.0435 0.9671
8.0417 0.9493 -2.0437 0.9671
8.0368 0.9991 -2.0440 0.9671
8.0316 1.0489 -2.0443 0.9671
8.0144 1.1983 -2.0452 0.9671
8.0081 1.2481 -2.0456 0.9671
8.0016 1.2978 -2.0459 0.9671
7.9879 1.3972 -2.0467 0.9671
7.9806 1.4468 -2.0471 0.9671
7.9731 1.4964 -2.0475 0.9671
7.9573 1.5956 -2.0483 0.9671
7.9405 1.6946 -2.0492 0.9671
7.9317 1.7441 -2.0497 0.9671
7.9038 1.8924 -2.0512 0.9670
7.8939 1.9417 -2.0517 0.9670
7.8839 1.9910 -2.0523 0.9670
7.8735 2.0403 -2.0528 0.9670
7.8410 2.1878 -2.0546 0.9670
7.8297 2.2370 -2.0552 0.9670
7.8181 2.2860 -2.0558 0.9670
7.7160 2.6770 -2.0613 0.9669
7.6735 2.8228 -2.0636 0.9668
7.6439 2.9198 -2.0652 0.9668
7.6133 3.0165 -2.0668 0.9668
7.5976 3.0647 -2.0677 0.9668
7.5816 3.1130 -2.0685 0.9668
7.5489 3.2092 -2.0703 0.9667
7.5322 3.2572 -2.0712 0.9667
7.5153 3.3052 -2.0721 0.9667
7.4805 3.4010 -2.0740 0.9667
7.4447 3.4965 -2.0759 0.9666
7.4080 3.5917 -2.0779 0.9666
7.3702 3.6866 -2.0799 0.9666
7.3314 3.7813 -2.0820 0.9665
7.2507 3.9697 -2.0863 0.9665
7.2299 4.0167 -2.0874 0.9665
7.2087 4.0635 -2.0886 0.9664
7.1659 4.1569 -2.0909 0.9664
7.1440 4.2035 -2.0920 0.9664
7.1219 4.2500 -2.0932 0.9664
7.0541 4.3890 -2.0969 0.9663
7.0310 4.4352 -2.0981 0.9663
6.9601 4.5731 -2.1019 0.9662
6.9115 4.6646 -2.1045 0.9662
6.8869 4.7102 -2.1058 0.9662
6.8620 4.7557 -2.1072 0.9661
6.7857 4.8917 -2.1113 0.9661
6.7598 4.9368 -2.1127 0.9661
6.7336 4.9819 -2.1141 0.9660
6.7072 5.0268 -2.1155 0.9660
6.6804 5.0716 -2.1169 0.9660
6.6535 5.1163 -2.1183 0.9660
6.5988 5.2054 -2.1213 0.9659
6.5431 5.2940 -2.1243 0.9659
6.5149 5.3382 -2.1258 0.9658
6.4577 5.4262 -2.1288 0.9658
6.4287 5.4700 -2.1304 0.9658
6.3700 5.5573 -2.1336 0.9657
6.3402 5.6008 -2.1351 0.9657
6.2494 5.7304 -2.1400 0.9656
6.0610 5.9865 -2.1501 0.9655
5.9962 6.0707 -2.1536 0.9654
5.8970 6.1962 -2.1589 0.9653
5.8297 6.2791 -2.1625 0.9653
5.7956 6.3204 -2.1643 0.9652
5.6569 6.4840 -2.1718 0.9651
5.6216 6.5246 -2.1737 0.9651
5.5860 6.5649 -2.1756 0.9651
5.5502 6.6052 -2.1775 0.9650
5.5141 6.6453 -2.1794 0.9650
5.3300 6.8434 -2.1893 0.9648
5.2925 6.8825 -2.1913 0.9648
5.2547 6.9216 -2.1933 0.9648
5.2166 6.9604 -2.1954 0.9648
5.1397 7.0375 -2.1995 0.9647
5.0226 7.1520 -2.2057 0.9646
4.9830 7.1898 -2.2079 0.9646
4.9433 7.2275 -2.2100 0.9645
4.9032 7.2650 -2.2121 0.9645
4.8629 7.3023 -2.2143 0.9645
4.8224 7.3394 -2.2165 0.9644
4.7816 7.3763 -2.2187 0.9644
4.6994 7.4497 -2.2231 0.9643
4.6161 7.5223 -2.2275 0.9642
4.5741 7.5583 -2.2298 0.9642
4.5319 7.5941 -2.2320 0.9642
4.4894 7.6298 -2.2343 0.9641
4.4037 7.7005 -2.2389 0.9641
4.3605 7.7356 -2.2412 0.9640
4.3170 7.7705 -2.2435 0.9640
4.2734 7.8051 -2.2459 0.9640
4.0513 7.9755 -2.2578 0.9638
4.0062 8.0090 -2.2602 0.9637
3.9153 8.0753 -2.2650 0.9637
3.8695 8.1081 -2.2675 0.9636
3.7305 8.2053 -2.2749 0.9635
3.6838 8.2373 -2.2774 0.9635
3.5421 8.3319 -2.2850 0.9633
3.4944 8.3629 -2.2876 0.9633
3.3983 8.4244 -2.2927 0.9632
3.1542 8.5741 -2.3058 0.9630
2.9547 8.6895 -2.3165 0.9628
2.9043 8.7178 -2.3192 0.9628
2.7517 8.8010 -2.3273 0.9627
2.5972 8.8820 -2.3356 0.9625
2.5452 8.9085 -2.3384 0.9625
2.4931 8.9347 -2.3412 0.9625
2.4407 8.9607 -2.3440 0.9624
2.3353 9.0118 -2.3496 0.9623
2.2822 9.0370 -2.3525 0.9623
2.1756 9.0865 -2.3582 0.9622
2.0140 9.1588 -2.3668 0.9621
1.9597 9.1823 -2.3697 0.9620
1.9052 9.2056 -2.3726 0.9620
1.7957 9.2512 -2.3785 0.9619
1.7406 9.2737 -2.3814 0.9618
1.6853 9.2958 -2.3844 0.9618
1.6298 9.3176 -2.3874 0.9617
1.5182 9.3604 -2.3933 0.9616
1.4621 9.3814 -2.3963 0.9616
1.3494 9.4224 -2.4024 0.9615
1.2927 9.4425 -2.4054 0.9614
1.2358 9.4622 -2.4085 0.9614
1.1216 9.5009 -2.4146 0.9613
0.5979 5.6659 -1.4379 0.9768
0.4395 5.0629 -1.2826 0.9793
0.4084 5.0694 -1.2836 0.9792
0.3447 5.0598 -1.2800 0.9793
0.2500 5.0482 -1.2757 0.9794
0.1561 5.0465 -1.2743 0.9794
0.0937 5.0471 -1.2741 0.9794
0.0624 5.0472 -1.2740 0.9794
0.0312 5.0485 -1.2742 0.9794
0.0000 5.0502 -1.2746 0.9794
-0.0312 5.0514 -1.2749 0.9794
-0.1251 5.0552 -1.2763 0.9794
-0.1564 5.0564 -1.2768 0.9793
-0.2505 5.0593 -1.2785 0.9793
-0.2820 5.0605 -1.2792 0.9793
-0.3451 5.0648 -1.2813 0.9793
-0.4084 5.0696 -1.2837 0.9792
-0.5371 5.0895 -1.2917 0.9791
-0.5696 5.0957 -1.2941 0.9791
-0.6024 5.1030 -1.2969 0.9790
-0.6349 5.1070 -1.2989 0.9790
-0.6654 5.0944 -1.2967 0.9790
-0.7096 5.1836 -1.3205 0.9786
-1.4655 9.4038 -2.4021 0.9615
-1.5246 9.3999 -2.4035 0.9615
-1.5848 9.4029 -2.4067 0.9614
-1.6451 9.4055 -2.4099 0.9614
-1.8266 9.4111 -2.4196 0.9612
-1.8873 9.4122 -2.4229 0.9612
-1.9481 9.4130 -2.4261 0.9611
-2.0700 9.4134 -2.4326 0.9610
-2.1310 9.4130 -2.4359 0.9610
-2.1921 9.4123 -2.4392 0.9609
-2.2533 9.4112 -2.4424 0.9609
-2.3758 9.4077 -2.4490 0.9608
-2.4372 9.4055 -2.4523 0.9607
-2.4987 9.4028 -2.4555 0.9607
-2.5602 9.3998 -2.4588 0.9606
-2.6834 9.3925 -2.4654 0.9605
-2.8069 9.3836 -2.4720 0.9604
-2.8687 9.3786 -2.4753 0.9603
-2.9305 9.3732 -2.4786 0.9603
-2.9925 9.3674 -2.4820 0.9602
-3.0544 9.3612 -2.4853 0.9602
-3.1164 9.3546 -2.4886 0.9601
-3.1784 9.3476 -2.4919 0.9601
-3.4890 9.3064 -2.5085 0.9598
-3.5512 9.2970 -2.5118 0.9598
-3.6134 9.2871 -2.5151 0.9597
-3.6809 9.2902 -2.5221 0.9596
-3.7432 9.2794 -2.5254 0.9596
-3.8678 9.2567 -2.5321 0.9595
-3.9301 9.2447 -2.5354 0.9594
-3.9924 9.2323 -2.5387 0.9594
-4.1170 9.2061 -2.5453 0.9592
-4.1793 9.1925 -2.5486 0.9592
-4.2416 9.1783 -2.5519 0.9591
-4.4905 9.1177 -2.5652 0.9589
-4.6148 9.0848 -2.5718 0.9588
-4.6769 9.0677 -2.5751 0.9588
-4.8629 9.0139 -2.5850 0.9586
-4.9248 8.9951 -2.5883 0.9586
-4.9867 8.9759 -2.5916 0.9585
-5.0485 8.9562 -2.5949 0.9585
-5.1102 8.9361 -2.5981 0.9584
-5.2336 8.8946 -2.6047 0.9583
-5.2951 8.8732 -2.6080 0.9583
-5.3565 8.8514 -2.6112 0.9582
-5.4793 8.8064 -2.6178 0.9581
-5.6017 8.7596 -2.6243 0.9580
-5.6627 8.7356 -2.6275 0.9580
-5.7237 8.7112 -2.6307 0.9579
-5.9060 8.6352 -2.6404 0.9578
-6.0270 8.5823 -2.6469 0.9577
-6.0760 8.5393 -2.6451 0.9577
-6.0771 8.4300 -2.6229 0.9580
-6.0783 8.3226 -2.6011 0.9584
-6.0794 8.2170 -2.5798 0.9587
-5.6868 7.3014 -2.3358 0.9625
-5.6870 7.2093 -2.3175 0.9628
-5.8619 7.1541 -2.3343 0.9626
-5.9363 7.1541 -2.3463 0.9624
-6.0114 7.1542 -2.3585 0.9622
-6.1640 7.1541 -2.3834 0.9618
-6.3030 7.1351 -2.4029 0.9615
-6.4427 7.0262 -2.4060 0.9614
-6.4429 6.9396 -2.3900 0.9617
-6.4430 6.8543 -2.3743 0.9619
-6.4431 6.7700 -2.3588 0.9622
-6.4432 6.6869 -2.3437 0.9624
-5.6832 5.8255 -2.0541 0.9670
-5.6821 5.6821 -2.0281 0.9674
-5.7116 5.6414 -2.0262 0.9674
-6.0739 5.6390 -2.0918 0.9664
-6.2257 5.6382 -2.1199 0.9659
-6.3816 5.6374 -2.1491 0.9655
-6.5419 5.6365 -2.1794 0.9650
-6.6237 5.6360 -2.1951 0.9648
-6.7068 5.6355 -2.2110 0.9645
-7.0515 5.6336 -2.2780 0.9635
-7.1410 5.6331 -2.2956 0.9632
-7.2319 5.6325 -2.3135 0.9629
-7.3241 5.6320 -2.3319 0.9626
-7.6101 5.6304 -2.3893 0.9617
-7.7086 5.6298 -2.4092 0.9614
-7.8087 5.6292 -2.4296 0.9611
-7.9106 5.6286 -2.4504 0.9607
-8.2166 5.5454 -2.5019 0.9599
-8.2170 5.3990 -2.4815 0.9603
-8.2174 5.2550 -2.4618 0.9606
-7.0313 4.3147 -2.0821 0.9665
-6.9459 4.1450 -2.0415 0.9672
-6.9044 4.0625 -2.0219 0.9675
-6.8637 3.9817 -2.0027 0.9678
-6.7711 3.8721 -1.9687 0.9683
-6.7617 3.8115 -1.9590 0.9685
-6.8852 3.7696 -1.9812 0.9681
-6.8853 3.7146 -1.9746 0.9682
-6.8856 3.5514 -1.9554 0.9685
-6.8857 3.4978 -1.9493 0.9686
-6.8598 3.4313 -1.9359 0.9689
-6.8859 3.3913 -1.9373 0.9688
-6.8860 3.3386 -1.9315 0.9689
-6.8862 3.2341 -1.9201 0.9691
-6.8862 3.1823 -1.9146 0.9692
-6.7730 3.0289 -1.8726 0.9699
-6.7812 2.9824 -1.8697 0.9699
-6.9919 2.6707 -1.8890 0.9696
-7.0128 2.6291 -1.8903 0.9696
-7.0338 2.5875 -1.8916 0.9696
-7.0112 2.5300 -1.8812 0.9697
-7.0469 2.4938 -1.8866 0.9696
-7.0828 2.4573 -1.8922 0.9695
-7.2709 2.4723 -1.9383 0.9688
-7.3647 2.4030 -1.9552 0.9685
-7.4121 2.3679 -1.9639 0.9684
-7.4130 2.3177 -1.9603 0.9685
-7.5572 2.2606 -1.9909 0.9680
-7.6065 2.2242 -2.0002 0.9678
-7.6562 2.1874 -2.0097 0.9677
-7.7064 2.1503 -2.0193 0.9675
-7.6573 2.0349 -1.9997 0.9678
-8.6142 1.9501 -2.2292 0.9642
-9.2094 1.9060 -2.3736 0.9619
-10.2148 2.0483 -2.6294 0.9579
-10.7984 1.8888 -2.7668 0.9558
-11.4818 1.8622 -2.9358 0.9531
-11.5353 1.5792 -2.9385 0.9531
-11.5587 1.4370 -2.9398 0.9531
-11.5799 1.2944 -2.9409 0.9531
-11.6075 1.0798 -2.9423 0.9530
-11.6231 0.9364 -2.9431 0.9530
-11.6301 0.8646 -2.9434 0.9530
-11.6524 0.5770 -2.9446 0.9530
-11.6565 0.5049 -2.9448 0.9530
-11.6601 0.4328 -2.9449 0.9530
-11.6631 0.3607 -2.9451 0.9530
-11.6675 0.2165 -2.9453 0.9530
-11.2235 -0.0694 -2.9216 0.9547
-11.2226 -0.1388 -2.9215 0.9547
-11.2211 -0.2082 -2.9214 0.9547
-11.2167 -0.3469 -2.9211 0.9547
-11.2137 -0.4163 -2.9210 0.9547
-11.2101 -0.4856 -2.9208 0.9547
-11.2059 -0.5548 -2.9205 0.9547
-11.2013 -0.6241 -2.9203 0.9547
-11.1904 -0.7624 -2.9196 0.9547
-11.1841 -0.8315 -2.9193 0.9547
-11.1772 -0.9005 -2.9189 0.9547
-11.1620 -1.0384 -2.9181 0.9547
-11.1537 -1.1073 -2.9176 0.9547
-11.1147 -1.3818 -2.9155 0.9548
-11.1036 -1.4502 -2.9149 0.9548
-11.0921 -1.5185 -2.9142 0.9548
-11.0799 -1.5867 -2.9136 0.9548
-11.0673 -1.6548 -2.9129 0.9548
-11.0541 -1.7228 -2.9122 0.9548
-11.0404 -1.7906 -2.9114 0.9548
-11.0262 -1.8584 -2.9106 0.9548
-11.0115 -1.9260 -2.9098 0.9548
-10.9963 -1.9935 -2.9090 0.9549
-10.9805 -2.0609 -2.9082 0.9549
-10.9642 -2.1281 -2.9073 0.9549
-10.9474 -2.1952 -2.9064 0.9549
-10.9301 -2.2621 -2.9054 0.9549
-10.9123 -2.3289 -2.9045 0.9549
-10.2117 -2.3118 -2.7254 0.9576
-10.0728 -2.3459 -2.6921 0.9582
-9.0871 -2.3548 -2.4435 0.9619
-8.8722 -2.3577 -2.3896 0.9628
-8.0734 -2.3607 -2.1895 0.9658
-7.5544 -2.5687 -2.0770 0.9676
-7.5057 -2.6041 -2.0680 0.9677
-7.4096 -2.6738 -2.0505 0.9680
-7.3621 -2.7083 -2.0419 0.9681
-7.2684 -2.7764 -2.0253 0.9684
-7.2221 -2.8099 -2.0172 0.9685
-7.1761 -2.8433 -2.0092 0.9686
-7.1305 -2.8763 -2.0014 0.9687
-6.8807 -2.9252 -1.9462 0.9696
-6.8605 -3.0681 -1.9562 0.9694
-6.8392 -3.1094 -1.9556 0.9694
-6.8179 -3.1508 -1.9551 0.9694
-6.7966 -3.1921 -1.9546 0.9694
-6.7754 -3.2334 -1.9542 0.9694
-6.7328 -3.3159 -1.9536 0.9695
-6.7115 -3.3572 -1.9534 0.9695
-6.6482 -3.3771 -1.9410 0.9696
-6.6322 -3.4728 -1.9487 0.9695
-6.7528 -3.5893 -1.9907 0.9689
-6.7492 -3.9152 -2.0310 0.9683
-6.7467 -4.1401 -2.0605 0.9678
-6.7240 -4.1837 -2.0614 0.9678
-6.8902 -4.7125 -2.1729 0.9661
-6.8605 -4.7548 -2.1728 0.9661
-8.0647 -5.6635 -2.5652 0.9601
-8.0638 -5.7377 -2.5762 0.9599
-8.0629 -5.8125 -2.5873 0.9597
-8.0620 -5.8879 -2.5986 0.9596
-7.9416 -6.0291 -2.5955 0.9596
-7.8401 -6.0288 -2.5744 0.9599
-7.7402 -6.0285 -2.5538 0.9603
-7.6418 -6.0282 -2.5336 0.9606
-7.5451 -6.0279 -2.5138 0.9609
-7.4498 -6.0276 -2.4944 0.9612
-7.2635 -6.0270 -2.4568 0.9617
-7.0826 -6.0265 -2.4207 0.9623
-6.8212 -6.0257 -2.3691 0.9631
-6.7364 -6.0254 -2.3526 0.9633
-6.6529 -6.0251 -2.3364 0.9636
-6.5705 -6.0249 -2.3205 0.9638
-6.4891 -6.0246 -2.3049 0.9641
-6.3297 -6.0241 -2.2746 0.9645
-5.8031 -6.0225 -2.1770 0.9660
-5.7315 -6.0223 -2.1641 0.9662
-5.6608 -6.0222 -2.1514 0.9664
-5.5911 -6.0223 -2.1391 0.9666
-5.5307 -6.1070 -2.1447 0.9665
-6.0936 -6.9847 -2.4128 0.9624
-6.0908 -7.2486 -2.4645 0.9616
-6.0878 -7.5242 -2.5194 0.9608
-5.9467 -7.5386 -2.4994 0.9611
-5.7958 -7.5372 -2.4749 0.9615
-5.7215 -7.5365 -2.4631 0.9616
-5.6479 -7.5358 -2.4514 0.9618
-5.5227 -7.5619 -2.4374 0.9620
-5.5204 -7.9651 -2.5226 0.9607
-5.6934 -8.3243 -2.6252 0.9592
-5.5767 -8.3742 -2.6189 0.9593
-5.2834 -8.4915 -2.6033 0.9595
-5.2245 -8.5138 -2.6002 0.9596
-5.0472 -8.5779 -2.5907 0.9597
-3.7673 -6.8809 -2.0420 0.9681
-3.5911 -6.8581 -2.0151 0.9685
-3.4834 -6.8576 -2.0022 0.9687
-3.4302 -6.8574 -1.9959 0.9688
-3.2722 -6.8567 -1.9776 0.9691
-3.2238 -6.8642 -1.9740 0.9691
-3.2183 -6.9640 -1.9970 0.9688
-3.2357 -7.2353 -2.0631 0.9678
-3.2239 -7.5836 -2.1450 0.9665
-3.2219 -7.8469 -2.2081 0.9655
-3.1773 -7.8766 -2.2108 0.9655
-3.1593 -8.1200 -2.2680 0.9646
-3.4335 -8.9887 -2.5047 0.9610
-3.3735 -8.9983 -2.5015 0.9611
-3.2536 -9.0163 -2.4951 0.9612
-3.1338 -9.0327 -2.4887 0.9613
-3.0728 -9.0370 -2.4846 0.9613
-3.0129 -9.0442 -2.4814 0.9614
-2.8934 -9.0573 -2.4750 0.9615
-2.7686 -8.8551 -2.4151 0.9624
-2.4762 -9.0913 -2.4527 0.9618
-2.3574 -9.0977 -2.4464 0.9619
-2.2982 -9.1003 -2.4432 0.9619
-2.1798 -9.1043 -2.4369 0.9620
-1.1897 -5.2552 -1.4026 0.9780
-1.1554 -5.2545 -1.4004 0.9780
-1.1212 -5.2537 -1.3984 0.9780
-1.0872 -5.2530 -1.3963 0.9781
-0.9518 -5.2500 -1.3889 0.9782
-0.8846 -5.2486 -1.3855 0.9782
-0.7512 -5.2457 -1.3794 0.9783
-0.7180 -5.2449 -1.3780 0.9784
-0.6849 -5.2442 -1.3767 0.9784
-0.6189 -5.2428 -1.3742 0.9784
-0.5531 -5.2414 -1.3719 0.9785
-0.4875 -5.2400 -1.3699 0.9785
-0.2917 -5.2357 -1.3650 0.9786
-0.2592 -5.2350 -1.3644 0.9786
-0.1295 -5.2322 -1.3624 0.9786
0.1293 -5.2267 -1.3609 0.9786
0.1616 -5.2260 -1.3610 0.9786
0.1940 -5.2253 -1.3611 0.9786
0.3558 -5.2218 -1.3624 0.9786
0.4530 -5.2197 -1.3638 0.9786
0.4855 -5.2190 -1.3644 0.9786
0.5506 -5.2177 -1.3657 0.9785
0.5832 -5.2170 -1.3664 0.9785
0.6157 -5.2163 -1.3672 0.9785
0.7466 -5.2135 -1.3709 0.9785
0.8123 -5.2121 -1.3731 0.9784
0.8453 -5.2114 -1.3743 0.9784
0.8782 -5.2107 -1.3755 0.9784
0.9444 -5.2093 -1.3781 0.9784
1.0775 -5.2065 -1.3840 0.9783
1.1110 -5.2057 -1.3856 0.9782
1.1782 -5.2043 -1.3890 0.9782
1.2119 -5.2036 -1.3908 0.9782
1.3136 -5.2015 -1.3965 0.9781
1.3819 -5.2000 -1.4006 0.9780
1.4162 -5.1993 -1.4027 0.9780
1.4505 -5.1986 -1.4049 0.9779
1.5893 -5.1957 -1.4143 0.9778
1.6242 -5.1949 -1.4168 0.9778
1.6593 -5.1942 -1.4194 0.9777
1.6946 -5.1935 -1.4220 0.9777
1.7299 -5.1927 -1.4247 0.9776
1.8368 -5.1905 -1.4332 0.9775
1.8728 -5.1897 -1.4362 0.9775
3.1585 -8.2688 -2.3041 0.9641
3.2534 -8.2110 -2.2990 0.9642
3.3473 -8.1523 -2.2940 0.9642
2.8106 -6.6112 -1.8700 0.9707
2.7563 -6.3737 -1.8076 0.9717
2.7224 -6.0875 -1.7358 0.9728
2.7670 -5.7981 -1.6723 0.9738
2.7606 -5.6938 -1.6471 0.9742
2.7795 -5.6437 -1.6376 0.9743
2.7441 -5.0865 -1.5044 0.9764
2.7412 -5.0067 -1.4858 0.9767
2.7274 -4.6354 -1.4000 0.9780
2.7410 -4.4054 -1.3506 0.9788
2.7467 -4.3543 -1.3401 0.9789
2.7523 -4.3039 -1.3298 0.9791
2.7632 -4.2054 -1.3098 0.9794
2.7675 -4.1557 -1.2997 0.9796
2.7823 -4.0145 -1.2714 0.9800
2.7884 -3.9706 -1.2630 0.9801
2.8008 -3.8852 -1.2467 0.9804
2.8076 -3.8444 -1.2392 0.9805
2.8144 -3.8040 -1.2317 0.9806
2.8211 -3.7641 -1.2244 0.9807
3.0473 -3.5814 -1.2240 0.9808
3.0930 -3.5453 -1.2247 0.9807
3.1159 -3.5272 -1.2251 0.9807
3.1615 -3.4909 -1.2259 0.9807
3.2387 -3.4455 -1.2309 0.9806
3.2672 -3.4330 -1.2336 0.9806
3.3243 -3.4076 -1.2392 0.9805
3.4106 -3.3687 -1.2478 0.9804
3.4516 -3.3259 -1.2477 0.9804
3.5123 -3.2608 -1.2475 0.9804
3.5739 -3.1967 -1.2481 0.9804
3.6393 -3.1356 -1.2504 0.9803
3.6613 -3.1154 -1.2514 0.9803
3.7483 -3.0328 -1.2551 0.9803
3.8358 -2.9496 -1.2595 0.9802
3.9021 -2.8870 -1.2635 0.9801
3.9464 -2.8449 -1.2664 0.9801
4.0411 -2.7639 -1.2744 0.9800
4.0913 -2.7246 -1.2795 0.9799
4.1164 -2.7047 -1.2821 0.9798
4.1664 -2.6644 -1.2873 0.9798
4.2279 -2.6306 -1.2962 0.9796
4.3022 -2.6036 -1.3090 0.9794
6.9789 -4.0484 -2.1001 0.9672
7.0000 -4.0030 -2.0990 0.9672
7.0416 -3.9121 -2.0968 0.9673
7.0619 -3.8664 -2.0957 0.9673
7.0821 -3.8207 -2.0946 0.9673
7.1020 -3.7749 -2.0936 0.9673
7.1216 -3.7291 -2.0925 0.9673
7.1602 -3.6371 -2.0905 0.9674
7.1977 -3.5449 -2.0885 0.9674
7.2161 -3.4987 -2.0875 0.9674
7.2343 -3.4524 -2.0865 0.9674
7.2872 -3.3131 -2.0837 0.9675
7.3044 -3.2666 -2.0828 0.9675
7.3213 -3.2199 -2.0819 0.9675
7.3705 -3.0796 -2.0793 0.9675
7.4325 -2.8918 -2.0760 0.9676
7.4621 -2.7976 -2.0744 0.9676
7.4765 -2.7504 -2.0736 0.9676
7.5182 -2.6084 -2.0714 0.9676
7.5576 -2.4659 -2.0693 0.9677
7.5703 -2.4184 -2.0687 0.9677
7.5948 -2.3231 -2.0674 0.9677
7.6067 -2.2754 -2.0667 0.9677
7.6183 -2.2276 -2.0661 0.9677
7.6728 -1.9883 -2.0632 0.9678
7.7119 -1.7961 -2.0611 0.9678
7.7210 -1.7479 -2.0607 0.9678
7.7470 -1.6033 -2.0593 0.9678
7.7551 -1.5550 -2.0588 0.9678
7.7706 -1.4584 -2.0580 0.9678
7.7780 -1.4101 -2.0576 0.9679
7.8051 -1.2164 -2.0562 0.9679
7.8113 -1.1679 -2.0559 0.9679
7.8171 -1.1195 -2.0556 0.9679
7.8228 -1.0709 -2.0553 0.9679
7.8282 -1.0224 -2.0550 0.9679
7.8382 -0.9253 -2.0545 0.9679
7.8514 -0.7794 -2.0538 0.9679
7.8553 -0.7308 -2.0536 0.9679
7.8589 -0.6821 -2.0534 0.9679
7.8623 -0.6335 -2.0532 0.9679
7.8684 -0.5361 -2.0529 0.9679
7.8710 -0.4874 -2.0527 0.9679
7.8755 -0.3900 -2.0525 0.9679
7.8835 -0.0488 -2.0521 0.9679
7.8825 0.1462 -2.0522 0.9679
7.8817 0.1950 -2.0522 0.9679
7.8792 0.2925 -2.0524 0.9679
7.8776 0.3412 -2.0525 0.9679
7.8757 0.3899 -2.0526 0.9679
7.8557 0.7308 -2.0537 0.9679
7.8518 0.7795 -2.0539 0.9679
7.8477 0.8281 -2.0541 0.9679
7.8234 1.0710 -2.0554 0.9679
7.8178 1.1195 -2.0557 0.9679
7.8119 1.1680 -2.0561 0.9679
7.7994 1.2650 -2.0567 0.9679
7.7928 1.3134 -2.0571 0.9679
7.7714 1.4586 -2.0582 0.9678
7.7638 1.5069 -2.0587 0.9678
7.7560 1.5552 -2.0591 0.9678
7.7478 1.6035 -2.0595 0.9678
7.7395 1.6517 -2.0600 0.9678
7.7308 1.6999 -2.0604 0.9678
7.7220 1.7481 -2.0609 0.9678
7.7129 1.7963 -2.0614 0.9678
7.6939 1.8925 -2.0624 0.9678
7.6635 2.0365 -2.0641 0.9678
7.6309 2.1802 -2.0658 0.9677
7.6196 2.2280 -2.0664 0.9677
7.6079 2.2758 -2.0671 0.9677
7.5716 2.4188 -2.0690 0.9677
7.5589 2.4664 -2.0697 0.9677
7.5461 2.5139 -2.0704 0.9677
7.5329 2.5614 -2.0711 0.9676
7.5059 2.6562 -2.0725 0.9676
7.4636 2.7981 -2.0748 0.9676
7.4490 2.8453 -2.0756 0.9676
7.4189 2.9395 -2.0772 0.9676
7.3396 3.1739 -2.0815 0.9675
7.2889 3.3139 -2.0842 0.9674
7.2179 3.4995 -2.0880 0.9674
7.0840 3.8217 -2.0952 0.9673
7.0639 3.8674 -2.0963 0.9673
7.0435 3.9131 -2.0974 0.9672
7.0020 4.0042 -2.0996 0.9672
6.9809 4.0496 -2.1007 0.9672
6.9595 4.0949 -2.1019 0.9672
6.9379 4.1402 -2.1031 0.9672
6.9160 4.1854 -2.1042 0.9671
6.8715 4.2754 -2.1066 0.9671
6.8489 4.3203 -2.1078 0.9671
6.8260 4.3651 -2.1091 0.9671
6.8029 4.4098 -2.1103 0.9670
6.7795 4.4544 -2.1116 0.9670
6.7320 4.5435 -2.1141 0.9670
6.6588 4.6762 -2.1180 0.9669
6.6089 4.7642 -2.1207 0.9669
6.5835 4.8081 -2.1221 0.9669
6.5059 4.9390 -2.1262 0.9668
6.4796 4.9825 -2.1276 0.9668
6.4261 5.0691 -2.1305 0.9667
6.3990 5.1122 -2.1320 0.9667
6.3716 5.1552 -2.1334 0.9667
6.3440 5.1981 -2.1349 0.9667
6.3161 5.2409 -2.1364 0.9666
6.2881 5.2836 -2.1379 0.9666
6.2023 5.4110 -2.1425 0.9666
6.1732 5.4532 -2.1441 0.9665
6.1438 5.4953 -2.1456 0.9665
5.9934 5.7040 -2.1537 0.9664
5.9315 5.7866 -2.1570 0.9663
5.9002 5.8277 -2.1587 0.9663
5.8048 5.9502 -2.1638 0.9662
5.7400 6.0312 -2.1673 0.9662
5.6742 6.1117 -2.1708 0.9661
5.6409 6.1517 -2.1726 0.9661
5.6074 6.1916 -2.1744 0.9661
5.5736 6.2313 -2.1762 0.9660
5.4708 6.3496 -2.1817 0.9660
5.4011 6.4278 -2.1854 0.9659
5.3659 6.4666 -2.1873 0.9659
5.3305 6.5054 -2.1892 0.9658
5.2226 6.6206 -2.1950 0.9657
5.1862 6.6587 -2.1970 0.9657
5.1125 6.7344 -2.2009 0.9657
5.0754 6.7720 -2.2029 0.9656
5.0380 6.8094 -2.2049 0.9656
5.0004 6.8467 -2.2069 0.9656
4.9243 6.9207 -2.2110 0.9655
4.7695 7.0668 -2.2193 0.9654
4.7302 7.1029 -2.2214 0.9653
4.6509 7.1746 -2.2256 0.9653
4.6108 7.2101 -2.2278 0.9652
4.5706 7.2455 -2.2299 0.9652
4.5301 7.2807 -2.2321 0.9652
4.4072 7.3852 -2.2387 0.9651
4.2401 7.5219 -2.2476 0.9649
4.1551 7.5891 -2.2522 0.9649
4.0692 7.6555 -2.2568 0.9648
3.9824 7.7212 -2.2614 0.9647
3.8947 7.7860 -2.2661 0.9647
3.8504 7.8181 -2.2685 0.9646
3.7614 7.8816 -2.2733 0.9645
3.6714 7.9443 -2.2781 0.9645
3.6261 7.9754 -2.2805 0.9644
3.5804 8.0062 -2.2829 0.9644
3.5347 8.0368 -2.2854 0.9644
3.4887 8.0672 -2.2879 0.9643
3.3493 8.1571 -2.2953 0.9642
3.3024 8.1866 -2.2978 0.9642
3.2553 8.2158 -2.3004 0.9641
3.1603 8.2737 -2.3054 0.9641
3.1126 8.3023 -2.3080 0.9640
3.0646 8.3306 -2.3106 0.9640
2.9193 8.4143 -2.3183 0.9639
2.8214 8.4688 -2.3236 0.9638
2.6230 8.5751 -2.3342 0.9636
2.4212 8.6772 -2.3450 0.9634
2.3191 8.7268 -2.3505 0.9634
2.2678 8.7512 -2.3532 0.9633
2.2162 8.7754 -2.3560 0.9633
2.1644 8.7992 -2.3587 0.9632
2.0603 8.8462 -2.3643 0.9632
1.7431 8.9805 -2.3813 0.9629
1.6358 9.0231 -2.3870 0.9628
1.5819 9.0440 -2.3899 0.9628
1.5278 9.0646 -2.3928 0.9627
1.4735 9.0849 -2.3957 0.9627
1.4190 9.1048 -2.3986 0.9626
1.3095 9.1440 -2.4045 0.9625
1.1438 9.2005 -2.4134 0.9624
0.6815 5.7733 -1.5132 0.9763
0.4656 5.0052 -1.3085 0.9794
0.4048 5.0247 -1.3122 0.9794
0.2790 5.0072 -1.3054 0.9795
0.1857 5.0019 -1.3029 0.9795
0.0619 5.0025 -1.3023 0.9795
-0.0619 5.0067 -1.3034 0.9795
-0.1239 5.0089 -1.3042 0.9795
-0.1550 5.0104 -1.3048 0.9795
-0.1860 5.0116 -1.3054 0.9795
-0.2795 5.0157 -1.3076 0.9795
-0.3420 5.0202 -1.3098 0.9794
-0.3734 5.0222 -1.3109 0.9794
-0.4048 5.0245 -1.3121 0.9794
-0.4681 5.0314 -1.3154 0.9793
-0.5002 5.0382 -1.3179 0.9793
-0.5323 5.0442 -1.3203 0.9793
-0.6296 5.0643 -1.3284 0.9791
-0.6585 5.0420 -1.3236 0.9792
-0.6944 5.0724 -1.3327 0.9791
-1.4766 9.1044 -2.4009 0.9626
-1.5349 9.1069 -2.4040 0.9625
-1.7102 9.1122 -2.4134 0.9624
-2.0041 9.1139 -2.4291 0.9622
-2.0631 9.1132 -2.4322 0.9621
-2.1813 9.1106 -2.4385 0.9620
-2.3591 9.1039 -2.4481 0.9619
-2.4185 9.1010 -2.4512 0.9618
-2.5970 9.0898 -2.4608 0.9617
-3.0150 9.0504 -2.4831 0.9613
-3.0749 9.0432 -2.4863 0.9613
-3.1348 9.0356 -2.4895 0.9612
-3.1947 9.0277 -2.4927 0.9612
-3.3146 9.0106 -2.4991 0.9611
-3.3746 9.0014 -2.5024 0.9610
-3.4346 8.9919 -2.5056 0.9610
-3.4947 8.9820 -2.5088 0.9609
-3.5547 8.9717 -2.5120 0.9609
-3.6199 8.9738 -2.5188 0.9608
-3.6799 8.9626 -2.5220 0.9607
-3.7400 8.9510 -2.5252 0.9607
-3.8001 8.9390 -2.5284 0.9606
-3.8602 8.9266 -2.5316 0.9606
-3.9203 8.9137 -2.5348 0.9606
-3.9803 8.9005 -2.5380 0.9605
-4.0404 8.8869 -2.5412 0.9605
-4.1604 8.8585 -2.5475 0.9604
-4.2204 8.8437 -2.5507 0.9603
-4.4002 8.7967 -2.5603 0.9602
-4.4600 8.7802 -2.5635 0.9601
-4.5796 8.7460 -2.5698 0.9600
-4.6990 8.7102 -2.5762 0.9599
-4.7586 8.6916 -2.5794 0.9599
-4.8777 8.6533 -2.5857 0.9598
-4.9966 8.6133 -2.5920 0.9597
-5.1743 8.5502 -2.6015 0.9595
-5.3513 8.4833 -2.6109 0.9594
-5.4101 8.4602 -2.6140 0.9593
-5.4689 8.4366 -2.6171 0.9593
-5.5861 8.3882 -2.6233 0.9592
-5.6445 8.3634 -2.6265 0.9592
-5.7611 8.3125 -2.6326 0.9591
-5.8192 8.2864 -2.6357 0.9590
-5.8772 8.2599 -2.6388 0.9590
-5.9351 8.2330 -2.6419 0.9589
-5.9928 8.2057 -2.6450 0.9589
-5.6877 7.5889 -2.4686 0.9616
-5.6869 7.4909 -2.4482 0.9619
-5.6862 7.3007 -2.4088 0.9625
-5.6864 7.2086 -2.3899 0.9628
-5.8620 7.1541 -2.4075 0.9625
-5.9363 7.1541 -2.4199 0.9623
-6.0114 7.1542 -2.4324 0.9621
-6.0873 7.1542 -2.4452 0.9619
-6.2413 7.1540 -2.4713 0.9615
-6.2540 7.0797 -2.4589 0.9617
-6.2545 6.8209 -2.4089 0.9625
-6.2767 6.7607 -2.4013 0.9626
-6.3735 6.6969 -2.4065 0.9625
-6.4216 6.6645 -2.4091 0.9625
-5.6827 5.8250 -2.1183 0.9669
-5.6821 5.7529 -2.1048 0.9671
-5.6816 5.6816 -2.0915 0.9673
-5.7117 5.6415 -2.0897 0.9674
-5.9261 5.6399 -2.1295 0.9668
-6.0738 5.6390 -2.1574 0.9663
-6.1492 5.6386 -2.1717 0.9661
-6.3030 5.6377 -2.2012 0.9657
-6.3815 5.6373 -2.2164 0.9654
-6.5418 5.6364 -2.2477 0.9649
-6.6237 5.6359 -2.2638 0.9647
-7.0514 5.6335 -2.3494 0.9634
-7.1409 5.6330 -2.3675 0.9631
-7.2318 5.6325 -2.3861 0.9628
-7.3241 5.6320 -2.4050 0.9625
-7.5132 5.6309 -2.4440 0.9619
-7.9105 5.6286 -2.5272 0.9607
-8.0141 5.6280 -2.5491 0.9603
-8.2128 5.4692 -2.5685 0.9600
-8.2130 5.3964 -2.5581 0.9602
-8.2132 5.3241 -2.5478 0.9604
-8.2135 5.2524 -2.5378 0.9605
-7.0263 4.3117 -2.1459 0.9665
-6.8347 3.7971 -2.0352 0.9682
-6.8821 3.7128 -2.0355 0.9682
-6.8822 3.6581 -2.0288 0.9683
-6.8823 3.6037 -2.0222 0.9684
-6.8825 3.4961 -2.0094 0.9686
-6.8827 3.3898 -1.9971 0.9688
-6.8828 3.3371 -1.9911 0.9689
-6.7628 3.0746 -1.9338 0.9698
-6.7702 3.0277 -1.9305 0.9698
-6.7829 2.9831 -1.9288 0.9698
-6.8434 2.9594 -1.9408 0.9697
-6.8642 2.9181 -1.9415 0.9696
-6.8850 2.8768 -1.9423 0.9696
-6.9058 2.8355 -1.9432 0.9696
-6.9266 2.7941 -1.9442 0.9696
-6.9475 2.7527 -1.9452 0.9696
-6.9893 2.6697 -1.9475 0.9695
-7.0088 2.5292 -1.9396 0.9697
-7.0445 2.4930 -1.9452 0.9696
-7.3624 2.4023 -2.0159 0.9685
-7.4108 2.3170 -2.0211 0.9684
-7.5061 2.2960 -2.0432 0.9681
-7.6536 2.0338 -2.0614 0.9678
-7.7167 1.9997 -2.0750 0.9676
-7.9274 2.0020 -2.1283 0.9668
-8.0542 1.9811 -2.1590 0.9663
-8.1847 1.9596 -2.1907 0.9658
-8.6142 1.9501 -2.2990 0.9642
-8.8635 1.9490 -2.3623 0.9632
-9.1270 1.9479 -2.4293 0.9622
-10.1594 2.0372 -2.6972 0.9581
-10.1750 1.9749 -2.6980 0.9581
-10.4272 1.8904 -2.7585 0.9571
-11.0444 1.7913 -2.9125 0.9548
-11.0579 1.7234 -2.9132 0.9548
-11.0709 1.6554 -2.9138 0.9548
-11.1069 1.4506 -2.9157 0.9548
-11.1178 1.3821 -2.9163 0.9547
-11.1380 1.2450 -2.9173 0.9547
-11.1473 1.1763 -2.9178 0.9547
-11.1644 1.0386 -2.9187 0.9547
-11.1721 0.9697 -2.9191 0.9547
-11.1793 0.9007 -2.9194 0.9547
-11.1921 0.7625 -2.9201 0.9547
-11.1976 0.6934 -2.9204 0.9547
-11.2112 0.4856 -2.9210 0.9547
-11.2146 0.4163 -2.9212 0.9547
-11.2175 0.3470 -2.9213 0.9547
-11.2216 0.2082 -2.9215 0.9547
-11.2229 0.1388 -2.9216 0.9547
-11.2236 0.0694 -2.9216 0.9547
-10.8088 -0.0669 -2.8995 0.9562
-10.8080 -0.1337 -2.8994 0.9562
-10.7960 -0.4677 -2.8987 0.9562
-10.7826 -0.6677 -2.8980 0.9562
-10.7712 -0.8008 -2.8973 0.9563
-10.7502 -1.0001 -2.8961 0.9563
-10.7421 -1.0664 -2.8957 0.9563
-10.7336 -1.1326 -2.8952 0.9563
-10.7245 -1.1988 -2.8947 0.9563
-10.7049 -1.3308 -2.8937 0.9563
-10.6943 -1.3967 -2.8931 0.9563
-10.6832 -1.4625 -2.8925 0.9563
-10.6717 -1.5282 -2.8918 0.9563
-10.6596 -1.5938 -2.8912 0.9563
-10.6339 -1.7247 -2.8898 0.9564
-10.5610 -2.0498 -2.8858 0.9564
-10.5284 -2.1790 -2.8841 0.9565
-9.9209 -2.3105 -2.7325 0.9587
-9.6671 -2.3779 -2.6704 0.9596
-9.1355 -2.3071 -2.5275 0.9617
-8.6528 -2.3568 -2.4056 0.9635
-8.0721 -2.3603 -2.2560 0.9658
-7.9528 -2.3789 -2.2267 0.9662
-7.8365 -2.3970 -2.1982 0.9666
-7.5601 -2.4152 -2.1289 0.9677
-7.5521 -2.5679 -2.1397 0.9675
-7.4553 -2.6383 -2.1214 0.9678
-7.3600 -2.7075 -2.1036 0.9680
-7.2719 -2.7262 -2.0832 0.9683
-7.2200 -2.8091 -2.0782 0.9684
-7.1740 -2.8424 -2.0700 0.9685
-7.1285 -2.8755 -2.0619 0.9687
-6.9495 -2.8534 -2.0152 0.9694
-6.9005 -2.9841 -2.0167 0.9693
-6.8792 -3.0255 -2.0159 0.9694
-6.8579 -3.0669 -2.0152 0.9694
-6.8154 -3.1496 -2.0140 0.9694
-6.7941 -3.1909 -2.0135 0.9694
-6.7516 -3.2735 -2.0127 0.9694
-6.7090 -3.3559 -2.0123 0.9694
-6.6293 -3.4713 -2.0073 0.9695
-6.7496 -3.5877 -2.0504 0.9688
-6.7484 -3.6948 -2.0638 0.9686
-6.7207 -3.8433 -2.0768 0.9684
-6.7440 -4.0813 -2.1145 0.9679
-6.7434 -4.1381 -2.1223 0.9678
-6.6497 -4.1947 -2.1090 0.9680
-6.6243 -4.2362 -2.1092 0.9680
-6.6336 -4.3001 -2.1206 0.9678
-6.8849 -4.7089 -2.2375 0.9660
-8.0598 -5.7348 -2.6534 0.9599
-8.0579 -5.8849 -2.6766 0.9595
-8.0570 -5.9610 -2.6885 0.9593
-8.0449 -6.0294 -2.6968 0.9592
-7.8401 -6.0288 -2.6530 0.9599
-7.7402 -6.0285 -2.6317 0.9602
-7.4497 -6.0276 -2.5705 0.9611
-7.0826 -6.0264 -2.4946 0.9622
-6.9942 -6.0262 -2.4765 0.9625
-6.8211 -6.0256 -2.4414 0.9630
-6.7364 -6.0253 -2.4244 0.9633
-6.5704 -6.0248 -2.3913 0.9638
-6.3297 -6.0241 -2.3440 0.9645
-6.1745 -6.0236 -2.3139 0.9649
-6.0983 -6.0234 -2.2993 0.9651
-5.9488 -6.0229 -2.2708 0.9655
-5.8755 -6.0227 -2.2570 0.9658
-5.6610 -6.0223 -2.2171 0.9663
-5.5912 -6.0224 -2.2044 0.9665
-5.5303 -6.0311 -2.1950 0.9667
-5.5301 -6.1827 -2.2251 0.9662
-6.0898 -6.9803 -2.4849 0.9624
-6.0879 -7.1548 -2.5200 0.9618
-5.9168 -7.3129 -2.5233 0.9618
-5.9158 -7.4047 -2.5424 0.9615
-5.9147 -7.4981 -2.5618 0.9612
-5.7215 -7.5366 -2.5382 0.9616
-5.5750 -7.5352 -2.5144 0.9619
-5.5221 -7.5611 -2.5115 0.9620
-5.5210 -7.6586 -2.5326 0.9617
-5.5197 -7.9642 -2.5993 0.9607
-5.5037 -8.0469 -2.6151 0.9604
-5.4475 -8.0716 -2.6121 0.9605
-5.3913 -8.0958 -2.6091 0.9605
-5.3350 -8.1196 -2.6061 0.9606
-5.1655 -8.1887 -2.5971 0.9607
-5.1087 -8.2109 -2.5941 0.9607
-5.0520 -8.2327 -2.5910 0.9608
-4.8812 -8.2957 -2.5819 0.9609
-4.7669 -8.3357 -2.5758 0.9610
-3.8229 -6.8811 -2.1116 0.9679
-3.7120 -6.8806 -2.0972 0.9681
-3.6026 -6.8802 -2.0833 0.9683
-3.4412 -6.8795 -2.0634 0.9686
-3.3881 -6.8792 -2.0570 0.9687
-3.2827 -6.8788 -2.0446 0.9689
-3.3192 -7.5471 -2.2116 0.9664
-3.1782 -7.6062 -2.2113 0.9664
-3.1606 -7.8352 -2.2663 0.9656
-3.1558 -8.1110 -2.3346 0.9646
-3.3241 -8.7025 -2.4989 0.9622
-3.1504 -8.7302 -2.4897 0.9623
-3.0913 -8.7354 -2.4856 0.9624
-3.0335 -8.7435 -2.4825 0.9624
-2.9756 -8.7511 -2.4794 0.9624
-2.9178 -8.7584 -2.4764 0.9625
-2.8600 -8.7654 -2.4733 0.9625
-2.6868 -8.7839 -2.4640 0.9627
-2.6291 -8.7893 -2.4609 0.9627
-2.5715 -8.7944 -2.4578 0.9628
-2.4563 -8.8034 -2.4517 0.9629
-2.3989 -8.8074 -2.4486 0.9629
-2.3414 -8.8110 -2.4455 0.9629
-2.2840 -8.8142 -2.4425 0.9630
-2.2267 -8.8171 -2.4394 0.9630
-1.2242 -5.2563 -1.4477 0.9779
-1.0872 -5.2533 -1.4390 0.9780
-1.0532 -5.2525 -1.4370 0.9781
-1.0193 -5.2518 -1.4351 0.9781
-0.9855 -5.2510 -1.4332 0.9781
-0.9518 -5.2503 -1.4313 0.9781
-0.9182 -5.2496 -1.4296 0.9782
-0.8846 -5.2488 -1.4278 0.9782
-0.8178 -5.2474 -1.4246 0.9782
-0.7180 -5.2452 -1.4201 0.9783
-0.6850 -5.2445 -1.4188 0.9783
-0.6189 -5.2431 -1.4162 0.9784
-0.5531 -5.2416 -1.4139 0.9784
-0.5203 -5.2409 -1.4128 0.9784
-0.4875 -5.2402 -1.4117 0.9784
-0.3894 -5.2381 -1.4090 0.9785
-0.3568 -5.2374 -1.4082 0.9785
-0.3243 -5.2367 -1.4074 0.9785
-0.2592 -5.2353 -1.4061 0.9785
-0.2267 -5.2346 -1.4055 0.9785
-0.1943 -5.2339 -1.4049 0.9785
-0.1619 -5.2332 -1.4045 0.9786
-0.1295 -5.2325 -1.4040 0.9786
0.0000 -5.2297 -1.4028 0.9786
0.0323 -5.2290 -1.4027 0.9786
0.0647 -5.2283 -1.4026 0.9786
0.0970 -5.2276 -1.4025 0.9786
0.1940 -5.2255 -1.4027 0.9786
0.2263 -5.2248 -1.4029 0.9786
0.2587 -5.2242 -1.4031 0.9786
0.3234 -5.2228 -1.4037 0.9786
0.3558 -5.2221 -1.4040 0.9786
0.4856 -5.2193 -1.4061 0.9785
0.6158 -5.2165 -1.4090 0.9785
0.6484 -5.2158 -1.4099 0.9785
0.6811 -5.2151 -1.4108 0.9785
0.7139 -5.2144 -1.4118 0.9784
0.7466 -5.2137 -1.4128 0.9784
0.7795 -5.2130 -1.4139 0.9784
0.8123 -5.2123 -1.4151 0.9784
0.8453 -5.2117 -1.4163 0.9784
0.9113 -5.2103 -1.4188 0.9783
0.9445 -5.2096 -1.4202 0.9783
1.0442 -5.2074 -1.4247 0.9782
1.0776 -5.2067 -1.4263 0.9782
1.1446 -5.2053 -1.4297 0.9782
1.1782 -5.2046 -1.4314 0.9781
1.2458 -5.2032 -1.4352 0.9781
1.3137 -5.2018 -1.4392 0.9780
1.3820 -5.2003 -1.4434 0.9780
1.4162 -5.1996 -1.4456 0.9779
1.4506 -5.1989 -1.4478 0.9779
1.4851 -5.1981 -1.4502 0.9779
1.6243 -5.1952 -1.4601 0.9777
1.6594 -5.1945 -1.4628 0.9777
1.6947 -5.1937 -1.4655 0.9776
1.7300 -5.1930 -1.4683 0.9776
1.8012 -5.1915 -1.4740 0.9775
1.8729 -5.1900 -1.4801 0.9774
2.9779 -8.0951 -2.3137 0.9649
3.0246 -8.0678 -2.3112 0.9649
3.0712 -8.0403 -2.3088 0.9650
3.1175 -8.0125 -2.3063 0.9650
3.1636 -7.9846 -2.3038 0.9651
3.2095 -7.9564 -2.3014 0.9651
3.2552 -7.9280 -2.2989 0.9651
3.3007 -7.8993 -2.2965 0.9652
3.3460 -7.8705 -2.2941 0.9652
2.7335 -6.3211 -1.8474 0.9719
2.7294 -6.2059 -1.8186 0.9723
2.7254 -6.0944 -1.7908 0.9727
2.7462 -5.7546 -1.7104 0.9739
2.7551 -5.6825 -1.6940 0.9742
2.7740 -5.6325 -1.6842 0.9743
2.7927 -5.5830 -1.6745 0.9745
2.7830 -5.4787 -1.6484 0.9749
2.7695 -5.3695 -1.6206 0.9753
2.7563 -5.2639 -1.5939 0.9757
2.7436 -5.1617 -1.5680 0.9761
2.7434 -5.0851 -1.5499 0.9764
2.7446 -5.0129 -1.5331 0.9766
2.7471 -4.8734 -1.5006 0.9771
2.7302 -4.3281 -1.3727 0.9790
2.7359 -4.2782 -1.3622 0.9792
2.7414 -4.2290 -1.3519 0.9793
2.7469 -4.1806 -1.3418 0.9795
2.7748 -3.9513 -1.2952 0.9802
2.7809 -3.9084 -1.2867 0.9803
2.7875 -3.8667 -1.2787 0.9805
2.7944 -3.8262 -1.2709 0.9806
2.8012 -3.7861 -1.2634 0.9807
2.8079 -3.7465 -1.2559 0.9808
2.8164 -3.7099 -1.2495 0.9809
2.8615 -3.6739 -1.2492 0.9809
2.8844 -3.6564 -1.2493 0.9809
2.9072 -3.6389 -1.2494 0.9809
2.9528 -3.6037 -1.2497 0.9809
3.0670 -3.5155 -1.2515 0.9809
3.0897 -3.4976 -1.2518 0.9809
3.1123 -3.4795 -1.2523 0.9809
3.1349 -3.4615 -1.2527 0.9808
3.2333 -3.3973 -1.2581 0.9808
3.2787 -3.3609 -1.2595 0.9807
3.4394 -3.1932 -1.2589 0.9808
3.4590 -3.1718 -1.2589 0.9808
3.4993 -3.1299 -1.2594 0.9807
3.5193 -3.1089 -1.2596 0.9807
3.5393 -3.0878 -1.2599 0.9807
3.5592 -3.0666 -1.2602 0.9807
3.5790 -3.0453 -1.2606 0.9807
3.5996 -3.0247 -1.2612 0.9807
3.6208 -3.0044 -1.2621 0.9807
3.6418 -2.9841 -1.2630 0.9807
3.6628 -2.9636 -1.2639 0.9807
3.6837 -2.9430 -1.2648 0.9807
3.7045 -2.9222 -1.2657 0.9806
3.7250 -2.9012 -1.2665 0.9806
3.7658 -2.8589 -1.2683 0.9806
3.8296 -2.7969 -1.2721 0.9806
3.8721 -2.7551 -1.2748 0.9805
3.9162 -2.7142 -1.2781 0.9805
3.9382 -2.6935 -1.2798 0.9804
3.9601 -2.6727 -1.2816 0.9804
3.9819 -2.6517 -1.2833 0.9804
4.0037 -2.6306 -1.2851 0.9804
4.0324 -2.6140 -1.2891 0.9803
4.1058 -2.5900 -1.3022 0.9801
4.1803 -2.5653 -1.3156 0.9799
4.2473 -2.5346 -1.3268 0.9797
4.3183 -2.5051 -1.3392 0.9795
4.3553 -2.4906 -1.3458 0.9794
6.8840 -3.7690 -2.1052 0.9680
6.9037 -3.7245 -2.1042 0.9680
6.9232 -3.6799 -2.1032 0.9681
6.9614 -3.5905 -2.1011 0.9681
6.9802 -3.5457 -2.1001 0.9681
6.9987 -3.5008 -2.0991 0.9681
7.0350 -3.4109 -2.0972 0.9681
7.0527 -3.3657 -2.0963 0.9682
7.0703 -3.3206 -2.0953 0.9682
7.0875 -3.2754 -2.0944 0.9682
7.1046 -3.2301 -2.0935 0.9682
7.1379 -3.1393 -2.0917 0.9682
7.1542 -3.0938 -2.0908 0.9682
7.1703 -3.0483 -2.0900 0.9682
7.1862 -3.0026 -2.0891 0.9683
7.2017 -2.9570 -2.0883 0.9683
7.2616 -2.7737 -2.0851 0.9683
7.2900 -2.6817 -2.0836 0.9683
7.3175 -2.5895 -2.0822 0.9684
7.3439 -2.4972 -2.0808 0.9684
7.3569 -2.4509 -2.0801 0.9684
7.3695 -2.4046 -2.0794 0.9684
7.3819 -2.3582 -2.0787 0.9684
7.4176 -2.2188 -2.0768 0.9684
7.4290 -2.1723 -2.0762 0.9685
7.4511 -2.0791 -2.0751 0.9685
7.4618 -2.0324 -2.0745 0.9685
7.4722 -1.9857 -2.0739 0.9685
7.4824 -1.9389 -2.0734 0.9685
7.4923 -1.8921 -2.0729 0.9685
7.5020 -1.8453 -2.0724 0.9685
7.5114 -1.7984 -2.0719 0.9685
7.5207 -1.7515 -2.0714 0.9685
7.5383 -1.6576 -2.0704 0.9685
7.5468 -1.6106 -2.0700 0.9685
7.5550 -1.5636 -2.0695 0.9686
7.5630 -1.5165 -2.0691 0.9686
7.5782 -1.4223 -2.0683 0.9686
7.5925 -1.3280 -2.0676 0.9686
7.5993 -1.2808 -2.0672 0.9686
7.6058 -1.2336 -2.0669 0.9686
7.6121 -1.1863 -2.0665 0.9686
7.6445 -0.9024 -2.0648 0.9686
7.6490 -0.8550 -2.0646 0.9686
7.6612 -0.7127 -2.0639 0.9686
7.6647 -0.6653 -2.0638 0.9686
7.6681 -0.6178 -2.0636 0.9686
7.6712 -0.5703 -2.0634 0.9686
7.6766 -0.4754 -2.0631 0.9686
7.6789 -0.4278 -2.0630 0.9687
7.6829 -0.3328 -2.0628 0.9687
7.6870 -0.1902 -2.0626 0.9687
7.6884 -0.0951 -2.0625 0.9687
7.6885 0.0951 -2.0626 0.9687
7.6846 0.2853 -2.0628 0.9687
7.6791 0.4278 -2.0631 0.9687
7.6768 0.4754 -2.0632 0.9686
7.6743 0.5229 -2.0634 0.9686
7.6615 0.7127 -2.0641 0.9686
7.6578 0.7602 -2.0643 0.9686
7.6537 0.8076 -2.0645 0.9686
7.6495 0.8550 -2.0647 0.9686
7.6450 0.9024 -2.0650 0.9686
7.6402 0.9498 -2.0652 0.9686
7.6352 0.9972 -2.0655 0.9686
7.6244 1.0918 -2.0661 0.9686
7.6187 1.1392 -2.0664 0.9686
7.6127 1.1864 -2.0667 0.9686
7.6064 1.2337 -2.0670 0.9686
7.6000 1.2809 -2.0674 0.9686
7.5932 1.3281 -2.0678 0.9686
7.5790 1.4225 -2.0685 0.9686
7.5559 1.5638 -2.0698 0.9686
7.5305 1.7048 -2.0711 0.9685
7.4933 1.8924 -2.0732 0.9685
7.4834 1.9392 -2.0737 0.9685
7.4733 1.9859 -2.0742 0.9685
7.4628 2.0327 -2.0748 0.9685
7.4522 2.0794 -2.0754 0.9685
7.3952 2.3122 -2.0784 0.9684
7.3707 2.4050 -2.0798 0.9684
7.3188 2.5900 -2.0825 0.9684
7.3053 2.6362 -2.0833 0.9683
7.2336 2.8660 -2.0871 0.9683
7.2032 2.9576 -2.0888 0.9683
7.1396 3.1400 -2.0922 0.9682
7.1230 3.1854 -2.0931 0.9682
7.1062 3.2308 -2.0940 0.9682
7.0892 3.2761 -2.0949 0.9682
7.0545 3.3665 -2.0968 0.9681
7.0187 3.4567 -2.0987 0.9681
6.9820 3.5466 -2.1006 0.9681
6.9056 3.7254 -2.1047 0.9680
6.8859 3.7700 -2.1058 0.9680
6.8659 3.8144 -2.1069 0.9680
6.8456 3.8588 -2.1080 0.9680
6.8252 3.9031 -2.1091 0.9680
6.7836 3.9914 -2.1113 0.9679
6.7624 4.0355 -2.1124 0.9679
6.6753 4.2108 -2.1171 0.9678
6.6529 4.2544 -2.1183 0.9678
6.6074 4.3414 -2.1207 0.9678
6.5134 4.5142 -2.1258 0.9677
6.4893 4.5572 -2.1271 0.9677
6.4650 4.6000 -2.1284 0.9677
6.3396 4.8128 -2.1351 0.9676
6.3138 4.8551 -2.1365 0.9676
6.2615 4.9393 -2.1393 0.9675
6.2350 4.9812 -2.1407 0.9675
6.1812 5.0648 -2.1436 0.9674
6.0708 5.2305 -2.1495 0.9674
6.0425 5.2716 -2.1510 0.9673
5.9854 5.3536 -2.1541 0.9673
5.9565 5.3945 -2.1556 0.9673
5.8383 5.5564 -2.1620 0.9672
5.7472 5.6765 -2.1669 0.9671
5.6852 5.7560 -2.1702 0.9670
5.6539 5.7955 -2.1719 0.9670
5.5905 5.8741 -2.1753 0.9670
5.5262 5.9522 -2.1787 0.9669
5.4609 6.0298 -2.1822 0.9669
5.2936 6.2212 -2.1912 0.9667
5.2594 6.2591 -2.1930 0.9667
5.1903 6.3343 -2.1967 0.9667
5.1554 6.3717 -2.1986 0.9666
5.1203 6.4090 -2.2005 0.9666
5.0849 6.4460 -2.2023 0.9666
5.0493 6.4829 -2.2043 0.9665
4.9774 6.5563 -2.2081 0.9665
4.9412 6.5928 -2.2101 0.9665
4.9046 6.6291 -2.2120 0.9664
4.8679 6.6652 -2.2140 0.9664
4.7936 6.7370 -2.2180 0.9663
4.7562 6.7726 -2.2200 0.9663
4.6805 6.8434 -2.2240 0.9662
4.6424 6.8785 -2.2261 0.9662
4.6040 6.9135 -2.2281 0.9662
4.5654 6.9483 -2.2302 0.9662
4.5266 6.9829 -2.2323 0.9661
4.4482 7.0516 -2.2365 0.9661
4.4087 7.0856 -2.2386 0.9660
4.3689 7.1195 -2.2407 0.9660
4.2483 7.2201 -2.2472 0.9659
4.1257 7.3190 -2.2537 0.9658
3.8743 7.5116 -2.2672 0.9656
3.7887 7.5742 -2.2718 0.9655
3.7457 7.6052 -2.2741 0.9655
3.5268 7.7571 -2.2858 0.9653
3.4824 7.7869 -2.2882 0.9653
3.4378 7.8164 -2.2906 0.9653
3.3929 7.8458 -2.2930 0.9652
3.3479 7.8749 -2.2954 0.9652
3.2571 7.9324 -2.3002 0.9651
3.1654 7.9891 -2.3051 0.9650
2.9797 8.0998 -2.3151 0.9649
2.9327 8.1269 -2.3176 0.9649
2.8855 8.1537 -2.3201 0.9648
2.8382 8.1803 -2.3227 0.9648
2.7906 8.2067 -2.3252 0.9647
2.6466 8.2844 -2.3329 0.9646
2.5982 8.3099 -2.3355 0.9646
2.5496 8.3351 -2.3381 0.9645
2.4518 8.3847 -2.3433 0.9645
2.4025 8.4091 -2.3460 0.9644
2.3036 8.4572 -2.3513 0.9643
2.2538 8.4809 -2.3539 0.9643
2.2037 8.5044 -2.3566 0.9643
2.1032 8.5504 -2.3620 0.9642
1.8485 8.6611 -2.3756 0.9640
1.7970 8.6824 -2.3784 0.9639
1.7453 8.7035 -2.3811 0.9639
1.6934 8.7243 -2.3839 0.9639
1.6413 8.7448 -2.3867 0.9638
1.5891 8.7650 -2.3895 0.9638
1.5366 8.7850 -2.3923 0.9637
1.4840 8.8047 -2.3951 0.9637
1.4312 8.8241 -2.3980 0.9637
1.3251 8.8620 -2.4036 0.9636
1.2718 8.8806 -2.4065 0.9635
1.1646 8.9168 -2.4122 0.9634
0.5290 5.0130 -1.3522 0.9793
0.4938 4.9738 -1.3408 0.9795
0.3075 4.9660 -1.3347 0.9796
0.2455 4.9588 -1.3318 0.9796
0.2148 4.9586 -1.3314 0.9797
0.1840 4.9581 -1.3309 0.9797
0.1534 4.9583 -1.3307 0.9797
0.0920 4.9584 -1.3303 0.9797
0.0613 4.9584 -1.3302 0.9797
-0.0307 4.9602 -1.3306 0.9797
-0.0613 4.9610 -1.3309 0.9797
-0.0921 4.9618 -1.3312 0.9797
-0.1536 4.9648 -1.3324 0.9796
-0.1843 4.9662 -1.3331 0.9796
-0.2461 4.9702 -1.3349 0.9796
-0.2770 4.9714 -1.3356 0.9796
-0.3080 4.9738 -1.3368 0.9796
-0.3390 4.9761 -1.3379 0.9796
-0.4325 4.9831 -1.3417 0.9795
-0.4957 4.9935 -1.3461 0.9794
-0.5596 5.0062 -1.3513 0.9794
-0.5917 5.0125 -1.3539 0.9793
-0.6242 5.0206 -1.3571 0.9793
-0.6867 5.0161 -1.3581 0.9793
-0.8600 5.7520 -1.5601 0.9762
-1.4390 8.8723 -2.4111 0.9635
-1.4879 8.8279 -2.4014 0.9636
-1.6010 8.8310 -2.4075 0.9635
-1.6576 8.8320 -2.4105 0.9635
-1.7144 8.8327 -2.4136 0.9634
-1.7712 8.8330 -2.4166 0.9634
-1.9421 8.8319 -2.4257 0.9632
-2.0563 8.8294 -2.4318 0.9632
-2.1135 8.8276 -2.4349 0.9631
-2.1708 8.8255 -2.4380 0.9631
-2.2855 8.8201 -2.4441 0.9630
-2.3430 8.8168 -2.4472 0.9629
-2.4004 8.8132 -2.4502 0.9629
-2.5156 8.8049 -2.4564 0.9628
-2.6309 8.7952 -2.4626 0.9627
-2.6886 8.7897 -2.4656 0.9626
-2.8041 8.7778 -2.4718 0.9626
