ply
format ascii 1.0
element vertex 1570
property float32 x
property float32 y
property float32 z
property float32 I
end_header
-0.8112 2.0848 -0.2216 0.9910
-0.8260 2.0848 -0.2221 0.9910
-0.8560 2.0848 -0.2232 0.9910
-0.8711 2.0848 -0.2238 0.9910
-0.8863 2.0848 -0.2244 0.9909
-0.9016 2.0848 -0.2250 0.9909
-0.9324 2.0849 -0.2262 0.9909
-0.9479 2.0849 -0.2269 0.9908
-0.9635 2.0849 -0.2275 0.9908
-0.9950 2.0849 -0.2288 0.9908
-1.0109 2.0849 -0.2295 0.9907
-1.0268 2.0849 -0.2302 0.9907
-1.0754 2.0849 -0.2324 0.9906
-1.1082 2.0850 -0.2339 0.9906
-1.1248 2.0850 -0.2347 0.9905
-1.1415 2.0850 -0.2355 0.9905
-1.1580 2.0249 -0.2311 0.9907
-1.1746 2.0249 -0.2319 0.9906
-1.1914 2.0249 -0.2327 0.9906
-1.2443 2.0850 -0.2405 0.9903
-1.2618 2.0850 -0.2414 0.9903
-1.2795 2.0850 -0.2423 0.9902
-1.2973 2.0850 -0.2433 0.9902
-1.3516 2.0851 -0.2461 0.9901
-1.3886 2.0851 -0.2482 0.9900
-1.5428 2.0852 -0.2569 0.9896
-1.5628 2.0852 -0.2581 0.9896
-1.6241 2.0852 -0.2618 0.9894
-1.6449 2.0852 -0.2631 0.9894
-1.6476 2.0623 -0.2615 0.9894
-1.6477 1.9857 -0.2556 0.9897
-1.6477 1.9609 -0.2537 0.9898
-1.6477 1.9364 -0.2519 0.9898
-1.6614 1.9283 -0.2521 0.9898
-1.7933 1.9802 -0.2646 0.9893
-1.8157 1.9802 -0.2661 0.9893
-1.8384 1.9802 -0.2677 0.9892
-1.8614 1.9802 -0.2692 0.9891
-1.9081 1.9802 -0.2724 0.9890
-1.9319 1.9802 -0.2740 0.9889
-1.9559 1.9803 -0.2757 0.9889
-1.9803 1.9803 -0.2774 0.9888
-2.0049 1.9803 -0.2791 0.9887
-2.0299 1.9803 -0.2809 0.9887
-2.0808 1.9803 -0.2845 0.9885
-2.1330 1.9804 -0.2883 0.9884
-2.1867 1.9804 -0.2922 0.9882
-2.2141 1.9804 -0.2943 0.9881
-2.2418 1.9804 -0.2963 0.9880
-2.3569 1.9805 -0.3050 0.9877
-2.3868 1.9805 -0.3072 0.9876
-2.4171 1.9805 -0.3095 0.9875
-2.4790 1.9805 -0.3143 0.9873
-2.5756 1.9806 -0.3218 0.9870
-19.1356 13.9752 -2.3472 0.9091
-19.2202 13.8556 -2.3471 0.9092
-19.3872 13.6148 -2.3467 0.9092
-19.6323 13.2500 -2.3462 0.9092
-19.7125 13.1274 -2.3460 0.9092
-19.8706 12.8809 -2.3457 0.9092
-19.9486 12.7569 -2.3456 0.9092
-20.0921 12.5012 -2.3441 0.9093
-20.0922 12.1592 -2.3264 0.9099
-20.0923 11.9901 -2.3178 0.9102
-20.0924 11.8223 -2.3093 0.9106
-20.0411 10.3367 -2.2337 0.9133
-20.0413 10.0249 -2.2198 0.9139
-20.0413 9.8704 -2.2130 0.9141
-20.0415 9.5644 -2.1997 0.9146
-20.0416 9.2618 -2.1870 0.9151
-20.0416 9.1119 -2.1808 0.9153
-20.0417 8.9627 -2.1748 0.9155
-20.0923 8.8367 -2.1743 0.9156
-20.0940 7.8181 -2.1358 0.9170
-20.0941 7.5333 -2.1258 0.9174
-20.0942 7.2512 -2.1161 0.9177
-20.0944 6.9716 -2.1069 0.9181
-20.0945 6.6944 -2.0981 0.9184
-20.0946 6.5566 -2.0938 0.9185
-20.0946 6.4194 -2.0896 0.9187
-20.0947 6.2827 -2.0856 0.9189
-20.0947 6.1466 -2.0816 0.9190
-20.0949 5.8758 -2.0739 0.9193
-20.0950 5.6071 -2.0666 0.9196
-20.0951 5.4733 -2.0631 0.9197
-20.0952 5.2073 -2.0563 0.9199
-20.0953 5.0749 -2.0531 0.9201
-20.0953 4.9429 -2.0499 0.9202
-20.2005 4.8365 -2.0576 0.9199
-20.2007 4.4420 -2.0488 0.9202
-20.2008 4.3112 -2.0461 0.9203
-20.2008 4.1808 -2.0435 0.9204
-20.2011 3.5334 -2.0315 0.9209
-20.0962 3.1320 -2.0147 0.9215
-20.0962 3.0048 -2.0128 0.9216
-20.0964 2.6246 -2.0076 0.9218
-20.0965 2.4984 -2.0060 0.9218
-20.0966 2.3723 -2.0045 0.9219
-20.0966 2.2463 -2.0031 0.9219
-20.0967 2.1206 -2.0018 0.9220
-20.0969 1.7443 -1.9982 0.9221
-20.0969 1.6192 -1.9972 0.9222
-20.9879 1.2996 -2.0830 0.9189
-23.5573 1.1664 -2.3364 0.9095
-23.5639 1.0207 -2.3364 0.9095
-23.5745 0.7292 -2.3364 0.9096
-23.5785 0.5833 -2.3363 0.9096
-23.5815 0.4375 -2.3363 0.9096
-21.9623 -0.0000 -2.3403 0.9154
-20.0982 -0.1243 -2.1417 0.9223
-20.0984 -0.4973 -2.1424 0.9223
-20.0986 -0.7461 -2.1432 0.9223
-20.0986 -0.8706 -2.1437 0.9223
-20.0988 -1.1198 -2.1451 0.9222
-20.0988 -1.2446 -2.1459 0.9222
-20.0990 -1.4943 -2.1477 0.9221
-20.0990 -1.6194 -2.1487 0.9221
-20.0991 -1.7445 -2.1498 0.9221
-20.0992 -1.8698 -2.1510 0.9220
-20.0474 -1.9902 -2.1468 0.9222
-20.2045 -2.1320 -2.1650 0.9215
-20.2046 -2.2585 -2.1664 0.9215
-20.2046 -2.3851 -2.1680 0.9214
-20.1961 -2.8922 -2.1741 0.9212
-20.1783 -3.0172 -2.1741 0.9212
-20.1403 -3.2666 -2.1742 0.9212
-20.1202 -3.3911 -2.1743 0.9212
-20.0483 -3.6346 -2.1712 0.9213
-20.1005 -4.1600 -2.1873 0.9207
-20.1005 -4.2899 -2.1902 0.9206
-20.1006 -4.4200 -2.1931 0.9205
-20.1007 -4.5505 -2.1962 0.9204
-20.1008 -4.6814 -2.1993 0.9203
-20.1008 -4.8127 -2.2025 0.9202
-20.1011 -5.2088 -2.2127 0.9199
-20.1013 -5.6088 -2.2238 0.9195
-20.1016 -6.1487 -2.2400 0.9189
-20.1019 -6.5590 -2.2532 0.9185
-20.1020 -6.6969 -2.2578 0.9183
-20.1021 -6.9743 -2.2674 0.9180
-20.1023 -7.2541 -2.2773 0.9176
-20.1027 -7.8215 -2.2986 0.9169
-20.1028 -7.9650 -2.3042 0.9167
-20.1029 -8.1092 -2.3099 0.9165
-20.1030 -8.2542 -2.3157 0.9163
-20.1032 -8.5463 -2.3278 0.9159
-20.0889 -8.9839 -2.3450 0.9153
-20.0340 -9.1085 -2.3451 0.9153
-19.9786 -9.2328 -2.3453 0.9153
-19.9222 -9.3567 -2.3454 0.9153
-19.8652 -9.4803 -2.3456 0.9153
-19.8074 -9.6035 -2.3457 0.9153
-19.7488 -9.7264 -2.3458 0.9153
-19.5687 -10.0930 -2.3463 0.9152
-19.5072 -10.2145 -2.3464 0.9152
-19.4449 -10.3356 -2.3466 0.9152
-19.3819 -10.4564 -2.3468 0.9152
-19.1226 -10.9356 -2.3474 0.9152
-19.0559 -11.0544 -2.3476 0.9152
-18.9885 -11.1729 -2.3477 0.9152
-18.9204 -11.2909 -2.3479 0.9152
-18.8516 -11.4085 -2.3481 0.9152
-18.7821 -11.5257 -2.3482 0.9152
-18.4237 -12.1054 -2.3491 0.9151
-18.3499 -12.2201 -2.3493 0.9151
-17.9705 -12.7867 -2.3502 0.9151
-17.8139 -13.0100 -2.3506 0.9151
-17.7346 -13.1211 -2.3508 0.9151
-17.6546 -13.2316 -2.3510 0.9151
-17.5739 -13.3417 -2.3512 0.9151
-17.4106 -13.5603 -2.3516 0.9151
-17.3279 -13.6689 -2.3518 0.9150
-17.2445 -13.7770 -2.3520 0.9150
-17.1605 -13.8846 -2.3522 0.9150
-16.7306 -14.4150 -2.3533 0.9150
-16.5541 -14.6236 -2.3537 0.9150
-16.4649 -14.7270 -2.3540 0.9150
-16.3750 -14.8300 -2.3542 0.9150
-16.2845 -14.9324 -2.3544 0.9150
-2.5054 -2.3261 -0.3643 0.9863
-2.4745 -2.3261 -0.3619 0.9864
-2.4140 -2.3261 -0.3572 0.9866
-2.2693 -2.3262 -0.3463 0.9870
-2.2414 -2.3262 -0.3442 0.9871
-2.2138 -2.3262 -0.3422 0.9872
-2.1597 -2.3262 -0.3382 0.9873
-2.1331 -2.3262 -0.3363 0.9874
-2.1067 -2.3262 -0.3344 0.9875
-2.0807 -2.3263 -0.3326 0.9875
-2.0550 -2.3263 -0.3308 0.9876
-2.0295 -2.3263 -0.3290 0.9877
-1.9794 -2.3263 -0.3255 0.9878
-1.9303 -2.3264 -0.3221 0.9879
-1.9062 -2.3263 -0.3205 0.9880
-1.8823 -2.3264 -0.3189 0.9880
-1.8586 -2.3264 -0.3173 0.9881
-1.8351 -2.3264 -0.3157 0.9882
-1.8119 -2.3264 -0.3142 0.9882
-1.7662 -2.3264 -0.3113 0.9883
-1.7436 -2.3264 -0.3098 0.9884
-1.6991 -2.3265 -0.3070 0.9885
-1.6771 -2.3265 -0.3056 0.9885
-1.5974 -2.2747 -0.2962 0.9889
-1.5558 -2.2747 -0.2937 0.9890
-1.5501 -2.3592 -0.3008 0.9887
-1.5501 -2.3913 -0.3037 0.9886
-1.5339 -2.4317 -0.3064 0.9885
-1.5130 -2.4317 -0.3052 0.9885
-1.4922 -2.4317 -0.3040 0.9886
-1.4512 -2.4318 -0.3018 0.9887
-1.3906 -2.4318 -0.2985 0.9888
-1.3510 -2.4318 -0.2964 0.9889
-1.2734 -2.4319 -0.2925 0.9890
-1.2353 -2.4319 -0.2907 0.9891
-1.2164 -2.4319 -0.2898 0.9891
-1.1977 -2.4319 -0.2889 0.9892
-1.1791 -2.4319 -0.2880 0.9892
-1.1605 -2.4319 -0.2871 0.9892
-1.1422 -2.4319 -0.2863 0.9893
-1.0517 -2.4320 -0.2823 0.9894
-1.0162 -2.4320 -0.2809 0.9895
-0.9985 -2.4320 -0.2801 0.9895
-0.9636 -2.4320 -0.2788 0.9895
-0.9118 -2.4321 -0.2768 0.9896
-0.8270 -2.4321 -0.2737 0.9897
-0.8102 -2.4321 -0.2732 0.9897
-0.7936 -2.4321 -0.2726 0.9898
-0.7604 -2.4321 -0.2715 0.9898
-0.6948 -2.4322 -0.2695 0.9899
-0.6786 -2.4322 -0.2691 0.9899
-0.6625 -2.4322 -0.2686 0.9899
-0.6463 -2.4322 -0.2682 0.9899
-0.6302 -2.4322 -0.2677 0.9899
-0.6142 -2.4322 -0.2673 0.9900
-0.5823 -2.4322 -0.2665 0.9900
-0.5506 -2.4322 -0.2657 0.9900
-0.5191 -2.4322 -0.2650 0.9900
-0.5034 -2.4323 -0.2647 0.9901
-0.4300 -2.3722 -0.2569 0.9903
-0.3791 -2.4323 -0.2623 0.9901
-0.3637 -2.4323 -0.2621 0.9902
-0.3024 -2.4323 -0.2612 0.9902
-0.2719 -2.4324 -0.2608 0.9902
-0.2567 -2.4324 -0.2606 0.9902
-0.2415 -2.4324 -0.2605 0.9902
-0.2263 -2.4324 -0.2603 0.9902
-0.1960 -2.4324 -0.2600 0.9902
-0.1808 -2.4324 -0.2599 0.9902
-0.1657 -2.4324 -0.2598 0.9902
-0.1355 -2.4324 -0.2596 0.9902
-0.1054 -2.4325 -0.2594 0.9903
-0.0753 -2.4325 -0.2593 0.9903
-0.0150 -2.4325 -0.2592 0.9903
0.0150 -2.4325 -0.2592 0.9903
0.0281 -2.2756 -0.2425 0.9909
0.0422 -2.2756 -0.2425 0.9909
0.0845 -2.2756 -0.2427 0.9909
0.0986 -2.2756 -0.2427 0.9909
0.1127 -2.2756 -0.2428 0.9909
0.1297 -2.3274 -0.2484 0.9907
0.1441 -2.3274 -0.2485 0.9907
0.1586 -2.3274 -0.2486 0.9907
0.2165 -2.3275 -0.2491 0.9906
0.2894 -2.3275 -0.2499 0.9906
0.3040 -2.3275 -0.2501 0.9906
0.4071 -2.3276 -0.2518 0.9905
0.4220 -2.3276 -0.2521 0.9905
0.4518 -2.3276 -0.2527 0.9905
0.4668 -2.3276 -0.2530 0.9905
0.4817 -2.3276 -0.2533 0.9905
0.5118 -2.3276 -0.2540 0.9905
0.5269 -2.3276 -0.2543 0.9904
0.5421 -2.3276 -0.2547 0.9904
0.6032 -2.3277 -0.2562 0.9904
0.6186 -2.3277 -0.2566 0.9904
0.6340 -2.3277 -0.2571 0.9903
0.6495 -2.3277 -0.2575 0.9903
0.6650 -2.3277 -0.2580 0.9903
0.6963 -2.3277 -0.2589 0.9903
0.7278 -2.3277 -0.2599 0.9902
0.7436 -2.3278 -0.2604 0.9902
0.7755 -2.3278 -0.2615 0.9902
0.7915 -2.3278 -0.2620 0.9902
0.8076 -2.3278 -0.2626 0.9901
0.8238 -2.3278 -0.2631 0.9901
0.8400 -2.3278 -0.2637 0.9901
0.8563 -2.3278 -0.2643 0.9901
0.8727 -2.3278 -0.2649 0.9900
0.9057 -2.3279 -0.2662 0.9900
0.9223 -2.3278 -0.2668 0.9900
0.9558 -2.3279 -0.2682 0.9899
1.1110 -2.3279 -0.2749 0.9897
1.1287 -2.3279 -0.2757 0.9896
1.1645 -2.3280 -0.2774 0.9896
1.1825 -2.3280 -0.2782 0.9896
1.2007 -2.3280 -0.2791 0.9895
1.2560 -2.3280 -0.2819 0.9894
1.2934 -2.3280 -0.2838 0.9893
1.3505 -2.3281 -0.2868 0.9892
1.3698 -2.3281 -0.2878 0.9892
1.4089 -2.3281 -0.2900 0.9891
1.4486 -2.3281 -0.2922 0.9890
1.4686 -2.3281 -0.2933 0.9890
1.5092 -2.3281 -0.2957 0.9889
1.5297 -2.3282 -0.2969 0.9889
1.5713 -2.3282 -0.2993 0.9888
1.5923 -2.3282 -0.3006 0.9887
1.6136 -2.3282 -0.3019 0.9887
1.6350 -2.3282 -0.3032 0.9886
1.6784 -2.3282 -0.3058 0.9885
1.7004 -2.3283 -0.3072 0.9885
1.7450 -2.3283 -0.3100 0.9884
1.7676 -2.3283 -0.3115 0.9883
1.8367 -2.3283 -0.3160 0.9881
1.8601 -2.3283 -0.3176 0.9881
1.8839 -2.3283 -0.3192 0.9880
1.9320 -2.3284 -0.3224 0.9879
1.9565 -2.3284 -0.3241 0.9878
1.9812 -2.3284 -0.3258 0.9878
2.0062 -2.3284 -0.3275 0.9877
2.0314 -2.3284 -0.3293 0.9876
2.0569 -2.3284 -0.3311 0.9876
2.0827 -2.3285 -0.3329 0.9875
2.1087 -2.3285 -0.3348 0.9874
2.1351 -2.3285 -0.3366 0.9874
2.1401 -2.2767 -0.3330 0.9875
2.1668 -2.2767 -0.3349 0.9874
2.3395 -2.2824 -0.3483 0.9869
2.3924 -2.2768 -0.3519 0.9868
2.4222 -2.2769 -0.3542 0.9867
2.5141 -2.2769 -0.3614 0.9864
2.5456 -2.2769 -0.3639 0.9864
2.5775 -2.2769 -0.3665 0.9863
2.7098 -2.2770 -0.3772 0.9859
2.7789 -2.2770 -0.3828 0.9857
2.8143 -2.2771 -0.3858 0.9855
2.8866 -2.2771 -0.3918 0.9853
2.9237 -2.2771 -0.3949 0.9852
3.0779 -2.2772 -0.4080 0.9847
3.1180 -2.2772 -0.4114 0.9846
3.1589 -2.2772 -0.4150 0.9845
3.2005 -2.2772 -0.4186 0.9843
3.2428 -2.2773 -0.4222 0.9842
3.3296 -2.2773 -0.4299 0.9839
3.4558 -2.2402 -0.4389 0.9836
3.6835 -2.2291 -0.4588 0.9828
3.7885 -2.2292 -0.4684 0.9825
3.8428 -2.2292 -0.4734 0.9823
4.0127 -2.2293 -0.4891 0.9817
4.1323 -2.2294 -0.5003 0.9813
4.4492 -2.3297 -0.5352 0.9800
4.5171 -2.3298 -0.5416 0.9798
4.6577 -2.3298 -0.5550 0.9793
4.7307 -2.3299 -0.5619 0.9790
5.2593 -2.3912 -0.6156 0.9770
5.3431 -2.3895 -0.6237 0.9767
11.9636 -5.2617 -1.3927 0.9488
12.3614 -5.2551 -1.4313 0.9474
12.5687 -5.2517 -1.4516 0.9467
12.7820 -5.2482 -1.4724 0.9459
13.0014 -5.2446 -1.4939 0.9452
13.2274 -5.2409 -1.5161 0.9444
14.2032 -5.2248 -1.6127 0.9409
14.7393 -5.2160 -1.6661 0.9390
23.1703 -7.8786 -2.6079 0.9062
23.3159 -7.4484 -2.6083 0.9062
23.3626 -7.3045 -2.6084 0.9062
23.5403 -6.7256 -2.6088 0.9062
23.6639 -6.2885 -2.6092 0.9062
23.7033 -6.1423 -2.6093 0.9062
23.7418 -5.9958 -2.6094 0.9062
23.7793 -5.8491 -2.6095 0.9062
23.8515 -5.5549 -2.6097 0.9062
23.8863 -5.4075 -2.6097 0.9062
23.9848 -4.9639 -2.6100 0.9062
24.0459 -4.6672 -2.6102 0.9062
24.1031 -4.3697 -2.6103 0.9062
24.1303 -4.2207 -2.6104 0.9062
24.1566 -4.0715 -2.6105 0.9062
24.1819 -3.9221 -2.6105 0.9062
24.2063 -3.7726 -2.6106 0.9062
24.2738 -3.3231 -2.6108 0.9061
24.2944 -3.1729 -2.6108 0.9061
24.3671 -2.5712 -2.6110 0.9061
24.4367 -1.8168 -2.6112 0.9061
24.4478 -1.6657 -2.6112 0.9061
24.4578 -1.5145 -2.6112 0.9061
24.4669 -1.3632 -2.6113 0.9061
24.4751 -1.2119 -2.6113 0.9061
24.4823 -1.0605 -2.6113 0.9061
24.4981 -0.6061 -2.6113 0.9061
24.5039 -0.3031 -2.6114 0.9061
24.5058 0.0000 -2.6114 0.9061
24.5014 0.4546 -2.6113 0.9061
24.4885 0.9090 -2.6113 0.9061
24.4822 1.0605 -2.6113 0.9061
24.3670 2.5712 -2.6110 0.9061
24.3137 3.0226 -2.6108 0.9061
24.2295 3.6228 -2.6106 0.9062
24.2060 3.7725 -2.6105 0.9062
24.1816 3.9220 -2.6105 0.9062
24.0746 4.5184 -2.6102 0.9062
24.0154 4.8155 -2.6100 0.9062
23.9525 5.1119 -2.6099 0.9062
23.8858 5.4074 -2.6097 0.9062
23.8154 5.7020 -2.6095 0.9062
23.7412 5.9956 -2.6093 0.9062
23.7028 6.1421 -2.6092 0.9062
23.6634 6.2883 -2.6091 0.9062
23.6231 6.4343 -2.6090 0.9062
23.5397 6.7254 -2.6088 0.9062
23.4967 6.8705 -2.6087 0.9062
23.4527 7.0154 -2.6086 0.9062
23.3619 7.3042 -2.6083 0.9062
23.1696 7.8783 -2.6078 0.9062
23.1193 8.0210 -2.6077 0.9063
23.0681 8.1634 -2.6075 0.9063
13.4942 4.8695 -1.5287 0.9439
13.1418 4.8344 -1.4921 0.9452
12.9970 4.8726 -1.4791 0.9457
5.2433 2.0400 -0.5995 0.9776
5.1297 2.0325 -0.5880 0.9780
4.9799 2.0088 -0.5722 0.9786
4.8379 1.9864 -0.5573 0.9792
4.7310 1.9768 -0.5464 0.9796
4.2674 1.8768 -0.4968 0.9814
4.1968 1.8768 -0.4899 0.9817
3.9964 1.8769 -0.4705 0.9824
3.9331 1.8770 -0.4644 0.9826
3.8714 1.8770 -0.4585 0.9828
3.8112 1.8770 -0.4527 0.9831
3.5692 1.9255 -0.4322 0.9838
3.5171 1.9256 -0.4273 0.9840
3.3673 1.9256 -0.4134 0.9845
3.3196 1.9257 -0.4089 0.9847
3.1382 1.9258 -0.3924 0.9853
3.0115 1.9258 -0.3809 0.9857
2.9311 1.9259 -0.3737 0.9860
2.8920 1.9259 -0.3703 0.9861
2.8536 1.9259 -0.3669 0.9862
2.8159 1.9259 -0.3635 0.9864
2.7426 1.9260 -0.3571 0.9866
2.6454 1.9320 -0.3491 0.9869
2.6332 1.9481 -0.3490 0.9869
2.5958 1.9961 -0.3489 0.9869
2.5832 2.0119 -0.3489 0.9869
2.5317 2.0744 -0.3488 0.9869
2.5104 2.0830 -0.3476 0.9870
2.4790 2.0830 -0.3450 0.9871
2.4482 2.0831 -0.3425 0.9872
2.4178 2.0831 -0.3401 0.9872
2.3877 2.0831 -0.3377 0.9873
2.3290 2.0831 -0.3330 0.9875
2.1270 1.9263 -0.3058 0.9885
2.0493 1.9263 -0.2997 0.9887
2.0277 1.9781 -0.3019 0.9887
1.9299 1.9782 -0.2945 0.9889
1.9062 1.9782 -0.2927 0.9890
1.8827 1.9782 -0.2910 0.9891
1.8140 1.9783 -0.2860 0.9893
1.7259 1.9783 -0.2798 0.9895
1.7045 1.9783 -0.2783 0.9896
1.6624 1.9784 -0.2754 0.9897
1.6416 1.9783 -0.2739 0.9897
1.5606 1.9784 -0.2685 0.9899
1.5214 1.9784 -0.2659 0.9900
1.5020 1.9784 -0.2647 0.9901
1.4828 1.9784 -0.2635 0.9901
1.4638 1.9785 -0.2623 0.9901
1.4449 1.9785 -0.2611 0.9902
1.3712 1.9785 -0.2565 0.9904
1.2826 1.9786 -0.2513 0.9906
1.2653 1.9786 -0.2503 0.9906
1.2311 1.9786 -0.2483 0.9907
1.2142 1.9786 -0.2474 0.9907
1.1974 1.9786 -0.2464 0.9907
1.1478 1.9786 -0.2438 0.9908
1.0993 1.9786 -0.2412 0.9909
1.0833 1.9786 -0.2404 0.9910
1.0517 1.9787 -0.2388 0.9910
1.0051 1.9787 -0.2365 0.9911
0.9898 1.9787 -0.2358 0.9911
0.9594 1.9787 -0.2343 0.9912
0.9293 1.9787 -0.2330 0.9912
0.8996 1.9787 -0.2316 0.9913
0.8557 1.9788 -0.2297 0.9914
0.8412 1.9788 -0.2291 0.9914
0.8268 1.9788 -0.2285 0.9914
0.7840 1.9788 -0.2268 0.9915
0.7280 1.9788 -0.2247 0.9916
0.7003 1.9788 -0.2237 0.9916
0.6729 1.9788 -0.2227 0.9916
0.6457 1.9789 -0.2218 0.9917
0.6053 1.9789 -0.2205 0.9917
0.5259 1.9789 -0.2182 0.9918
0.5128 1.9789 -0.2178 0.9918
0.4868 1.9790 -0.2172 0.9918
0.4738 1.9790 -0.2168 0.9918
0.4609 1.9790 -0.2165 0.9919
0.4223 1.9790 -0.2156 0.9919
0.4096 1.9790 -0.2154 0.9919
0.3714 1.9790 -0.2146 0.9919
0.3588 1.9790 -0.2143 0.9919
0.3210 1.9790 -0.2136 0.9920
0.2959 1.9790 -0.2132 0.9920
0.2709 1.9791 -0.2129 0.9920
0.2585 1.9791 -0.2127 0.9920
0.2460 1.9791 -0.2125 0.9920
0.2336 1.9791 -0.2124 0.9920
0.2088 1.9791 -0.2121 0.9920
0.1964 1.9791 -0.2119 0.9920
0.1841 1.9791 -0.2118 0.9920
0.1471 1.9791 -0.2115 0.9920
0.1225 1.9791 -0.2113 0.9921
0.1103 1.9792 -0.2112 0.9921
0.0980 1.9792 -0.2112 0.9921
0.0612 1.9792 -0.2110 0.9921
0.0489 1.9792 -0.2110 0.9921
0.0367 1.9792 -0.2109 0.9921
0.0245 1.9792 -0.2109 0.9921
0.0119 1.9274 -0.2054 0.9923
0.0000 1.9274 -0.2054 0.9923
-0.0119 1.9274 -0.2054 0.9923
-0.0357 1.9274 -0.2054 0.9923
-0.0477 1.9274 -0.2055 0.9923
-0.1032 2.0844 -0.2224 0.9916
-0.1291 2.0844 -0.2225 0.9916
-0.1420 2.0844 -0.2226 0.9916
-0.1939 2.0845 -0.2231 0.9916
-0.2069 2.0845 -0.2232 0.9916
-0.2200 2.0845 -0.2234 0.9916
-0.2330 2.0845 -0.2235 0.9916
-0.2461 2.0845 -0.2237 0.9916
-0.2722 2.0845 -0.2240 0.9916
-0.2854 2.0845 -0.2242 0.9916
-0.3117 2.0845 -0.2246 0.9916
-0.3381 2.0846 -0.2250 0.9915
-0.3513 2.0846 -0.2253 0.9915
-0.3646 2.0846 -0.2255 0.9915
-0.3779 2.0846 -0.2258 0.9915
-0.4046 2.0846 -0.2263 0.9915
-0.4584 2.0846 -0.2274 0.9915
-0.4719 2.0846 -0.2278 0.9914
-0.4855 2.0846 -0.2281 0.9914
-0.4991 2.0846 -0.2284 0.9914
-0.5128 2.0846 -0.2288 0.9914
-0.5187 2.0541 -0.2258 0.9915
-0.6236 2.0847 -0.2319 0.9913
-0.6660 2.0847 -0.2332 0.9912
-0.7233 2.0847 -0.2351 0.9912
-0.7378 2.0848 -0.2357 0.9911
-0.7523 2.0848 -0.2362 0.9911
-0.7669 2.0848 -0.2367 0.9911
-0.7816 2.0848 -0.2373 0.9911
-0.8112 2.0848 -0.2384 0.9910
-0.8410 2.0848 -0.2396 0.9910
-0.8560 2.0848 -0.2402 0.9910
-0.8712 2.0848 -0.2408 0.9910
-0.9169 2.0848 -0.2427 0.9909
-0.9324 2.0848 -0.2434 0.9909
-0.9479 2.0849 -0.2441 0.9908
-0.9635 2.0849 -0.2447 0.9908
-0.9950 2.0849 -0.2462 0.9908
-1.0108 2.0849 -0.2469 0.9907
-1.0268 2.0849 -0.2477 0.9907
-1.0429 2.0849 -0.2484 0.9907
-1.0591 2.0849 -0.2492 0.9906
-1.0754 2.0849 -0.2500 0.9906
-1.0918 2.0849 -0.2508 0.9906
-1.1498 2.0696 -0.2523 0.9905
-1.1579 2.0249 -0.2486 0.9907
-1.1746 2.0249 -0.2495 0.9906
-1.1914 2.0249 -0.2504 0.9906
-1.2442 2.0850 -0.2587 0.9903
-1.2618 2.0850 -0.2597 0.9902
-1.2973 2.0851 -0.2617 0.9902
-1.3153 2.0851 -0.2627 0.9901
-1.3700 2.0851 -0.2659 0.9900
-1.3886 2.0851 -0.2670 0.9900
-1.4261 2.0851 -0.2692 0.9899
-1.4643 2.0851 -0.2715 0.9898
-1.4837 2.0852 -0.2727 0.9898
-1.5229 2.0852 -0.2751 0.9897
-1.5427 2.0852 -0.2764 0.9896
-1.5628 2.0852 -0.2777 0.9896
-1.5830 2.0852 -0.2790 0.9895
-1.6035 2.0852 -0.2803 0.9895
-1.6449 2.0852 -0.2830 0.9894
-1.6477 2.0624 -0.2813 0.9894
-1.6477 2.0364 -0.2791 0.9895
-1.6477 2.0109 -0.2770 0.9896
-1.6477 1.9609 -0.2729 0.9897
-1.6477 1.9365 -0.2709 0.9898
-1.6823 1.9283 -0.2727 0.9898
-1.7248 1.9283 -0.2757 0.9896
-1.8614 1.9802 -0.2896 0.9891
-1.8846 1.9802 -0.2913 0.9891
-1.9081 1.9802 -0.2930 0.9890
-1.9559 1.9802 -0.2966 0.9889
-2.0049 1.9803 -0.3003 0.9887
-2.0552 1.9803 -0.3041 0.9886
-2.0808 1.9803 -0.3061 0.9885
-2.1330 1.9803 -0.3102 0.9884
-2.1597 1.9804 -0.3122 0.9883
-2.1867 1.9804 -0.3144 0.9882
-2.2700 1.9804 -0.3210 0.9880
-2.3569 1.9804 -0.3281 0.9877
-2.3868 1.9805 -0.3305 0.9876
-2.4790 1.9805 -0.3381 0.9873
-2.5107 1.9805 -0.3408 0.9872
-2.5429 1.9805 -0.3435 0.9871
-17.6532 13.2305 -2.3508 0.9151
-18.2005 12.4482 -2.3497 0.9151
-18.2759 12.3346 -2.3496 0.9151
-18.4247 12.1060 -2.3492 0.9151
-18.4981 11.9911 -2.3491 0.9151
-18.7139 11.6437 -2.3487 0.9152
-18.7844 11.5270 -2.3485 0.9152
-18.9232 11.2925 -2.3482 0.9152
-19.0587 11.0560 -2.3479 0.9152
-19.1253 10.9371 -2.3477 0.9152
-19.3843 10.4576 -2.3470 0.9152
-19.4472 10.3368 -2.3469 0.9152
-19.5708 10.0941 -2.3465 0.9152
-19.6316 9.9722 -2.3464 0.9152
-19.6915 9.8499 -2.3462 0.9152
-19.7508 9.7273 -2.3461 0.9152
-19.8092 9.6044 -2.3459 0.9153
-19.9801 9.2334 -2.3455 0.9153
-20.0940 8.8374 -2.3392 0.9155
-20.0941 8.6895 -2.3329 0.9157
-20.0942 8.3961 -2.3207 0.9161
-20.0942 8.2506 -2.3147 0.9163
-20.0944 7.9617 -2.3032 0.9167
-20.0945 7.6755 -2.2922 0.9171
-20.0946 7.3921 -2.2816 0.9175
-20.0947 7.1112 -2.2714 0.9178
-20.0950 6.5567 -2.2524 0.9185
-20.0952 6.0111 -2.2351 0.9191
-20.0954 5.6072 -2.2232 0.9195
-20.0955 5.4734 -2.2194 0.9196
-20.0956 5.2074 -2.2121 0.9199
-20.0440 4.7990 -2.1963 0.9204
-20.0440 4.6682 -2.1931 0.9205
-20.0441 4.5377 -2.1900 0.9207
-20.0442 4.2778 -2.1840 0.9209
-20.0443 4.1484 -2.1812 0.9210
-20.0443 4.0193 -2.1785 0.9211
-20.0444 3.8905 -2.1758 0.9211
-20.0552 3.7640 -2.1744 0.9212
-20.1200 3.3911 -2.1742 0.9212
-20.0447 3.2510 -2.1639 0.9216
-20.0966 3.0049 -2.1653 0.9215
-20.0968 2.6247 -2.1597 0.9217
-20.0970 2.3723 -2.1564 0.9218
-20.0971 2.1206 -2.1535 0.9219
-20.0972 1.8696 -2.1508 0.9220
-21.9290 1.2218 -2.3404 0.9154
-21.9520 0.6790 -2.3403 0.9154
-21.9586 0.4074 -2.3403 0.9154
-21.9619 0.1358 -2.3403 0.9154
-20.5460 -0.0000 -2.3438 0.9206
-20.0986 -0.1243 -2.2928 0.9223
-20.0988 -0.4973 -2.2935 0.9222
-20.0990 -0.8706 -2.2950 0.9222
-20.0992 -1.1198 -2.2964 0.9222
-20.0992 -1.2446 -2.2972 0.9221
-20.0993 -1.3694 -2.2982 0.9221
-20.0994 -1.4943 -2.2992 0.9221
-20.0994 -1.6194 -2.3003 0.9220
-20.0995 -1.7446 -2.3015 0.9220
-20.0996 -1.9954 -2.3042 0.9219
-20.0997 -2.1210 -2.3056 0.9219
-20.0998 -2.2467 -2.3072 0.9218
-20.1000 -2.6252 -2.3124 0.9216
-20.1001 -2.8785 -2.3163 0.9215
-20.1002 -3.0054 -2.3184 0.9214
-20.1003 -3.1326 -2.3206 0.9214
-20.1004 -3.2601 -2.3229 0.9213
-20.1005 -3.5158 -2.3278 0.9211
-20.1007 -3.7726 -2.3330 0.9210
-20.1007 -3.9015 -2.3358 0.9209
-20.1008 -4.0306 -2.3387 0.9208
-20.1009 -4.1601 -2.3416 0.9207
-20.1009 -4.2899 -2.3447 0.9206
-20.0218 -4.6630 -2.3451 0.9206
-19.9932 -4.7869 -2.3452 0.9206
-19.9638 -4.9106 -2.3453 0.9206
-19.9337 -5.0341 -2.3454 0.9206
-19.9028 -5.1575 -2.3454 0.9206
-19.8713 -5.2806 -2.3455 0.9206
-19.8389 -5.4036 -2.3456 0.9206
-19.8058 -5.5264 -2.3457 0.9206
-19.7719 -5.6490 -2.3458 0.9205
-19.7020 -5.8935 -2.3459 0.9205
-19.6659 -6.0155 -2.3460 0.9205
-19.5916 -6.2587 -2.3462 0.9205
-19.5533 -6.3800 -2.3463 0.9205
-19.5143 -6.5011 -2.3464 0.9205
-19.3081 -7.1028 -2.3469 0.9205
-19.1302 -7.5797 -2.3473 0.9205
-19.0368 -7.8165 -2.3476 0.9205
-18.9891 -7.9344 -2.3477 0.9205
-18.7909 -8.4034 -2.3482 0.9205
-18.6349 -8.7520 -2.3486 0.9205
-18.5814 -8.8676 -2.3487 0.9205
-18.3607 -9.3267 -2.3493 0.9204
-18.1878 -9.6675 -2.3497 0.9204
-18.0691 -9.8929 -2.3500 0.9204
-17.6321 -10.6705 -2.3511 0.9204
-17.5670 -10.7801 -2.3512 0.9204
-17.5012 -10.8893 -2.3514 0.9204
-17.2999 -11.2145 -2.3519 0.9203
-17.2314 -11.3221 -2.3520 0.9203
-17.1623 -11.4292 -2.3522 0.9203
-17.0926 -11.5360 -2.3524 0.9203
-17.0222 -11.6423 -2.3526 0.9203
-16.9511 -11.7483 -2.3527 0.9203
-16.8071 -11.9588 -2.3531 0.9203
-16.7340 -12.0634 -2.3533 0.9203
-16.5862 -12.2714 -2.3536 0.9203
-16.5113 -12.3747 -2.3538 0.9203
-16.4357 -12.4776 -2.3540 0.9203
-16.3595 -12.5800 -2.3542 0.9203
-16.2827 -12.6819 -2.3544 0.9203
-16.0486 -12.9850 -2.3550 0.9202
-15.9693 -13.0851 -2.3552 0.9202
-15.8894 -13.1847 -2.3554 0.9202
-15.8089 -13.2838 -2.3556 0.9202
-15.6461 -13.4806 -2.3560 0.9202
-15.3973 -13.7722 -2.3566 0.9202
-15.3132 -13.8683 -2.3568 0.9202
-2.2976 -2.3262 -0.3730 0.9869
-2.2693 -2.3262 -0.3707 0.9870
-2.2138 -2.3262 -0.3663 0.9872
-2.1597 -2.3262 -0.3621 0.9873
-2.1330 -2.3262 -0.3600 0.9874
-2.0550 -2.3263 -0.3541 0.9876
-2.0295 -2.3263 -0.3522 0.9876
-1.9794 -2.3263 -0.3484 0.9878
-1.9304 -2.3264 -0.3448 0.9879
-1.8351 -2.3264 -0.3380 0.9881
-1.7662 -2.3265 -0.3332 0.9883
-1.7436 -2.3265 -0.3317 0.9884
-1.6991 -2.3265 -0.3286 0.9885
-1.6185 -2.2747 -0.3185 0.9888
-1.5974 -2.2747 -0.3171 0.9889
-1.5558 -2.2748 -0.3144 0.9890
-1.5501 -2.3277 -0.3190 0.9888
-1.5502 -2.3914 -0.3251 0.9886
-1.5339 -2.4317 -0.3280 0.9885
-1.5130 -2.4317 -0.3267 0.9885
-1.4308 -2.4318 -0.3219 0.9887
-1.3707 -2.4318 -0.3184 0.9888
-1.3510 -2.4318 -0.3173 0.9889
-1.3314 -2.4318 -0.3163 0.9889
-1.2926 -2.4319 -0.3142 0.9890
-1.2734 -2.4319 -0.3131 0.9890
-1.2164 -2.4319 -0.3102 0.9891
-1.1977 -2.4319 -0.3092 0.9891
-1.1606 -2.4319 -0.3074 0.9892
-1.1421 -2.4319 -0.3065 0.9892
-1.0961 -2.3718 -0.2981 0.9895
-1.0784 -2.3719 -0.2972 0.9896
-1.0162 -2.4320 -0.3007 0.9894
-0.9810 -2.4320 -0.2992 0.9895
-0.9636 -2.4320 -0.2984 0.9895
-0.9462 -2.4320 -0.2977 0.9895
-0.9118 -2.4321 -0.2963 0.9896
-0.8946 -2.4321 -0.2956 0.9896
-0.8776 -2.4321 -0.2949 0.9896
-0.8102 -2.4321 -0.2924 0.9897
-0.7936 -2.4321 -0.2918 0.9898
-0.7604 -2.4321 -0.2907 0.9898
-0.7439 -2.4321 -0.2901 0.9898
-0.7112 -2.4321 -0.2891 0.9899
-0.6949 -2.4321 -0.2885 0.9899
-0.6786 -2.4321 -0.2880 0.9899
-0.6624 -2.4322 -0.2876 0.9899
-0.6463 -2.4322 -0.2871 0.9899
-0.6303 -2.4322 -0.2866 0.9899
-0.6142 -2.4322 -0.2862 0.9900
-0.5664 -2.4322 -0.2849 0.9900
-0.4604 -2.3722 -0.2757 0.9903
-0.4452 -2.3722 -0.2753 0.9903
-0.4300 -2.3722 -0.2750 0.9903
-0.3637 -2.4323 -0.2806 0.9901
-0.3330 -2.4323 -0.2801 0.9902
-0.3177 -2.4323 -0.2798 0.9902
-0.2719 -2.4324 -0.2792 0.9902
-0.2567 -2.4324 -0.2790 0.9902
-0.2415 -2.4324 -0.2788 0.9902
-0.2111 -2.4324 -0.2785 0.9902
-0.1960 -2.4324 -0.2784 0.9902
-0.1355 -2.4324 -0.2779 0.9902
-0.0903 -2.4325 -0.2777 0.9902
-0.0752 -2.4325 -0.2776 0.9903
-0.0602 -2.4325 -0.2776 0.9903
-0.0301 -2.4325 -0.2775 0.9903
-0.0150 -2.4325 -0.2775 0.9903
0.0845 -2.2756 -0.2598 0.9909
0.1127 -2.2756 -0.2599 0.9909
0.1441 -2.3274 -0.2660 0.9907
0.1586 -2.3274 -0.2661 0.9907
0.1875 -2.3275 -0.2664 0.9906
0.2165 -2.3275 -0.2667 0.9906
0.2602 -2.3275 -0.2672 0.9906
0.2748 -2.3275 -0.2674 0.9906
0.2894 -2.3275 -0.2676 0.9906
0.3187 -2.3275 -0.2680 0.9906
0.3333 -2.3275 -0.2682 0.9906
0.3480 -2.3275 -0.2685 0.9906
0.4071 -2.3276 -0.2696 0.9905
0.4220 -2.3276 -0.2698 0.9905
0.4369 -2.3276 -0.2702 0.9905
0.4518 -2.3276 -0.2705 0.9905
0.4667 -2.3276 -0.2708 0.9905
0.4818 -2.3276 -0.2712 0.9905
0.4968 -2.3276 -0.2715 0.9905
0.5726 -2.3277 -0.2734 0.9904
0.6186 -2.3277 -0.2747 0.9904
0.6340 -2.3277 -0.2752 0.9903
0.6650 -2.3277 -0.2762 0.9903
0.6963 -2.3277 -0.2772 0.9903
0.7120 -2.3277 -0.2777 0.9902
0.7278 -2.3277 -0.2782 0.9902
0.7436 -2.3278 -0.2788 0.9902
0.7595 -2.3278 -0.2793 0.9902
0.7915 -2.3278 -0.2805 0.9902
0.8076 -2.3278 -0.2811 0.9901
0.8400 -2.3278 -0.2823 0.9901
0.8892 -2.3278 -0.2843 0.9900
0.9057 -2.3278 -0.2849 0.9900
0.9223 -2.3278 -0.2856 0.9900
0.9896 -2.3279 -0.2886 0.9899
1.0067 -2.3279 -0.2893 0.9898
1.0584 -2.3279 -0.2917 0.9898
1.0933 -2.3279 -0.2934 0.9897
1.1287 -2.3279 -0.2951 0.9896
1.1465 -2.3279 -0.2960 0.9896
1.2190 -2.3280 -0.2998 0.9895
1.2374 -2.3280 -0.3008 0.9894
1.2559 -2.3280 -0.3018 0.9894
1.2746 -2.3280 -0.3028 0.9894
1.2934 -2.3280 -0.3038 0.9893
1.3313 -2.3281 -0.3059 0.9893
1.3505 -2.3281 -0.3070 0.9892
1.3699 -2.3281 -0.3081 0.9892
1.3893 -2.3281 -0.3093 0.9891
1.4089 -2.3281 -0.3104 0.9891
1.4287 -2.3281 -0.3116 0.9891
1.4486 -2.3281 -0.3128 0.9890
1.4888 -2.3281 -0.3152 0.9889
1.5092 -2.3281 -0.3165 0.9889
1.5297 -2.3282 -0.3178 0.9888
1.5504 -2.3282 -0.3191 0.9888
1.5713 -2.3282 -0.3204 0.9888
1.5924 -2.3282 -0.3218 0.9887
1.6136 -2.3282 -0.3231 0.9887
1.6350 -2.3282 -0.3245 0.9886
1.6784 -2.3282 -0.3274 0.9885
1.7226 -2.3283 -0.3304 0.9884
1.7449 -2.3283 -0.3319 0.9884
1.7676 -2.3283 -0.3335 0.9883
1.7904 -2.3283 -0.3350 0.9882
1.8367 -2.3283 -0.3383 0.9881
1.9078 -2.3284 -0.3434 0.9880
1.9320 -2.3284 -0.3451 0.9879
1.9565 -2.3284 -0.3469 0.9878
2.0062 -2.3284 -0.3506 0.9877
2.0314 -2.3284 -0.3525 0.9876
2.0569 -2.3284 -0.3544 0.9876
2.1352 -2.3285 -0.3604 0.9874
2.1938 -2.2767 -0.3607 0.9874
2.2768 -2.2768 -0.3673 0.9871
2.3051 -2.2768 -0.3696 0.9870
2.3338 -2.2768 -0.3719 0.9870
2.3923 -2.2768 -0.3767 0.9868
2.4524 -2.2769 -0.3817 0.9866
2.4831 -2.2769 -0.3843 0.9865
2.5141 -2.2769 -0.3869 0.9864
2.5456 -2.2769 -0.3896 0.9863
2.6099 -2.2769 -0.3951 0.9862
2.6427 -2.2770 -0.3979 0.9861
2.6760 -2.2770 -0.4008 0.9860
2.7098 -2.2770 -0.4038 0.9859
2.7441 -2.2770 -0.4068 0.9857
2.7789 -2.2770 -0.4098 0.9856
2.8143 -2.2770 -0.4130 0.9855
2.8502 -2.2771 -0.4162 0.9854
2.9613 -2.2771 -0.4261 0.9851
3.0384 -2.2771 -0.4331 0.9848
3.0779 -2.2772 -0.4368 0.9847
3.1143 -2.2451 -0.4380 0.9847
3.1738 -2.2289 -0.4424 0.9845
3.3025 -2.2289 -0.4545 0.9841
3.3924 -2.2290 -0.4630 0.9838
3.4385 -2.2290 -0.4675 0.9836
3.4856 -2.2290 -0.4720 0.9835
3.5336 -2.2291 -0.4766 0.9833
3.6835 -2.2291 -0.4911 0.9828
3.9590 -2.3295 -0.5240 0.9817
4.0157 -2.3295 -0.5296 0.9815
4.1932 -2.3296 -0.5472 0.9809
4.2550 -2.3296 -0.5534 0.9807
4.5171 -2.3298 -0.5798 0.9797
4.5865 -2.3298 -0.5868 0.9795
4.6577 -2.3299 -0.5941 0.9793
4.7307 -2.3299 -0.6016 0.9790
4.8055 -2.3299 -0.6092 0.9787
4.8863 -2.3319 -0.6176 0.9784
12.1609 -5.2589 -1.5114 0.9481
12.5699 -5.2522 -1.5541 0.9466
12.7832 -5.2487 -1.5764 0.9459
13.4616 -5.2376 -1.6478 0.9435
13.9493 -5.2296 -1.6994 0.9418
21.5629 -7.4811 -2.6036 0.9122
21.7453 -6.9467 -2.6041 0.9122
21.9142 -6.4079 -2.6046 0.9122
22.0694 -5.8651 -2.6050 0.9122
22.1769 -5.4549 -2.6052 0.9122
22.2109 -5.3179 -2.6053 0.9122
22.2441 -5.1806 -2.6054 0.9122
22.2764 -5.0430 -2.6055 0.9121
22.3079 -4.9054 -2.6056 0.9121
22.3682 -4.6294 -2.6057 0.9121
22.3971 -4.4911 -2.6058 0.9121
22.4521 -4.2140 -2.6060 0.9121
22.4784 -4.0751 -2.6060 0.9121
22.5037 -3.9361 -2.6061 0.9121
22.5745 -3.5182 -2.6063 0.9121
22.6372 -3.0991 -2.6064 0.9121
22.6747 -2.8189 -2.6065 0.9121
22.7242 -2.3979 -2.6067 0.9121
22.7528 -2.1167 -2.6067 0.9121
22.7657 -1.9760 -2.6068 0.9121
22.7778 -1.8352 -2.6068 0.9121
22.8086 -1.4123 -2.6069 0.9121
22.8171 -1.2713 -2.6069 0.9121
22.8314 -0.9890 -2.6069 0.9121
22.8372 -0.8478 -2.6070 0.9121
22.8421 -0.7065 -2.6070 0.9121
22.8461 -0.5653 -2.6070 0.9121
22.8515 -0.2827 -2.6070 0.9121
22.8528 -0.1413 -2.6070 0.9121
22.8533 -0.0000 -2.6070 0.9121
22.8528 0.1413 -2.6070 0.9121
22.8514 0.2827 -2.6070 0.9121
22.8492 0.4240 -2.6070 0.9121
22.8461 0.5653 -2.6070 0.9121
22.8371 0.8478 -2.6070 0.9121
22.8313 0.9890 -2.6069 0.9121
22.8246 1.1301 -2.6069 0.9121
22.8170 1.2713 -2.6069 0.9121
22.7991 1.5533 -2.6069 0.9121
22.7776 1.8352 -2.6068 0.9121
22.7656 1.9760 -2.6068 0.9121
22.7240 2.3979 -2.6067 0.9121
22.6169 3.2388 -2.6064 0.9121
22.5960 3.3786 -2.6063 0.9121
22.5742 3.5182 -2.6063 0.9121
22.5279 3.7969 -2.6061 0.9121
22.5034 3.9361 -2.6061 0.9121
22.4780 4.0750 -2.6060 0.9121
22.4519 4.2139 -2.6059 0.9121
22.3967 4.4910 -2.6058 0.9121
22.3381 4.7674 -2.6056 0.9121
22.2761 5.0430 -2.6055 0.9121
22.2437 5.1804 -2.6054 0.9122
22.2105 5.3177 -2.6053 0.9122
22.1764 5.4548 -2.6052 0.9122
22.1415 5.5916 -2.6051 0.9122
22.1056 5.7282 -2.6050 0.9122
21.9930 6.1366 -2.6047 0.9122
21.8728 6.5428 -2.6044 0.9122
21.7883 6.8119 -2.6042 0.9122
21.6092 7.3468 -2.6037 0.9122
13.0313 4.7025 -1.5804 0.9458
12.8302 4.7198 -1.5595 0.9464
5.2591 2.0088 -0.6422 0.9776
5.2432 2.0400 -0.6418 0.9776
5.1298 2.0325 -0.6294 0.9780
4.8380 1.9864 -0.5966 0.9792
4.7310 1.9768 -0.5849 0.9796
4.6500 1.9768 -0.5764 0.9799
4.4949 1.9769 -0.5602 0.9804
4.2780 1.9770 -0.5376 0.9812
4.2096 1.9770 -0.5305 0.9815
3.9331 1.8770 -0.4971 0.9826
3.8714 1.8770 -0.4908 0.9828
3.8112 1.8770 -0.4846 0.9830
3.6954 1.8771 -0.4728 0.9835
3.5849 1.8771 -0.4616 0.9838
3.4796 1.8772 -0.4510 0.9842
3.4288 1.8772 -0.4459 0.9844
3.3790 1.8772 -0.4410 0.9846
3.3370 1.9083 -0.4385 0.9846
3.2270 1.9257 -0.4287 0.9850
3.0115 1.9258 -0.4078 0.9857
2.9709 1.9259 -0.4039 0.9858
2.8159 1.9259 -0.3892 0.9864
2.7426 1.9260 -0.3823 0.9866
2.6717 1.9260 -0.3757 0.9868
2.6372 1.9260 -0.3725 0.9869
2.6033 1.9261 -0.3694 0.9870
2.5371 1.9261 -0.3634 0.9873
2.4730 1.9261 -0.3576 0.9875
2.4418 1.9261 -0.3548 0.9876
2.3496 1.9496 -0.3483 0.9878
2.3373 1.9640 -0.3483 0.9878
2.3249 1.9782 -0.3482 0.9878
2.2998 2.0064 -0.3482 0.9878
2.2871 2.0204 -0.3481 0.9878
2.2744 2.0343 -0.3481 0.9878
2.1008 1.9263 -0.3251 0.9886
2.0749 1.9263 -0.3230 0.9887
2.0493 1.9263 -0.3208 0.9887
2.0396 1.9411 -0.3212 0.9887
2.0397 1.9653 -0.3231 0.9887
2.0028 1.9782 -0.3211 0.9887
1.9782 1.9782 -0.3191 0.9888
1.9539 1.9782 -0.3172 0.9889
1.9062 1.9782 -0.3134 0.9890
1.8827 1.9782 -0.3115 0.9891
1.8140 1.9783 -0.3062 0.9893
1.7916 1.9783 -0.3045 0.9893
1.7045 1.9783 -0.2979 0.9895
1.6833 1.9783 -0.2963 0.9896
1.6623 1.9783 -0.2948 0.9897
1.6211 1.9784 -0.2918 0.9898
1.5806 1.9784 -0.2889 0.9899
1.5607 1.9784 -0.2875 0.9899
1.5409 1.9784 -0.2861 0.9900
1.5213 1.9784 -0.2847 0.9900
1.4449 1.9785 -0.2795 0.9902
1.4078 1.9785 -0.2770 0.9903
1.3895 1.9785 -0.2758 0.9903
1.3712 1.9785 -0.2746 0.9904
1.3353 1.9785 -0.2723 0.9904
1.3176 1.9785 -0.2712 0.9905
1.2825 1.9785 -0.2690 0.9906
1.2481 1.9786 -0.2669 0.9906
1.2142 1.9786 -0.2648 0.9907
1.1974 1.9786 -0.2638 0.9907
1.1478 1.9786 -0.2609 0.9908
1.0833 1.9786 -0.2573 0.9910
1.0675 1.9786 -0.2565 0.9910
1.0361 1.9787 -0.2548 0.9910
1.0206 1.9787 -0.2540 0.9911
0.9898 1.9787 -0.2524 0.9911
0.8703 1.9788 -0.2466 0.9913
0.8557 1.9788 -0.2459 0.9914
0.8268 1.9788 -0.2446 0.9914
0.7559 1.9788 -0.2416 0.9915
0.6866 1.9788 -0.2389 0.9916
0.6729 1.9788 -0.2384 0.9916
0.6187 1.9789 -0.2365 0.9917
0.6053 1.9789 -0.2361 0.9917
0.5522 1.9789 -0.2344 0.9918
0.5390 1.9789 -0.2340 0.9918
0.5259 1.9789 -0.2336 0.9918
0.4868 1.9790 -0.2325 0.9918
0.4480 1.9790 -0.2315 0.9919
0.4352 1.9790 -0.2311 0.9919
0.3841 1.9790 -0.2300 0.9919
0.3714 1.9790 -0.2297 0.9919
0.3588 1.9790 -0.2294 0.9919
0.3462 1.9790 -0.2292 0.9919
0.3336 1.9790 -0.2289 0.9920
0.3210 1.9791 -0.2287 0.9920
0.3084 1.9791 -0.2285 0.9920
0.2959 1.9791 -0.2283 0.9920
0.2834 1.9791 -0.2281 0.9920
0.2460 1.9791 -0.2275 0.9920
0.2336 1.9791 -0.2273 0.9920
0.2212 1.9791 -0.2272 0.9920
0.2088 1.9791 -0.2270 0.9920
0.1964 1.9791 -0.2269 0.9920
0.1718 1.9791 -0.2266 0.9920
0.1348 1.9792 -0.2263 0.9920
0.1225 1.9792 -0.2262 0.9920
0.1103 1.9792 -0.2261 0.9921
0.0980 1.9792 -0.2261 0.9921
0.0857 1.9792 -0.2260 0.9921
0.0735 1.9792 -0.2259 0.9921
0.0612 1.9792 -0.2259 0.9921
0.0490 1.9792 -0.2258 0.9921
0.0367 1.9792 -0.2258 0.9921
0.0000 1.9274 -0.2199 0.9923
-0.0238 1.9274 -0.2199 0.9923
-0.0357 1.9274 -0.2199 0.9923
-0.1032 2.0844 -0.2381 0.9916
-0.1291 2.0844 -0.2382 0.9916
-0.1420 2.0845 -0.2383 0.9916
-0.2200 2.0845 -0.2391 0.9916
-0.2461 2.0845 -0.2394 0.9916
-0.2591 2.0845 -0.2396 0.9916
-0.2722 2.0845 -0.2398 0.9916
-0.2985 2.0845 -0.2402 0.9916
-0.3117 2.0845 -0.2404 0.9916
-0.3249 2.0846 -0.2407 0.9915
-0.3513 2.0846 -0.2412 0.9915
-0.3646 2.0846 -0.2414 0.9915
-0.3779 2.0846 -0.2417 0.9915
-0.3913 2.0846 -0.2420 0.9915
-0.4314 2.0846 -0.2428 0.9915
-0.4855 2.0846 -0.2442 0.9914
-0.5128 2.0846 -0.2449 0.9914
-0.5956 2.0847 -0.2473 0.9913
-0.6096 2.0847 -0.2478 0.9913
-0.6236 2.0847 -0.2482 0.9913
-0.6377 2.0847 -0.2487 0.9913
-0.6518 2.0847 -0.2492 0.9912
-0.6802 2.0847 -0.2502 0.9912
-0.6945 2.0847 -0.2507 0.9912
-0.7089 2.0847 -0.2512 0.9912
-0.7233 2.0847 -0.2517 0.9912
-0.7378 2.0847 -0.2523 0.9911
-0.7523 2.0848 -0.2528 0.9911
-0.7669 2.0848 -0.2534 0.9911
-0.7963 2.0848 -0.2546 0.9911
-0.8260 2.0848 -0.2558 0.9910
-0.8410 2.0848 -0.2564 0.9910
-0.9324 2.0849 -0.2605 0.9908
-0.9479 2.0849 -0.2613 0.9908
-0.9635 2.0849 -0.2620 0.9908
-1.0268 2.0849 -0.2651 0.9907
-1.0754 2.0849 -0.2676 0.9906
-1.0917 2.0849 -0.2685 0.9906
-1.1082 2.0850 -0.2694 0.9905
-1.1415 2.0850 -0.2712 0.9905
-1.1498 2.0399 -0.2671 0.9906
-1.1746 2.0249 -0.2670 0.9906
-1.2618 2.0850 -0.2780 0.9902
-1.2795 2.0850 -0.2791 0.9902
-1.2973 2.0851 -0.2801 0.9902
-1.3334 2.0851 -0.2823 0.9901
-1.3516 2.0851 -0.2835 0.9900
-1.4451 2.0852 -0.2894 0.9898
-1.4643 2.0851 -0.2907 0.9898
-1.5229 2.0852 -0.2946 0.9897
-1.5427 2.0852 -0.2959 0.9896
-1.5628 2.0852 -0.2973 0.9896
-1.6035 2.0852 -0.3001 0.9895
-1.6449 2.0852 -0.3030 0.9894
-1.6477 2.0365 -0.2988 0.9895
-1.6478 1.9610 -0.2922 0.9897
-1.6478 1.9365 -0.2901 0.9898
-1.6614 1.9283 -0.2904 0.9898
-1.7034 1.9283 -0.2935 0.9897
-1.8158 1.9802 -0.3065 0.9892
-1.8384 1.9802 -0.3082 0.9892
-1.8614 1.9802 -0.3100 0.9891
-1.8846 1.9802 -0.3118 0.9891
-1.9319 1.9802 -0.3156 0.9889
-2.0049 1.9803 -0.3215 0.9887
-2.0552 1.9803 -0.3256 0.9886
-2.0808 1.9803 -0.3277 0.9885
-2.1068 1.9803 -0.3298 0.9884
-2.1330 1.9803 -0.3320 0.9884
-2.1597 1.9804 -0.3343 0.9883
-2.1867 1.9804 -0.3365 0.9882
-2.2141 1.9804 -0.3389 0.9881
-2.2419 1.9804 -0.3412 0.9880
-2.2700 1.9804 -0.3437 0.9879
-2.3275 1.9804 -0.3486 0.9878
-2.3570 1.9804 -0.3512 0.9877
-2.4478 1.9805 -0.3592 0.9874
-2.6089 1.9806 -0.3737 0.9869
-16.5101 12.3738 -2.3537 0.9203
-16.5852 12.2707 -2.3535 0.9203
-16.6597 12.1671 -2.3534 0.9203
-16.7336 12.0630 -2.3532 0.9203
-16.8068 11.9585 -2.3531 0.9203
-16.8793 11.8536 -2.3529 0.9203
-17.3011 11.2152 -2.3520 0.9203
-17.3691 11.1073 -2.3519 0.9203
-17.5032 10.8904 -2.3516 0.9204
-17.6345 10.6719 -2.3514 0.9204
-17.8265 10.3412 -2.3510 0.9204
-17.9508 10.1186 -2.3507 0.9204
-18.0118 10.0067 -2.3505 0.9204
-18.2489 9.5556 -2.3499 0.9204
-18.3065 9.4420 -2.3497 0.9204
-18.3633 9.3280 -2.3496 0.9204
-18.4195 9.2137 -2.3494 0.9204
-18.5838 8.8687 -2.3490 0.9204
-18.6899 8.6372 -2.3487 0.9205
-18.7418 8.5209 -2.3486 0.9205
-18.7930 8.4044 -2.3485 0.9205
-18.8436 8.2875 -2.3483 0.9205
-18.8934 8.1703 -2.3482 0.9205
-18.9425 8.0529 -2.3481 0.9205
-18.9909 7.9352 -2.3479 0.9205
-19.0386 7.8171 -2.3478 0.9205
-19.1318 7.5803 -2.3475 0.9205
-19.1774 7.4614 -2.3474 0.9205
-19.2221 7.3423 -2.3473 0.9205
-19.2662 7.2229 -2.3472 0.9205
-19.3521 6.9834 -2.3470 0.9205
-19.3941 6.8633 -2.3468 0.9205
-19.4756 6.6223 -2.3466 0.9205
-19.5543 6.3803 -2.3464 0.9205
-19.7028 5.8937 -2.3460 0.9205
-19.7725 5.6491 -2.3458 0.9205
-19.8063 5.5265 -2.3457 0.9205
-19.8716 5.2807 -2.3456 0.9206
-19.9032 5.1575 -2.3455 0.9206
-19.9640 4.9106 -2.3453 0.9206
-20.0219 4.6630 -2.3451 0.9206
-20.0496 4.5389 -2.3451 0.9206
-20.0767 4.4147 -2.3450 0.9206
-20.0964 4.2889 -2.3441 0.9206
-20.0966 4.0297 -2.3382 0.9208
-20.0967 3.7718 -2.3326 0.9210
-20.0967 3.6433 -2.3299 0.9211
-20.0969 3.3872 -2.3249 0.9212
-20.0969 3.2595 -2.3225 0.9213
-20.0970 3.0049 -2.3181 0.9214
-20.0972 2.6248 -2.3121 0.9216
-20.0973 2.4985 -2.3103 0.9217
-20.0973 2.3724 -2.3085 0.9218
-20.0975 1.9951 -2.3039 0.9219
-20.0977 1.7444 -2.3013 0.9220
-20.0978 1.4942 -2.2990 0.9221
-20.0979 1.3693 -2.2980 0.9221
-20.5148 1.1430 -2.3439 0.9206
-20.5321 0.7622 -2.3438 0.9206
-20.5425 0.3811 -2.3438 0.9206
-20.5444 0.2541 -2.3438 0.9206
-20.5456 0.1270 -2.3438 0.9206
-19.2990 -0.1194 -2.3469 0.9252
-19.2979 -0.2387 -2.3469 0.9252
-19.2961 -0.3581 -2.3469 0.9252
-19.2762 -0.9545 -2.3469 0.9252
-19.2701 -1.0737 -2.3470 0.9252
-19.2557 -1.3119 -2.3470 0.9252
-19.2181 -1.7879 -2.3471 0.9252
-19.2069 -1.9067 -2.3471 0.9252
-19.1950 -2.0255 -2.3471 0.9252
-19.1824 -2.1442 -2.3472 0.9252
-19.1690 -2.2628 -2.3472 0.9252
-19.1549 -2.3813 -2.3472 0.9252
-19.1401 -2.4998 -2.3473 0.9252
-18.9960 -3.4438 -2.3476 0.9252
-18.8827 -4.0300 -2.3479 0.9251
-18.8580 -4.1468 -2.3480 0.9251
-18.7794 -4.4963 -2.3482 0.9251
-18.7518 -4.6125 -2.3483 0.9251
-18.6944 -4.8443 -2.3484 0.9251
-18.6647 -4.9600 -2.3485 0.9251
-18.6342 -5.0755 -2.3485 0.9251
-18.4716 -5.6501 -2.3489 0.9251
-18.3290 -6.1062 -2.3493 0.9251
-18.2916 -6.2197 -2.3494 0.9251
-18.2535 -6.3330 -2.3495 0.9251
-18.1351 -6.6713 -2.3498 0.9251
-18.0106 -7.0075 -2.3501 0.9251
-17.9678 -7.1191 -2.3502 0.9251
-17.9242 -7.2304 -2.3503 0.9251
-17.7433 -7.6730 -2.3508 0.9251
-17.6964 -7.7830 -2.3509 0.9251
-17.6488 -7.8926 -2.3510 0.9251
-17.6005 -8.0021 -2.3511 0.9251
-17.5516 -8.1112 -2.3512 0.9250
-17.4518 -8.3285 -2.3515 0.9250
-17.2442 -8.7596 -2.3520 0.9250
-17.1907 -8.8665 -2.3521 0.9250
-17.1365 -8.9732 -2.3523 0.9250
-17.0816 -9.0795 -2.3524 0.9250
-17.0261 -9.1855 -2.3525 0.9250
-16.7978 -9.6061 -2.3531 0.9250
-16.6797 -9.8144 -2.3534 0.9250
-16.4361 -10.2266 -2.3540 0.9250
-16.3736 -10.3287 -2.3541 0.9250
-16.3105 -10.4304 -2.3543 0.9250
-16.2468 -10.5318 -2.3545 0.9249
-15.9189 -11.0328 -2.3553 0.9249
-15.7835 -11.2305 -2.3556 0.9249
-15.7148 -11.3287 -2.3558 0.9249
-15.6456 -11.4265 -2.3559 0.9249
-15.5054 -11.6208 -2.3563 0.9249
-15.4344 -11.7174 -2.3565 0.9249
-15.3628 -11.8135 -2.3566 0.9249
-15.2178 -12.0044 -2.3570 0.9249
-15.1444 -12.0992 -2.3572 0.9249
-15.0705 -12.1936 -2.3574 0.9249
-14.9959 -12.2875 -2.3575 0.9249
-14.9208 -12.3810 -2.3577 0.9248
-14.7689 -12.5666 -2.3581 0.9248
-2.6063 -2.3023 -0.4229 0.9861
-2.5922 -2.3186 -0.4229 0.9861
-2.5781 -2.3348 -0.4230 0.9861
-2.4745 -2.3261 -0.4130 0.9864
-2.4140 -2.3261 -0.4077 0.9866
-2.3844 -2.3261 -0.4051 0.9867
-2.3551 -2.3261 -0.4025 0.9868
-2.2693 -2.3262 -0.3952 0.9870
-2.2139 -2.3262 -0.3905 0.9871
-2.1331 -2.3262 -0.3838 0.9874
-2.1067 -2.3262 -0.3816 0.9874
-2.0807 -2.3263 -0.3795 0.9875
-2.0550 -2.3263 -0.3775 0.9876
-2.0043 -2.3263 -0.3734 0.9877
-1.9547 -2.3263 -0.3695 0.9878
-1.9062 -2.3264 -0.3657 0.9880
-1.8823 -2.3264 -0.3639 0.9880
-1.8351 -2.3264 -0.3603 0.9881
-1.8119 -2.3264 -0.3586 0.9882
-1.7889 -2.3264 -0.3569 0.9882
-1.7662 -2.3264 -0.3552 0.9883
-1.7436 -2.3264 -0.3535 0.9884
-1.6771 -2.3265 -0.3488 0.9885
-1.6185 -2.2747 -0.3395 0.9888
-1.5974 -2.2747 -0.3380 0.9889
-1.5765 -2.2747 -0.3366 0.9889
-1.5558 -2.2747 -0.3351 0.9890
-1.5501 -2.2969 -0.3370 0.9889
-1.5268 -2.3237 -0.3381 0.9889
-1.4982 -2.3429 -0.3382 0.9889
-1.4550 -2.3711 -0.3383 0.9889
-1.4405 -2.3803 -0.3383 0.9889
-1.4113 -2.3985 -0.3384 0.9888
-1.3818 -2.4163 -0.3385 0.9888
-1.3670 -2.4251 -0.3385 0.9888
-1.3314 -2.4318 -0.3371 0.9889
-1.2926 -2.4318 -0.3349 0.9890
-1.2543 -2.4318 -0.3327 0.9890
-1.2353 -2.4319 -0.3317 0.9891
-1.1977 -2.4319 -0.3296 0.9891
-1.1791 -2.4319 -0.3287 0.9892
-1.1606 -2.4319 -0.3277 0.9892
-1.0961 -2.3718 -0.3177 0.9895
-1.0783 -2.3719 -0.3168 0.9896
-1.0523 -2.3927 -0.3179 0.9895
-1.0162 -2.4320 -0.3205 0.9894
-0.9986 -2.4320 -0.3197 0.9895
-0.9810 -2.4320 -0.3189 0.9895
-0.9636 -2.4320 -0.3181 0.9895
-0.9462 -2.4321 -0.3173 0.9895
-0.9289 -2.4320 -0.3166 0.9896
-0.9118 -2.4320 -0.3158 0.9896
-0.8776 -2.4321 -0.3144 0.9896
-0.8607 -2.4321 -0.3137 0.9897
-0.7769 -2.4321 -0.3105 0.9898
-0.7604 -2.4321 -0.3099 0.9898
-0.7275 -2.4321 -0.3087 0.9898
-0.6949 -2.4321 -0.3076 0.9899
-0.6786 -2.4322 -0.3071 0.9899
-0.6463 -2.4322 -0.3060 0.9899
-0.6142 -2.4322 -0.3050 0.9899
-0.5983 -2.4322 -0.3046 0.9900
-0.5665 -2.4322 -0.3037 0.9900
-0.5191 -2.4322 -0.3024 0.9900
-0.4604 -2.3722 -0.2938 0.9903
-0.4300 -2.3722 -0.2932 0.9903
-0.4213 -2.4088 -0.2974 0.9902
-0.4099 -2.4323 -0.2999 0.9901
-0.3945 -2.4323 -0.2996 0.9901
-0.3483 -2.4323 -0.2988 0.9901
-0.3024 -2.4324 -0.2981 0.9902
-0.2719 -2.4324 -0.2976 0.9902
-0.2566 -2.4324 -0.2974 0.9902
-0.2111 -2.4324 -0.2969 0.9902
-0.1657 -2.4324 -0.2965 0.9902
-0.1506 -2.4325 -0.2964 0.9902
-0.1355 -2.4325 -0.2963 0.9902
-0.1204 -2.4325 -0.2962 0.9902
-0.0752 -2.4325 -0.2959 0.9902
-0.0602 -2.4325 -0.2959 0.9902
-0.0451 -2.4325 -0.2958 0.9902
-0.0301 -2.4325 -0.2958 0.9902
-0.0150 -2.4325 -0.2958 0.9902
0.0422 -2.2756 -0.2768 0.9909
0.0563 -2.2756 -0.2768 0.9909
0.0704 -2.2756 -0.2769 0.9909
0.0845 -2.2756 -0.2769 0.9909
0.1730 -2.3274 -0.2838 0.9906
0.1875 -2.3274 -0.2839 0.9906
0.2020 -2.3275 -0.2841 0.9906
0.2165 -2.3275 -0.2843 0.9906
0.2747 -2.3275 -0.2850 0.9906
0.3040 -2.3275 -0.2854 0.9906
0.3627 -2.3276 -0.2865 0.9906
0.3775 -2.3276 -0.2867 0.9905
0.3923 -2.3276 -0.2870 0.9905
0.4369 -2.3276 -0.2880 0.9905
0.5269 -2.3276 -0.2902 0.9904
0.5421 -2.3277 -0.2906 0.9904
0.5878 -2.3277 -0.2919 0.9904
0.6186 -2.3277 -0.2929 0.9903
0.6806 -2.3277 -0.2949 0.9903
0.6963 -2.3277 -0.2955 0.9903
0.7120 -2.3277 -0.2960 0.9902
0.7436 -2.3277 -0.2972 0.9902
0.7595 -2.3278 -0.2977 0.9902
0.7755 -2.3278 -0.2984 0.9902
0.7915 -2.3278 -0.2990 0.9901
0.8400 -2.3278 -0.3009 0.9901
0.9057 -2.3278 -0.3037 0.9900
0.9223 -2.3278 -0.3045 0.9900
0.9390 -2.3279 -0.3052 0.9899
0.9727 -2.3279 -0.3068 0.9899
1.0758 -2.3279 -0.3119 0.9897
1.1110 -2.3279 -0.3137 0.9897
1.1645 -2.3280 -0.3165 0.9896
1.2374 -2.3280 -0.3206 0.9894
1.2559 -2.3280 -0.3217 0.9894
1.2746 -2.3280 -0.3227 0.9894
1.2934 -2.3280 -0.3239 0.9893
1.3123 -2.3280 -0.3250 0.9893
1.3313 -2.3280 -0.3261 0.9893
1.3505 -2.3280 -0.3273 0.9892
1.3698 -2.3281 -0.3285 0.9892
1.4286 -2.3281 -0.3322 0.9891
1.4485 -2.3281 -0.3334 0.9890
1.4888 -2.3281 -0.3360 0.9889
1.5297 -2.3282 -0.3388 0.9888
1.5713 -2.3282 -0.3416 0.9887
1.6566 -2.3282 -0.3475 0.9886
1.7004 -2.3283 -0.3506 0.9884
1.7226 -2.3283 -0.3522 0.9884
1.7450 -2.3283 -0.3538 0.9883
1.7904 -2.3283 -0.3572 0.9882
1.8134 -2.3283 -0.3589 0.9882
1.9078 -2.3284 -0.3660 0.9879
1.9565 -2.3284 -0.3698 0.9878
1.9812 -2.3284 -0.3718 0.9878
2.0062 -2.3284 -0.3737 0.9877
2.0314 -2.3284 -0.3758 0.9876
2.1088 -2.3285 -0.3820 0.9874
2.1373 -2.3021 -0.3820 0.9874
2.1668 -2.2767 -0.3822 0.9874
2.2487 -2.2767 -0.3891 0.9872
2.3338 -2.2768 -0.3965 0.9869
2.3629 -2.2768 -0.3990 0.9869
2.3923 -2.2768 -0.4016 0.9868
2.4222 -2.2768 -0.4042 0.9867
2.4830 -2.2769 -0.4097 0.9865
2.5456 -2.2769 -0.4153 0.9863
2.5775 -2.2769 -0.4182 0.9862
2.6427 -2.2770 -0.4242 0.9860
2.6760 -2.2770 -0.4273 0.9859
2.7789 -2.2770 -0.4369 0.9856
2.8253 -2.2287 -0.4376 0.9856
2.9357 -2.2287 -0.4482 0.9853
2.9738 -2.2287 -0.4519 0.9851
3.0518 -2.2288 -0.4595 0.9849
3.1325 -2.2288 -0.4675 0.9846
3.1738 -2.2289 -0.4716 0.9845
3.2160 -2.2289 -0.4758 0.9844
3.2589 -2.2289 -0.4801 0.9842
3.3471 -2.2289 -0.4890 0.9839
3.4386 -2.2290 -0.4983 0.9836
3.6425 -2.3293 -0.5258 0.9827
3.6926 -2.3294 -0.5309 0.9826
3.8492 -2.3294 -0.5471 0.9820
4.0736 -2.3295 -0.5706 0.9813
4.1932 -2.3296 -0.5833 0.9809
4.2550 -2.3296 -0.5899 0.9806
4.3183 -2.3297 -0.5967 0.9804
4.3830 -2.3297 -0.6036 0.9802
4.7307 -2.3299 -0.6413 0.9790
4.8863 -2.3319 -0.6584 0.9784
5.0054 -2.3508 -0.6725 0.9780
5.2594 -2.3912 -0.7026 0.9770
12.3638 -5.2561 -1.6337 0.9473
12.7845 -5.2493 -1.6806 0.9458
13.0040 -5.2457 -1.7051 0.9451
13.2301 -5.2420 -1.7305 0.9443
13.4630 -5.2381 -1.7567 0.9435
14.7426 -5.2172 -1.9017 0.9389
20.2441 -6.8836 -2.6002 0.9174
20.2871 -6.7585 -2.6003 0.9174
20.3293 -6.6332 -2.6004 0.9174
20.3708 -6.5077 -2.6005 0.9174
20.4115 -6.3818 -2.6006 0.9174
20.4514 -6.2557 -2.6007 0.9174
20.4905 -6.1294 -2.6008 0.9174
20.5288 -6.0027 -2.6009 0.9174
20.5664 -5.8759 -2.6010 0.9174
20.6030 -5.7488 -2.6011 0.9174
20.6389 -5.6215 -2.6012 0.9174
20.7083 -5.3662 -2.6014 0.9174
20.7745 -5.1100 -2.6016 0.9174
20.8063 -4.9816 -2.6016 0.9174
20.8374 -4.8530 -2.6017 0.9174
20.8677 -4.7241 -2.6018 0.9174
20.8971 -4.5951 -2.6019 0.9174
20.9257 -4.4660 -2.6019 0.9174
20.9536 -4.3366 -2.6020 0.9174
20.9805 -4.2070 -2.6021 0.9174
21.0067 -4.0773 -2.6022 0.9174
21.0566 -3.8174 -2.6023 0.9174
21.0803 -3.6872 -2.6023 0.9174
21.1031 -3.5568 -2.6024 0.9174
21.1464 -3.2957 -2.6025 0.9174
21.1864 -3.0340 -2.6026 0.9174
21.2402 -2.6406 -2.6028 0.9174
21.2565 -2.5092 -2.6028 0.9174
21.3003 -2.1145 -2.6029 0.9174
21.3132 -1.9828 -2.6030 0.9174
21.3366 -1.7191 -2.6030 0.9174
21.3471 -1.5871 -2.6030 0.9174
21.3654 -1.3230 -2.6031 0.9174
21.3868 -0.9264 -2.6031 0.9174
21.3968 -0.6619 -2.6032 0.9174
21.4035 -0.3971 -2.6032 0.9174
21.4068 -0.1324 -2.6032 0.9174
21.4073 -0.0000 -2.6032 0.9174
21.4068 0.1324 -2.6032 0.9174
21.3921 0.7941 -2.6032 0.9174
21.3867 0.9264 -2.6031 0.9174
21.3365 1.7190 -2.6030 0.9174
21.3253 1.8510 -2.6030 0.9174
21.3002 2.1145 -2.6029 0.9174
21.2563 2.5092 -2.6028 0.9174
21.2400 2.6405 -2.6027 0.9174
21.2050 2.9029 -2.6026 0.9174
21.1666 3.1648 -2.6025 0.9174
21.1249 3.4262 -2.6024 0.9174
21.0800 3.6871 -2.6023 0.9174
21.0562 3.8173 -2.6023 0.9174
20.9802 4.2070 -2.6021 0.9174
20.8968 4.5950 -2.6018 0.9174
20.8673 4.7240 -2.6018 0.9174
20.8060 4.9815 -2.6016 0.9174
20.7741 5.1099 -2.6015 0.9174
20.5659 5.8758 -2.6010 0.9174
20.5284 6.0026 -2.6009 0.9174
20.4111 6.3816 -2.6005 0.9174
20.3288 6.6330 -2.6003 0.9174
20.2436 6.8834 -2.6001 0.9174
20.1996 7.0081 -2.6000 0.9175
13.2071 4.6738 -1.7036 0.9451
12.9228 4.6633 -1.6706 0.9461
12.6825 4.6654 -1.6433 0.9470
5.2431 2.0400 -0.6841 0.9776
4.8380 1.9864 -0.6360 0.9791
4.7309 1.9768 -0.6235 0.9796
4.6500 1.9768 -0.6144 0.9798
4.5714 1.9769 -0.6056 0.9801
4.4207 1.9769 -0.5889 0.9807
4.2096 1.9771 -0.5655 0.9814
4.0779 1.9771 -0.5511 0.9819
3.8924 1.9772 -0.5309 0.9826
3.6395 1.8771 -0.4980 0.9836
3.4288 1.8772 -0.4754 0.9844
3.3791 1.8773 -0.4701 0.9845
3.2363 1.8773 -0.4550 0.9850
3.1460 1.8774 -0.4455 0.9853
3.1023 1.8774 -0.4410 0.9855
3.0686 1.8831 -0.4378 0.9856
3.0567 1.9019 -0.4378 0.9856
2.9311 1.9259 -0.4265 0.9860
2.8536 1.9259 -0.4186 0.9862
2.8159 1.9259 -0.4149 0.9863
2.7789 1.9260 -0.4112 0.9865
2.7068 1.9260 -0.4040 0.9867
2.6717 1.9260 -0.4005 0.9868
2.6033 1.9260 -0.3938 0.9870
2.4730 1.9261 -0.3812 0.9874
2.4110 1.9261 -0.3753 0.9876
2.3806 1.9262 -0.3724 0.9877
2.3508 1.9262 -0.3696 0.9878
2.3214 1.9262 -0.3668 0.9879
2.2924 1.9262 -0.3641 0.9880
2.2357 1.9262 -0.3589 0.9882
2.1806 1.9262 -0.3538 0.9883
2.1536 1.9263 -0.3514 0.9884
