ply
format ascii 1.0
element vertex 1597
property float32 x
property float32 y
property float32 z
property float32 I
end_header
-2.7710 -2.3578 -1.0341 0.9850
-2.7419 -2.3624 -1.0287 0.9851
-2.6845 -2.3714 -1.0181 0.9852
-2.6006 -2.3846 -1.0029 0.9854
-2.4063 -2.3768 -0.9613 0.9860
-2.3868 -2.3867 -0.9594 0.9861
-2.3672 -2.3967 -0.9575 0.9861
-2.3284 -2.4164 -0.9538 0.9861
-2.3091 -2.4262 -0.9520 0.9862
-2.2899 -2.4360 -0.9503 0.9862
-2.2325 -2.4651 -0.9453 0.9863
-2.1947 -2.4844 -0.9422 0.9863
-2.1758 -2.4940 -0.9407 0.9863
-2.1383 -2.5131 -0.9379 0.9864
-2.1196 -2.5226 -0.9365 0.9864
-2.0825 -2.5415 -0.9339 0.9864
-2.0639 -2.5509 -0.9326 0.9864
-2.0455 -2.5603 -0.9314 0.9865
-2.0100 -2.5807 -0.9297 0.9865
-1.9811 -2.6096 -0.9312 0.9865
-1.9376 -2.6530 -0.9338 0.9864
-1.8938 -2.6967 -0.9366 0.9864
-1.8791 -2.7113 -0.9376 0.9864
-1.8350 -2.7554 -0.9409 0.9863
-1.8054 -2.7850 -0.9433 0.9863
-1.7606 -2.8297 -0.9472 0.9862
-1.7306 -2.8596 -0.9500 0.9862
-1.7155 -2.8747 -0.9515 0.9862
-1.7004 -2.8898 -0.9530 0.9862
-1.6852 -2.9050 -0.9545 0.9861
-1.6898 -2.9977 -0.9781 0.9858
-1.6545 -3.0668 -0.9904 0.9856
-1.6425 -3.0902 -0.9947 0.9856
-1.6183 -3.1377 -1.0035 0.9854
-1.6061 -3.1617 -1.0079 0.9854
-1.5812 -3.2104 -1.0172 0.9852
-1.5685 -3.2352 -1.0219 0.9852
-1.5558 -3.2601 -1.0267 0.9851
-1.4897 -3.4447 -1.0667 0.9845
-1.4758 -3.5319 -1.0880 0.9842
-1.4463 -3.7172 -1.1337 0.9836
-1.4172 -4.0849 -1.2289 0.9822
-2.0019 -6.0090 -1.8002 0.9740
-1.9197 -6.0091 -1.7930 0.9741
-1.8788 -6.0091 -1.7895 0.9742
-1.7571 -6.0092 -1.7795 0.9743
-1.6767 -6.0093 -1.7732 0.9744
-1.5969 -6.0093 -1.7673 0.9745
-1.5572 -6.0093 -1.7644 0.9745
-1.5176 -6.0094 -1.7617 0.9746
-1.3996 -6.0094 -1.7538 0.9747
-1.3214 -6.0095 -1.7489 0.9747
-1.2050 -6.0096 -1.7421 0.9748
-1.1664 -6.0096 -1.7400 0.9749
-1.0512 -6.0096 -1.7340 0.9749
-0.9747 -6.0097 -1.7304 0.9750
-0.8227 -6.0098 -1.7241 0.9751
-0.7849 -6.0098 -1.7227 0.9751
-0.6342 -6.0099 -1.7177 0.9752
-0.4842 -6.0100 -1.7137 0.9752
-0.4469 -6.0100 -1.7129 0.9753
-0.3648 -8.4225 -2.3962 0.9656
-0.3127 -8.4246 -2.3962 0.9656
-0.2085 -8.4279 -2.3962 0.9655
-0.1564 -8.4291 -2.3962 0.9655
-0.1043 -8.4300 -2.3962 0.9655
-0.0521 -8.4305 -2.3962 0.9655
0.0521 -8.4306 -2.3963 0.9655
0.1043 -8.4302 -2.3963 0.9655
0.2086 -8.4283 -2.3963 0.9655
0.2607 -8.4269 -2.3963 0.9655
0.3128 -8.4252 -2.3963 0.9655
0.4170 -8.4208 -2.3964 0.9655
0.4690 -8.4181 -2.3964 0.9655
0.6252 -8.4080 -2.3964 0.9655
0.7291 -8.3998 -2.3964 0.9655
0.7811 -8.3952 -2.3964 0.9655
0.8329 -8.3902 -2.3965 0.9655
0.9366 -8.3793 -2.3965 0.9655
1.0402 -8.3672 -2.3965 0.9655
1.1953 -8.3466 -2.3965 0.9655
1.2469 -8.3391 -2.3965 0.9655
1.2665 -8.1263 -2.3376 0.9664
1.2662 -7.8071 -2.2480 0.9676
1.2887 -7.3677 -2.1259 0.9694
1.3114 -7.2335 -2.0895 0.9699
1.3112 -6.9861 -2.0203 0.9709
1.3786 -6.8752 -1.9930 0.9713
1.4229 -6.8752 -1.9955 0.9712
1.4673 -6.8751 -1.9981 0.9712
1.6012 -6.8750 -2.0064 0.9711
1.7815 -6.8749 -2.0186 0.9709
1.8725 -6.8748 -2.0252 0.9708
2.3656 -8.0902 -2.3958 0.9656
2.4157 -8.0754 -2.3958 0.9656
2.4655 -8.0603 -2.3958 0.9656
2.5153 -8.0449 -2.3958 0.9656
2.5650 -8.0292 -2.3958 0.9656
2.6146 -8.0132 -2.3957 0.9656
2.6641 -7.9969 -2.3957 0.9656
2.7135 -7.9802 -2.3957 0.9656
2.9101 -7.9106 -2.3957 0.9656
2.9589 -7.8925 -2.3957 0.9656
3.0077 -7.8740 -2.3957 0.9656
3.0563 -7.8552 -2.3957 0.9656
3.1532 -7.8168 -2.3957 0.9656
3.3934 -7.7155 -2.3957 0.9656
3.5359 -7.6512 -2.3957 0.9656
3.5831 -7.6292 -2.3957 0.9656
3.6302 -7.6069 -2.3957 0.9656
3.7707 -7.5382 -2.3957 0.9656
3.8172 -7.5147 -2.3957 0.9656
3.8637 -7.4909 -2.3956 0.9656
3.9098 -7.4669 -2.3956 0.9656
4.0019 -7.4179 -2.3956 0.9656
4.0933 -7.3678 -2.3956 0.9656
4.0498 -6.8828 -2.2698 0.9673
4.0480 -6.7834 -2.2452 0.9677
4.0445 -6.5909 -2.1979 0.9684
4.0411 -6.4062 -2.1528 0.9690
4.0395 -6.3167 -2.1311 0.9693
4.0379 -6.2290 -2.1099 0.9696
4.0363 -6.1431 -2.0892 0.9699
4.1662 -6.0113 -2.0788 0.9700
4.0036 -5.7010 -1.9800 0.9714
3.9988 -5.4754 -1.9271 0.9722
3.9968 -5.4022 -1.9100 0.9724
4.0454 -5.2609 -1.8863 0.9728
4.0967 -5.2599 -1.8950 0.9727
4.1486 -5.2590 -1.9039 0.9725
4.3608 -5.2554 -1.9410 0.9720
4.4151 -5.2544 -1.9507 0.9719
4.5816 -5.2515 -1.9808 0.9714
4.6382 -5.2505 -1.9913 0.9713
5.9762 -6.6815 -2.5479 0.9634
6.0584 -6.6070 -2.5479 0.9634
6.2199 -6.4551 -2.5478 0.9634
6.2597 -6.4164 -2.5478 0.9634
6.3385 -6.3385 -2.5478 0.9634
6.4933 -6.1797 -2.5478 0.9634
6.6811 -5.9759 -2.5477 0.9634
6.7544 -5.8927 -2.5477 0.9634
6.8268 -5.8087 -2.5477 0.9634
6.8625 -5.7664 -2.5477 0.9634
6.9332 -5.6810 -2.5477 0.9634
6.9682 -5.6380 -2.5477 0.9634
7.0374 -5.5513 -2.5476 0.9634
7.0715 -5.5077 -2.5476 0.9634
7.1391 -5.4198 -2.5476 0.9634
7.2055 -5.3310 -2.5476 0.9634
7.3031 -5.1964 -2.5476 0.9634
7.3350 -5.1511 -2.5476 0.9634
7.3981 -5.0599 -2.5475 0.9634
7.4601 -4.9680 -2.5475 0.9634
7.5805 -4.7819 -2.5475 0.9634
7.6964 -4.5929 -2.5474 0.9634
7.7246 -4.5451 -2.5474 0.9634
7.8075 -4.4010 -2.5474 0.9634
7.8345 -4.3526 -2.5474 0.9634
7.8877 -4.2553 -2.5473 0.9634
7.9138 -4.2065 -2.5473 0.9634
7.9397 -4.1574 -2.5473 0.9634
7.9652 -4.1082 -2.5473 0.9634
7.9904 -4.0588 -2.5473 0.9634
8.0153 -4.0093 -2.5473 0.9634
8.0882 -3.8599 -2.5473 0.9634
8.1119 -3.8098 -2.5472 0.9634
8.1583 -3.7091 -2.5472 0.9634
8.1811 -3.6586 -2.5472 0.9634
8.2474 -3.5062 -2.5472 0.9634
8.2900 -3.4039 -2.5471 0.9634
8.3314 -3.3010 -2.5471 0.9634
8.3715 -3.1977 -2.5471 0.9634
8.3911 -3.1459 -2.5471 0.9634
8.4104 -3.0939 -2.5471 0.9634
8.4293 -3.0418 -2.5471 0.9634
8.4479 -2.9896 -2.5471 0.9634
8.4662 -2.9373 -2.5470 0.9634
8.4841 -2.8849 -2.5470 0.9634
8.5018 -2.8323 -2.5470 0.9634
8.5361 -2.7270 -2.5470 0.9634
8.5527 -2.6741 -2.5470 0.9634
8.5691 -2.6211 -2.5470 0.9634
8.5851 -2.5680 -2.5470 0.9634
8.6007 -2.5149 -2.5469 0.9634
8.6458 -2.3549 -2.5469 0.9634
8.6602 -2.3014 -2.5469 0.9634
8.6742 -2.2477 -2.5469 0.9634
8.7513 -1.9244 -2.5468 0.9634
8.7630 -1.8702 -2.5468 0.9634
8.7744 -1.8160 -2.5468 0.9634
8.7961 -1.7073 -2.5467 0.9634
8.8064 -1.6529 -2.5467 0.9634
8.8261 -1.5438 -2.5467 0.9634
8.8354 -1.4892 -2.5467 0.9634
8.8444 -1.4345 -2.5467 0.9634
8.8614 -1.3250 -2.5467 0.9634
8.8770 -1.2153 -2.5466 0.9634
8.9042 -0.9953 -2.5466 0.9634
8.9101 -0.9402 -2.5466 0.9634
8.9157 -0.8851 -2.5466 0.9634
8.9210 -0.8299 -2.5465 0.9634
8.9304 -0.7195 -2.5465 0.9634
8.9347 -0.6643 -2.5465 0.9634
8.9386 -0.6090 -2.5465 0.9634
8.9454 -0.4984 -2.5465 0.9634
8.9529 -0.3323 -2.5464 0.9634
8.9548 -0.2770 -2.5464 0.9634
8.9574 -0.1662 -2.5464 0.9634
8.9582 -0.1108 -2.5464 0.9634
8.9588 0.0000 -2.5463 0.9634
8.9586 0.0554 -2.5463 0.9634
8.9580 0.1108 -2.5463 0.9634
8.9559 0.2216 -2.5463 0.9634
8.9501 0.3877 -2.5462 0.9634
8.9445 0.4983 -2.5462 0.9634
8.9336 0.6642 -2.5462 0.9634
8.9293 0.7194 -2.5462 0.9634
8.9246 0.7746 -2.5462 0.9634
8.9196 0.8298 -2.5461 0.9634
8.9142 0.8849 -2.5461 0.9634
8.9025 0.9951 -2.5461 0.9634
8.8894 1.1051 -2.5461 0.9634
8.8750 1.2150 -2.5460 0.9634
8.8672 1.2698 -2.5460 0.9634
8.8592 1.3246 -2.5460 0.9634
8.8421 1.4341 -2.5460 0.9634
8.8329 1.4887 -2.5460 0.9634
8.8235 1.5433 -2.5460 0.9634
8.7932 1.7067 -2.5459 0.9634
8.7599 1.8695 -2.5459 0.9634
8.7481 1.9236 -2.5459 0.9634
8.7360 1.9777 -2.5459 0.9634
8.6977 2.1394 -2.5458 0.9634
8.6705 2.2468 -2.5458 0.9634
8.6564 2.3003 -2.5458 0.9634
8.6121 2.4605 -2.5457 0.9634
8.5648 2.6198 -2.5457 0.9634
8.5484 2.6727 -2.5457 0.9634
8.5317 2.7255 -2.5457 0.9634
8.5146 2.7782 -2.5457 0.9634
8.4615 2.9356 -2.5456 0.9634
8.4244 3.0400 -2.5456 0.9634
8.3862 3.1440 -2.5456 0.9634
8.3465 3.2474 -2.5455 0.9634
8.3056 3.3504 -2.5455 0.9634
8.2635 3.4528 -2.5455 0.9634
8.2200 3.5547 -2.5455 0.9634
8.1979 3.6054 -2.5455 0.9634
8.1526 3.7065 -2.5454 0.9634
8.1295 3.7568 -2.5454 0.9634
8.0339 3.9567 -2.5454 0.9634
7.9842 4.0557 -2.5453 0.9634
7.9590 4.1050 -2.5453 0.9634
7.9334 4.1541 -2.5453 0.9634
7.8813 4.2519 -2.5453 0.9634
7.8010 4.3973 -2.5453 0.9634
7.7736 4.4454 -2.5452 0.9634
7.7459 4.4934 -2.5452 0.9634
7.6897 4.5888 -2.5452 0.9634
7.6031 4.7306 -2.5452 0.9634
7.5140 4.8708 -2.5451 0.9634
7.4530 4.9633 -2.5451 0.9634
7.3910 5.0551 -2.5451 0.9634
7.3596 5.1006 -2.5451 0.9634
7.2636 5.2362 -2.5450 0.9634
7.2311 5.2810 -2.5450 0.9634
7.1318 5.4142 -2.5450 0.9634
7.0981 5.4582 -2.5450 0.9634
7.0642 5.5020 -2.5450 0.9635
6.9955 5.5888 -2.5450 0.9635
5.6392 4.6207 -2.0722 0.9701
5.5176 4.6363 -2.0484 0.9705
5.3831 4.6381 -2.0196 0.9709
5.1831 4.6360 -1.9765 0.9715
5.0587 4.6387 -1.9508 0.9719
4.8794 4.6438 -1.9146 0.9724
4.6809 4.6234 -1.8700 0.9730
4.6348 4.6348 -1.8630 0.9731
4.5907 4.6479 -1.8568 0.9732
4.5484 4.6623 -1.8513 0.9733
4.5138 4.6845 -1.8490 0.9733
4.4802 4.7075 -1.8471 0.9733
4.4523 4.7365 -1.8476 0.9733
4.4271 4.7685 -1.8494 0.9733
4.4023 4.8009 -1.8514 0.9733
4.3859 4.8428 -1.8571 0.9732
4.3404 4.9751 -1.8766 0.9729
4.3264 5.0214 -1.8839 0.9728
4.2841 5.2285 -1.9212 0.9723
4.2805 5.3579 -1.9492 0.9719
4.3274 5.5561 -2.0017 0.9711
4.2874 5.5755 -1.9991 0.9712
4.2861 5.7932 -2.0483 0.9705
4.2855 5.8679 -2.0653 0.9702
4.2843 5.9430 -2.0823 0.9700
4.2828 6.0190 -2.0997 0.9697
4.2587 6.2267 -2.1442 0.9691
4.2594 6.3112 -2.1641 0.9688
4.2631 6.4015 -2.1860 0.9685
4.2669 6.5823 -2.2296 0.9679
4.2733 6.7743 -2.2765 0.9672
4.2728 6.8672 -2.2988 0.9669
4.6821 7.6299 -2.5444 0.9635
4.6348 7.6587 -2.5444 0.9635
4.3958 7.7982 -2.5444 0.9635
4.1525 7.9303 -2.5443 0.9635
4.0541 7.9810 -2.5443 0.9635
3.5776 7.6174 -2.3920 0.9656
3.3881 7.7035 -2.3920 0.9656
3.3404 7.7243 -2.3920 0.9656
3.2925 7.7448 -2.3920 0.9656
3.2446 7.7650 -2.3920 0.9656
3.1965 7.7849 -2.3919 0.9656
3.0029 7.8615 -2.3919 0.9656
2.9542 7.8799 -2.3919 0.9656
2.9055 7.8980 -2.3919 0.9656
2.8565 7.9158 -2.3919 0.9656
2.8075 7.9333 -2.3919 0.9656
2.7092 7.9674 -2.3919 0.9656
2.6104 8.0003 -2.3919 0.9656
2.4615 8.0472 -2.3919 0.9656
2.3618 8.0771 -2.3919 0.9656
2.3118 8.0915 -2.3919 0.9656
2.2115 8.1194 -2.3918 0.9656
2.1109 8.1461 -2.3918 0.9656
2.0100 8.1716 -2.3918 0.9656
1.9088 8.1958 -2.3918 0.9656
1.8580 8.2074 -2.3918 0.9656
1.5544 8.2817 -2.3950 0.9656
1.5031 8.2911 -2.3950 0.9656
1.4518 8.3002 -2.3950 0.9656
1.4004 8.3090 -2.3950 0.9656
1.2975 8.3256 -2.3949 0.9656
1.1429 8.3481 -2.3949 0.9656
0.7805 8.3894 -2.3948 0.9656
0.6767 8.3983 -2.3948 0.9656
0.5727 8.4059 -2.3947 0.9656
0.4687 8.4123 -2.3947 0.9656
0.4167 8.4150 -2.3947 0.9656
0.3646 8.4173 -2.3947 0.9656
0.3126 8.4194 -2.3947 0.9656
0.2605 8.4211 -2.3947 0.9656
0.2084 8.4225 -2.3946 0.9656
0.1042 8.4243 -2.3946 0.9656
0.0521 8.4248 -2.3946 0.9656
-0.2604 8.4206 -2.3945 0.9656
-0.4686 8.4115 -2.3945 0.9656
-0.5206 8.4083 -2.3945 0.9656
-0.4524 5.6153 -1.6012 0.9768
-0.4874 5.6152 -1.6020 0.9768
-0.5574 5.6150 -1.6038 0.9768
-0.6276 5.6149 -1.6058 0.9768
-0.6628 5.6148 -1.6070 0.9768
-0.7686 5.6146 -1.6107 0.9767
-0.8395 5.6144 -1.6135 0.9767
-0.9168 5.6527 -1.6277 0.9765
-0.9887 5.6526 -1.6310 0.9764
-1.0609 5.6524 -1.6346 0.9764
-1.1334 5.6523 -1.6385 0.9763
-1.1698 5.6522 -1.6406 0.9763
-1.2063 5.6521 -1.6427 0.9763
-1.3163 5.6518 -1.6494 0.9762
-1.3532 5.6518 -1.6518 0.9761
-1.3902 5.6517 -1.6543 0.9761
-1.4273 5.6516 -1.6568 0.9761
-1.5393 5.6513 -1.6648 0.9759
-1.7285 5.6509 -1.6796 0.9757
-1.7668 5.6509 -1.6828 0.9757
-1.8052 5.6508 -1.6861 0.9756
-1.8825 5.6506 -1.6928 0.9755
-1.9214 5.6505 -1.6963 0.9755
-1.9604 5.6504 -1.6999 0.9754
-1.9996 5.6504 -1.7036 0.9754
-2.0785 5.6502 -1.7112 0.9753
-2.1183 5.6501 -1.7151 0.9752
-1.5549 3.9242 -1.1997 0.9826
-1.5658 3.8815 -1.1896 0.9827
-1.4667 3.4499 -1.0655 0.9845
-1.4839 3.4314 -1.0626 0.9846
-1.5295 3.4200 -1.0648 0.9845
-1.5520 3.3582 -1.0515 0.9847
-1.5645 3.2784 -1.0325 0.9850
-1.5707 3.2395 -1.0233 0.9851
-1.5826 3.1638 -1.0055 0.9854
-1.5539 3.0128 -0.9635 0.9860
-1.5712 3.0005 -0.9627 0.9860
-1.6144 2.9925 -0.9664 0.9860
-1.6260 2.9698 -0.9623 0.9860
-1.6374 2.9473 -0.9583 0.9861
-1.6488 2.9249 -0.9543 0.9861
-1.6600 2.9028 -0.9504 0.9862
-1.7042 2.8160 -0.9355 0.9864
-1.7364 2.7526 -0.9250 0.9866
-1.7575 2.7112 -0.9183 0.9867
-1.7987 2.6299 -0.9056 0.9868
-1.8162 2.5194 -0.8828 0.9872
-1.8299 2.5056 -0.8819 0.9872
-1.8437 2.4919 -0.8810 0.9872
-1.8710 2.4645 -0.8795 0.9872
-1.8846 2.4509 -0.8787 0.9872
-1.9118 2.4236 -0.8774 0.9872
-1.9254 2.4100 -0.8768 0.9873
-1.9389 2.3964 -0.8762 0.9873
-1.9660 2.3693 -0.8751 0.9873
-1.9930 2.3423 -0.8741 0.9873
-2.0200 2.3153 -0.8733 0.9873
-2.0334 2.3018 -0.8730 0.9873
-2.0603 2.2749 -0.8724 0.9873
-2.0871 2.2481 -0.8719 0.9873
-2.1656 2.1925 -0.8759 0.9873
-2.2013 2.1743 -0.8794 0.9872
-2.2193 2.1651 -0.8812 0.9872
-2.2555 2.1466 -0.8850 0.9871
-2.2738 2.1373 -0.8870 0.9871
-2.3104 2.1186 -0.8910 0.9870
-2.3289 2.1091 -0.8930 0.9870
-2.4226 2.0613 -0.9041 0.9869
-2.4607 2.0419 -0.9088 0.9868
-2.5187 2.0122 -0.9163 0.9867
-2.5383 2.0022 -0.9189 0.9866
-2.6731 2.0293 -0.9539 0.9861
-2.7016 2.0247 -0.9596 0.9861
-2.7597 2.0155 -0.9713 0.9859
-2.7894 2.0108 -0.9773 0.9858
-2.8497 2.0012 -0.9897 0.9856
-2.8804 1.9963 -0.9961 0.9855
-2.9116 1.9914 -1.0026 0.9854
-3.0851 1.9729 -1.0408 0.9849
-3.1275 1.9728 -1.0510 0.9847
-3.1707 1.9728 -1.0614 0.9846
-3.2598 1.9728 -1.0830 0.9843
-3.3058 1.9727 -1.0942 0.9841
-3.4005 1.9727 -1.1174 0.9838
-3.5505 1.9725 -1.1544 0.9833
-3.6562 1.9724 -1.1808 0.9829
-3.8241 1.9723 -1.2230 0.9823
-3.8827 1.9723 -1.2378 0.9821
-3.9428 1.9723 -1.2530 0.9818
-4.0045 1.9722 -1.2687 0.9816
-4.0241 1.9204 -1.2673 0.9816
-4.5683 2.0769 -1.4263 0.9793
-4.5856 2.0168 -1.4239 0.9794
-4.8850 2.0767 -1.5087 0.9782
-4.9700 2.0767 -1.5310 0.9779
-5.3591 2.0091 -1.6267 0.9765
-5.6438 2.0762 -1.7092 0.9753
-5.6776 2.0488 -1.7156 0.9752
-5.6775 1.9305 -1.7044 0.9754
-6.0398 1.9707 -1.8058 0.9739
-6.7379 1.9702 -1.9953 0.9712
-6.8956 1.9701 -2.0383 0.9706
-7.0602 1.9700 -2.0834 0.9700
-7.6007 1.9696 -2.2317 0.9679
-7.7962 1.9176 -2.2819 0.9672
-8.1885 1.9605 -2.3932 0.9656
-8.2005 1.9099 -2.3932 0.9656
-8.2236 1.8083 -2.3932 0.9656
-8.2346 1.7574 -2.3932 0.9656
-8.2557 1.6554 -2.3932 0.9656
-8.3032 1.3995 -2.3933 0.9656
-8.3118 1.3481 -2.3933 0.9656
-8.3356 1.1937 -2.3934 0.9656
-8.3566 1.0389 -2.3935 0.9656
-8.3690 0.9355 -2.3935 0.9656
-8.3746 0.8837 -2.3935 0.9656
-8.3801 0.8319 -2.3936 0.9656
-8.3899 0.7282 -2.3936 0.9656
-8.3943 0.6763 -2.3936 0.9656
-8.4056 0.5205 -2.3937 0.9656
-8.4088 0.4685 -2.3937 0.9656
-8.4197 0.2083 -2.3938 0.9656
-8.4218 0.1042 -2.3939 0.9656
-8.1906 0.0000 -2.3939 0.9664
-8.1905 -0.0507 -2.3939 0.9664
-8.1894 -0.1520 -2.3939 0.9664
-8.1884 -0.2026 -2.3940 0.9664
-8.1854 -0.3039 -2.3940 0.9664
-8.1834 -0.3545 -2.3940 0.9664
-8.1786 -0.4557 -2.3941 0.9664
-8.1689 -0.6073 -2.3941 0.9664
-8.1609 -0.7083 -2.3942 0.9664
-8.1564 -0.7588 -2.3942 0.9664
-8.1354 -0.9604 -2.3943 0.9664
-8.1164 -1.1112 -2.3943 0.9664
-8.1095 -1.1613 -2.3943 0.9664
-8.1022 -1.2115 -2.3944 0.9664
-8.0868 -1.3116 -2.3944 0.9664
-8.0700 -1.4115 -2.3944 0.9664
-8.0612 -1.4614 -2.3945 0.9664
-8.0427 -1.5611 -2.3945 0.9664
-8.0125 -1.7100 -2.3946 0.9664
-8.0018 -1.7596 -2.3946 0.9664
-7.9796 -1.8584 -2.3946 0.9664
-7.9314 -2.0553 -2.3947 0.9664
-7.9055 -2.1533 -2.3947 0.9664
-7.8921 -2.2021 -2.3947 0.9664
-7.8784 -2.2509 -2.3948 0.9664
-7.8644 -2.2996 -2.3948 0.9664
-7.8132 -2.3372 -2.3835 0.9666
-7.3150 -2.3368 -2.2444 0.9685
-6.8715 -2.3365 -2.1213 0.9702
-6.1155 -2.3360 -1.9133 0.9731
-6.0037 -2.3359 -1.8828 0.9735
-5.8953 -2.3358 -1.8533 0.9739
-5.5742 -2.2887 -1.7612 0.9752
-5.5742 -2.3291 -1.7657 0.9751
-5.5741 -2.3697 -1.7703 0.9751
-5.5741 -2.4105 -1.7749 0.9750
-5.4575 -2.4406 -1.7473 0.9754
-5.3681 -2.4406 -1.7235 0.9757
-4.9798 -2.3765 -1.6127 0.9773
-4.9034 -2.3774 -1.5927 0.9775
-4.8764 -2.4016 -1.5887 0.9776
-4.8784 -2.4402 -1.5942 0.9775
-4.3917 -2.4399 -1.4683 0.9793
-3.9916 -2.2826 -1.3439 0.9810
-3.9091 -2.3328 -1.3305 0.9812
-3.6007 -2.3341 -1.2542 0.9823
-3.5523 -2.3341 -1.2423 0.9824
-3.5049 -2.3341 -1.2307 0.9826
-3.4583 -2.3340 -1.2194 0.9828
-3.4125 -2.3340 -1.2083 0.9829
-3.3676 -2.3340 -1.1975 0.9831
-3.2801 -2.3339 -1.1766 0.9834
-3.2375 -2.3339 -1.1665 0.9835
-3.1956 -2.3338 -1.1565 0.9836
-3.1544 -2.3338 -1.1468 0.9838
-3.1139 -2.3338 -1.1373 0.9839
-2.9963 -2.3337 -1.1100 0.9843
-2.9215 -2.3341 -1.0929 0.9845
-2.8908 -2.3389 -1.0868 0.9846
-2.8302 -2.3485 -1.0749 0.9848
-2.8005 -2.3531 -1.0691 0.9849
-2.7130 -2.3669 -1.0523 0.9851
-2.6845 -2.3714 -1.0469 0.9852
-2.6283 -2.3803 -1.0364 0.9853
-2.6006 -2.3846 -1.0312 0.9854
-2.5731 -2.3889 -1.0262 0.9855
-2.5460 -2.3932 -1.0213 0.9855
-2.5191 -2.3974 -1.0164 0.9856
-2.4925 -2.4016 -1.0116 0.9857
-2.4452 -2.4151 -1.0045 0.9858
-2.3268 -2.4753 -0.9929 0.9859
-2.2879 -2.4951 -0.9894 0.9860
-2.2493 -2.5147 -0.9861 0.9860
-2.1758 -2.4940 -0.9673 0.9863
-2.1010 -2.5320 -0.9616 0.9864
-2.0639 -2.5509 -0.9590 0.9864
-2.0271 -2.5696 -0.9566 0.9865
-1.9956 -2.5951 -0.9568 0.9865
-1.9811 -2.6096 -0.9576 0.9864
-1.9521 -2.6385 -0.9593 0.9864
-1.9084 -2.6821 -0.9621 0.9864
-1.8645 -2.7260 -0.9653 0.9863
-1.8202 -2.7702 -0.9688 0.9863
-1.8342 -2.8295 -0.9855 0.9860
-1.8039 -2.8596 -0.9882 0.9860
-1.7735 -2.8900 -0.9910 0.9860
-1.7582 -2.9053 -0.9925 0.9859
-1.7013 -2.9751 -1.0017 0.9858
-1.6898 -2.9977 -1.0057 0.9858
-1.6781 -3.0205 -1.0099 0.9857
-1.6664 -3.0436 -1.0141 0.9856
-1.6545 -3.0668 -1.0185 0.9856
-1.6425 -3.0902 -1.0228 0.9855
-1.6061 -3.1617 -1.0365 0.9853
-1.5937 -3.1860 -1.0412 0.9853
-1.5686 -3.2352 -1.0508 0.9851
-1.5430 -3.2853 -1.0608 0.9850
-1.5300 -3.3107 -1.0660 0.9849
-1.5037 -3.3623 -1.0765 0.9848
-1.4964 -3.4024 -1.0864 0.9846
-1.4828 -3.4879 -1.1077 0.9843
-1.4463 -3.7172 -1.1658 0.9835
-1.4075 -3.8260 -1.1915 0.9832
-1.3838 -3.8347 -1.1915 0.9832
-1.4172 -4.0849 -1.2637 0.9821
-1.4416 -4.2397 -1.3088 0.9815
-2.0019 -6.0090 -1.8512 0.9740
-1.8788 -6.0091 -1.8401 0.9741
-1.8381 -6.0092 -1.8366 0.9742
-1.7975 -6.0092 -1.8332 0.9742
-1.6768 -6.0093 -1.8234 0.9743
-1.6368 -6.0093 -1.8203 0.9744
-1.5176 -6.0094 -1.8115 0.9745
-1.4388 -6.0094 -1.8060 0.9746
-1.3214 -6.0095 -1.7984 0.9747
-1.2825 -6.0095 -1.7960 0.9747
-1.1664 -6.0096 -1.7892 0.9748
-1.1279 -6.0096 -1.7871 0.9748
-1.0129 -6.0096 -1.7812 0.9749
-0.9747 -6.0097 -1.7794 0.9749
-0.8227 -6.0097 -1.7728 0.9750
-0.7849 -6.0097 -1.7714 0.9751
-0.7471 -6.0097 -1.7700 0.9751
-0.7094 -6.0098 -1.7687 0.9751
-0.6718 -6.0098 -1.7674 0.9751
-0.6342 -6.0098 -1.7662 0.9751
-0.5591 -6.0099 -1.7641 0.9752
-0.5216 -6.0099 -1.7631 0.9752
-0.4468 -6.0099 -1.7614 0.9752
-0.4095 -6.0100 -1.7606 0.9752
-0.3721 -6.0102 -1.7599 0.9752
-0.4192 -7.5231 -2.2022 0.9691
-0.3548 -8.1907 -2.3961 0.9664
-0.3041 -8.1928 -2.3962 0.9664
-0.2534 -8.1946 -2.3962 0.9664
-0.2028 -8.1960 -2.3962 0.9664
-0.1521 -8.1971 -2.3962 0.9664
0.0000 -8.1987 -2.3962 0.9664
0.0507 -8.1986 -2.3962 0.9664
0.2535 -8.1950 -2.3963 0.9664
0.3042 -8.1933 -2.3963 0.9664
0.3549 -8.1913 -2.3963 0.9664
0.4561 -8.1863 -2.3963 0.9664
0.5067 -8.1834 -2.3964 0.9664
0.6079 -8.1766 -2.3964 0.9664
0.6585 -8.1727 -2.3964 0.9664
0.7091 -8.1686 -2.3964 0.9664
0.7595 -8.1641 -2.3964 0.9664
0.8100 -8.1592 -2.3964 0.9664
0.8604 -8.1541 -2.3964 0.9664
1.0116 -8.1369 -2.3965 0.9664
1.0619 -8.1305 -2.3965 0.9664
1.1624 -8.1168 -2.3965 0.9664
1.2662 -7.8071 -2.3116 0.9676
1.2638 -7.2255 -2.1439 0.9699
1.2975 -7.1569 -2.1258 0.9701
1.3786 -6.8752 -2.0494 0.9712
1.5118 -6.8751 -2.0574 0.9711
1.6012 -6.8750 -2.0631 0.9710
1.6461 -6.8750 -2.0661 0.9710
1.6911 -6.8750 -2.0692 0.9709
1.7815 -6.8749 -2.0757 0.9708
1.8725 -6.8748 -2.0825 0.9707
2.2518 -7.8815 -2.3957 0.9664
2.3005 -7.8674 -2.3957 0.9664
2.3491 -7.8531 -2.3957 0.9664
2.3977 -7.8384 -2.3957 0.9664
2.4461 -7.8234 -2.3957 0.9664
2.4944 -7.8081 -2.3957 0.9664
2.5908 -7.7766 -2.3957 0.9664
2.6388 -7.7605 -2.3957 0.9664
2.6867 -7.7440 -2.3957 0.9664
2.7346 -7.7272 -2.3957 0.9664
2.8299 -7.6928 -2.3957 0.9664
2.8775 -7.6751 -2.3957 0.9664
2.9721 -7.6389 -2.3957 0.9664
3.0193 -7.6204 -2.3957 0.9664
3.1602 -7.5630 -2.3956 0.9664
3.2069 -7.5433 -2.3956 0.9664
3.3462 -7.4825 -2.3956 0.9664
3.4385 -7.4405 -2.3956 0.9664
3.5303 -7.3974 -2.3956 0.9664
3.5759 -7.3754 -2.3956 0.9664
3.6215 -7.3531 -2.3956 0.9664
3.6669 -7.3306 -2.3956 0.9664
3.7572 -7.2846 -2.3956 0.9664
3.8022 -7.2613 -2.3956 0.9664
3.8917 -7.2137 -2.3956 0.9664
3.9806 -7.1649 -2.3956 0.9664
4.0517 -6.9844 -2.3599 0.9669
4.0480 -6.7834 -2.3088 0.9676
4.0462 -6.6861 -2.2841 0.9680
4.0428 -6.4976 -2.2366 0.9686
4.0411 -6.4062 -2.2138 0.9689
4.0379 -6.2290 -2.1696 0.9695
4.0363 -6.1430 -2.1483 0.9698
4.1749 -6.0237 -2.1421 0.9699
4.2308 -6.0246 -2.1516 0.9698
4.2895 -6.0286 -2.1625 0.9696
4.3509 -6.0355 -2.1746 0.9695
3.9996 -5.4764 -1.9820 0.9721
3.9981 -5.4040 -1.9647 0.9724
3.9962 -5.3321 -1.9475 0.9726
3.9948 -5.2620 -1.9309 0.9728
4.0456 -5.2611 -1.9397 0.9727
4.0969 -5.2602 -1.9487 0.9726
4.2010 -5.2584 -1.9671 0.9723
4.2538 -5.2575 -1.9766 0.9722
4.3071 -5.2566 -1.9862 0.9721
5.6902 -6.6043 -2.5479 0.9643
5.8118 -6.4975 -2.5478 0.9643
5.9706 -6.3517 -2.5478 0.9643
6.1258 -6.2020 -2.5478 0.9643
6.2020 -6.1257 -2.5478 0.9643
6.2397 -6.0872 -2.5478 0.9643
6.2772 -6.0485 -2.5477 0.9643
6.3515 -5.9704 -2.5477 0.9643
6.4248 -5.8913 -2.5477 0.9643
6.4971 -5.8114 -2.5477 0.9643
6.5329 -5.7711 -2.5477 0.9643
6.5685 -5.7305 -2.5477 0.9643
6.6038 -5.6898 -2.5477 0.9643
6.6388 -5.6488 -2.5477 0.9643
6.6736 -5.6076 -2.5476 0.9643
6.7424 -5.5246 -2.5476 0.9643
6.7764 -5.4828 -2.5476 0.9643
6.8102 -5.4407 -2.5476 0.9643
6.8436 -5.3985 -2.5476 0.9643
6.8769 -5.3561 -2.5476 0.9643
6.9098 -5.3134 -2.5476 0.9643
6.9425 -5.2706 -2.5476 0.9643
7.0072 -5.1843 -2.5476 0.9643
7.0707 -5.0971 -2.5475 0.9643
7.1020 -5.0533 -2.5475 0.9643
7.1639 -4.9651 -2.5475 0.9643
7.1945 -4.9206 -2.5475 0.9643
7.2247 -4.8761 -2.5475 0.9643
7.3139 -4.7411 -2.5475 0.9643
7.3430 -4.6957 -2.5474 0.9643
7.4288 -4.5587 -2.5474 0.9643
7.4845 -4.4664 -2.5474 0.9643
7.5120 -4.4200 -2.5474 0.9643
7.5660 -4.3267 -2.5474 0.9643
7.5926 -4.2798 -2.5473 0.9643
7.6189 -4.2328 -2.5473 0.9643
7.6706 -4.1382 -2.5473 0.9643
7.6960 -4.0907 -2.5473 0.9643
7.7459 -3.9951 -2.5473 0.9643
7.7705 -3.9471 -2.5473 0.9643
7.9113 -3.6561 -2.5472 0.9643
7.9559 -3.5579 -2.5472 0.9643
7.9992 -3.4592 -2.5472 0.9643
8.0204 -3.4096 -2.5471 0.9643
8.0413 -3.3600 -2.5471 0.9643
8.0619 -3.3102 -2.5471 0.9643
8.1021 -3.2102 -2.5471 0.9643
8.1973 -2.9581 -2.5470 0.9643
8.2154 -2.9073 -2.5470 0.9643
8.2332 -2.8564 -2.5470 0.9643
8.2506 -2.8055 -2.5470 0.9643
8.2678 -2.7544 -2.5470 0.9643
8.2846 -2.7032 -2.5470 0.9643
8.3790 -2.3939 -2.5469 0.9643
8.3936 -2.3420 -2.5469 0.9643
8.4079 -2.2901 -2.5469 0.9643
8.4988 -1.9240 -2.5468 0.9643
8.5329 -1.7660 -2.5468 0.9643
8.5641 -1.6074 -2.5467 0.9643
8.5738 -1.5544 -2.5467 0.9643
8.5923 -1.4482 -2.5467 0.9643
8.6010 -1.3950 -2.5467 0.9643
8.6398 -1.1284 -2.5466 0.9643
8.6530 -1.0214 -2.5466 0.9643
8.6592 -0.9679 -2.5466 0.9643
8.6649 -0.9143 -2.5466 0.9643
8.6704 -0.8607 -2.5465 0.9643
8.6755 -0.8071 -2.5465 0.9643
8.6926 -0.5922 -2.5465 0.9643
8.6961 -0.5385 -2.5465 0.9643
8.6992 -0.4847 -2.5465 0.9643
8.7020 -0.4309 -2.5464 0.9643
8.7045 -0.3771 -2.5464 0.9643
8.7098 -0.2155 -2.5464 0.9643
8.7109 -0.1616 -2.5464 0.9643
8.7121 0.0539 -2.5463 0.9643
8.7095 0.2155 -2.5463 0.9643
8.7079 0.2693 -2.5463 0.9643
8.7060 0.3232 -2.5463 0.9643
8.7038 0.3770 -2.5462 0.9643
8.7013 0.4308 -2.5462 0.9643
8.6984 0.4846 -2.5462 0.9643
8.6791 0.7533 -2.5462 0.9643
8.6634 0.9142 -2.5461 0.9643
8.6576 0.9677 -2.5461 0.9643
8.6308 1.1815 -2.5460 0.9643
8.6233 1.2349 -2.5460 0.9643
8.6073 1.3414 -2.5460 0.9643
8.5713 1.5539 -2.5460 0.9643
8.5615 1.6069 -2.5459 0.9643
8.5513 1.6597 -2.5459 0.9643
8.5408 1.7126 -2.5459 0.9643
8.5300 1.7654 -2.5459 0.9644
8.5189 1.8181 -2.5459 0.9644
8.5075 1.8707 -2.5459 0.9644
8.4320 2.1850 -2.5458 0.9644
8.4182 2.2371 -2.5458 0.9644
8.4042 2.2891 -2.5458 0.9644
8.3132 2.5992 -2.5457 0.9644
8.2804 2.7018 -2.5457 0.9644
8.2635 2.7529 -2.5457 0.9644
8.2287 2.8549 -2.5456 0.9644
8.1927 2.9564 -2.5456 0.9644
8.1742 3.0070 -2.5456 0.9644
8.1363 3.1079 -2.5456 0.9644
8.1169 3.1581 -2.5456 0.9644
8.0362 3.3578 -2.5455 0.9644
8.0152 3.4074 -2.5455 0.9644
7.9505 3.5555 -2.5455 0.9644
7.9059 3.6535 -2.5454 0.9644
7.8830 3.7023 -2.5454 0.9644
7.8129 3.8479 -2.5454 0.9644
7.7889 3.8961 -2.5454 0.9644
7.7646 3.9442 -2.5454 0.9644
7.7401 3.9921 -2.5454 0.9644
7.6388 4.1822 -2.5453 0.9644
7.6128 4.2294 -2.5453 0.9644
7.5598 4.3232 -2.5453 0.9644
7.5329 4.3698 -2.5453 0.9644
7.5057 4.4163 -2.5452 0.9644
7.4782 4.4626 -2.5452 0.9644
7.3654 4.6461 -2.5452 0.9644
7.3365 4.6916 -2.5452 0.9644
7.3073 4.7368 -2.5452 0.9644
7.2481 4.8268 -2.5451 0.9644
7.2181 4.8715 -2.5451 0.9644
7.1878 4.9160 -2.5451 0.9644
7.1572 4.9604 -2.5451 0.9644
7.1263 5.0045 -2.5451 0.9644
7.0953 5.0485 -2.5451 0.9644
7.0003 5.1792 -2.5451 0.9644
6.9681 5.2223 -2.5450 0.9644
6.7694 5.4771 -2.5450 0.9644
5.6467 4.6268 -2.1336 0.9700
5.5656 4.6182 -2.1137 0.9703
5.4312 4.6213 -2.0842 0.9707
5.3670 4.6242 -2.0705 0.9709
5.1721 4.6262 -2.0281 0.9715
5.0482 4.6290 -2.0018 0.9719
4.8137 4.6383 -1.9538 0.9725
4.7170 4.6017 -1.9260 0.9729
4.6655 4.6082 -1.9166 0.9730
4.6145 4.6145 -1.9073 0.9732
4.3986 4.7970 -1.9022 0.9732
4.3504 4.9247 -1.9205 0.9730
4.3198 5.0138 -1.9343 0.9728
4.3376 5.2275 -1.9853 0.9721
4.3400 5.4324 -2.0322 0.9714
4.2960 5.4460 -2.0273 0.9715
4.3027 5.5954 -2.0630 0.9710
4.2879 5.6482 -2.0726 0.9709
4.2877 5.7211 -2.0896 0.9706
4.2853 5.7921 -2.1058 0.9704
4.2754 5.9307 -2.1368 0.9700
4.2679 6.3237 -2.2298 0.9687
4.2729 6.4162 -2.2530 0.9684
4.2752 6.5065 -2.2754 0.9681
4.2775 6.5987 -2.2984 0.9678
4.3218 7.5573 -2.5444 0.9644
3.7967 7.2506 -2.3921 0.9665
3.7517 7.2740 -2.3921 0.9665
3.7066 7.2970 -2.3921 0.9665
3.6615 7.3198 -2.3921 0.9665
3.6161 7.3422 -2.3921 0.9665
3.5706 7.3645 -2.3921 0.9665
3.5250 7.3864 -2.3921 0.9665
3.4793 7.4080 -2.3920 0.9665
3.4333 7.4294 -2.3920 0.9665
3.3874 7.4504 -2.3920 0.9665
3.2950 7.4917 -2.3920 0.9665
3.2485 7.5120 -2.3920 0.9665
3.1554 7.5515 -2.3920 0.9665
3.1086 7.5709 -2.3920 0.9665
3.0147 7.6087 -2.3920 0.9665
2.6826 7.7319 -2.3919 0.9665
2.5386 7.7803 -2.3919 0.9665
2.4905 7.7958 -2.3919 0.9665
2.4422 7.8111 -2.3919 0.9665
2.3938 7.8260 -2.3919 0.9665
2.2969 7.8550 -2.3919 0.9665
2.1996 7.8828 -2.3919 0.9665
2.1508 7.8962 -2.3919 0.9665
2.1019 7.9093 -2.3919 0.9665
2.0529 7.9222 -2.3919 0.9665
2.0039 7.9347 -2.3919 0.9665
1.9056 7.9588 -2.3919 0.9665
1.8563 7.9705 -2.3919 0.9665
1.8070 7.9818 -2.3919 0.9665
1.6586 8.0139 -2.3919 0.9665
1.5614 8.0444 -2.3950 0.9664
1.4119 8.0719 -2.3950 0.9664
1.1114 8.1184 -2.3949 0.9664
1.0612 8.1251 -2.3949 0.9664
1.0109 8.1314 -2.3949 0.9664
0.8599 8.1487 -2.3948 0.9664
0.7085 8.1631 -2.3948 0.9664
0.6581 8.1673 -2.3948 0.9664
0.6075 8.1711 -2.3948 0.9664
0.4052 8.1835 -2.3947 0.9664
0.1520 8.1919 -2.3947 0.9664
0.1014 8.1926 -2.3946 0.9664
-0.1013 8.1924 -2.3946 0.9664
-0.1520 8.1916 -2.3946 0.9664
-0.2533 8.1890 -2.3946 0.9664
-0.4557 8.1801 -2.3945 0.9664
-0.4883 7.1670 -2.0995 0.9705
-0.5329 7.1670 -2.1005 0.9705
-0.5260 5.6536 -1.6595 0.9766
-0.5966 5.6534 -1.6615 0.9766
-0.6673 5.6533 -1.6638 0.9766
-0.7028 5.6532 -1.6650 0.9765
-0.7739 5.6530 -1.6676 0.9765
-0.8096 5.6529 -1.6690 0.9765
-0.9168 5.6527 -1.6737 0.9764
-0.9887 5.6526 -1.6772 0.9764
-1.0247 5.6525 -1.6790 0.9763
-1.0609 5.6524 -1.6809 0.9763
-1.0971 5.6523 -1.6828 0.9763
-1.2795 5.6520 -1.6937 0.9761
-1.3163 5.6519 -1.6961 0.9761
-1.5393 5.6514 -1.7119 0.9759
-1.6146 5.6512 -1.7178 0.9758
-1.6524 5.6511 -1.7208 0.9758
-1.6904 5.6510 -1.7239 0.9757
-1.7285 5.6509 -1.7271 0.9757
-1.8052 5.6508 -1.7338 0.9756
-1.8438 5.6507 -1.7372 0.9755
-1.8825 5.6506 -1.7407 0.9755
-1.9604 5.6505 -1.7480 0.9754
-2.0390 5.6503 -1.7556 0.9753
-2.0785 5.6502 -1.7596 0.9752
-2.1182 5.6501 -1.7636 0.9752
-2.1582 5.6500 -1.7677 0.9751
-1.5548 3.9243 -1.2337 0.9826
-1.5461 3.7654 -1.1897 0.9832
-1.5693 3.7557 -1.1897 0.9832
-1.4667 3.4499 -1.0956 0.9845
-1.4839 3.4314 -1.0926 0.9845
-1.5075 3.4276 -1.0944 0.9845
-1.5455 3.3993 -1.0914 0.9846
-1.5520 3.3582 -1.0813 0.9847
-1.5645 3.2784 -1.0617 0.9850
-1.5826 3.1638 -1.0339 0.9854
-1.5884 3.1270 -1.0251 0.9855
-1.5941 3.0907 -1.0164 0.9856
-1.5997 3.0551 -1.0079 0.9857
-1.6144 2.9925 -0.9938 0.9859
-1.6260 2.9698 -0.9896 0.9860
-1.6374 2.9473 -0.9854 0.9860
-1.6488 2.9249 -0.9813 0.9861
-1.6823 2.8590 -0.9695 0.9863
-1.7042 2.8160 -0.9620 0.9864
-1.7150 2.7947 -0.9583 0.9864
-1.7885 2.6500 -0.9344 0.9868
-1.7988 2.6299 -0.9312 0.9868
-1.7887 2.5470 -0.9096 0.9871
-1.8024 2.5332 -0.9087 0.9871
-1.8300 2.5056 -0.9068 0.9872
-1.8573 2.4782 -0.9051 0.9872
-1.8846 2.4509 -0.9036 0.9872
-1.9118 2.4236 -0.9022 0.9872
-2.0065 2.3288 -0.8984 0.9873
-2.0200 2.3153 -0.8980 0.9873
-2.0334 2.3018 -0.8977 0.9873
-2.0603 2.2749 -0.8970 0.9873
-2.1139 2.2212 -0.8962 0.9873
-2.1478 2.2016 -0.8989 0.9873
-2.1834 2.1834 -0.9025 0.9872
-2.2013 2.1743 -0.9043 0.9872
-2.2555 2.1466 -0.9100 0.9871
-2.3848 2.0806 -0.9250 0.9869
-2.4037 2.0710 -0.9273 0.9869
-2.4416 2.0516 -0.9321 0.9868
-2.4993 2.0222 -0.9396 0.9867
-2.5187 2.0122 -0.9422 0.9867
-2.5383 2.0022 -0.9449 0.9866
-2.6170 2.0382 -0.9695 0.9863
-2.6449 2.0338 -0.9751 0.9862
-2.6731 2.0293 -0.9809 0.9861
-2.7016 2.0248 -0.9868 0.9860
-2.8193 2.0061 -1.0113 0.9857
-2.8497 2.0012 -1.0177 0.9856
-2.8804 1.9963 -1.0243 0.9855
-2.9116 1.9914 -1.0310 0.9854
-2.9432 1.9863 -1.0378 0.9853
-3.0075 1.9761 -1.0518 0.9851
-3.0435 1.9729 -1.0601 0.9850
-3.1707 1.9728 -1.0914 0.9846
-3.2148 1.9728 -1.1024 0.9844
-3.2598 1.9728 -1.1136 0.9842
-3.3058 1.9727 -1.1251 0.9841
-3.4994 1.9726 -1.1741 0.9834
-3.6028 1.9725 -1.2005 0.9830
-3.7109 1.9724 -1.2283 0.9826
-3.7668 1.9724 -1.2427 0.9824
-3.8241 1.9724 -1.2576 0.9822
-3.9429 1.9722 -1.2885 0.9818
-4.0125 1.9454 -1.3033 0.9816
-4.0889 1.9204 -1.3203 0.9814
-4.4944 2.0770 -1.4471 0.9796
-4.8025 2.0768 -1.5292 0.9784
-4.8850 2.0767 -1.5514 0.9781
-5.0576 2.0766 -1.5979 0.9775
-5.0376 2.0321 -1.5876 0.9776
-5.0802 2.0128 -1.5971 0.9775
-5.6775 1.9305 -1.7527 0.9753
-6.0399 1.9707 -1.8569 0.9739
-6.3026 1.9705 -1.9300 0.9729
-6.4419 1.9704 -1.9689 0.9723
-6.5869 1.9704 -2.0094 0.9718
-6.7380 1.9702 -2.0518 0.9712
-6.8957 1.9701 -2.0960 0.9706
-7.0602 1.9700 -2.1423 0.9699
-7.2323 1.9699 -2.1908 0.9692
-7.6008 1.9696 -2.2949 0.9678
-7.7986 1.9695 -2.3508 0.9670
-7.9634 1.9067 -2.3933 0.9665
-7.9751 1.8574 -2.3933 0.9665
-7.9864 1.8080 -2.3933 0.9665
-8.0287 1.6099 -2.3933 0.9665
-8.0386 1.5603 -2.3933 0.9665
-8.0480 1.5105 -2.3933 0.9665
-8.0572 1.4607 -2.3933 0.9665
-8.0662 1.4108 -2.3933 0.9665
-8.0829 1.3110 -2.3933 0.9665
-8.0909 1.2610 -2.3933 0.9665
-8.0986 1.2109 -2.3933 0.9665
-8.1265 1.0103 -2.3934 0.9664
-8.1327 0.9600 -2.3934 0.9664
-8.1385 0.9097 -2.3935 0.9664
-8.1441 0.8594 -2.3935 0.9664
-8.1493 0.8090 -2.3935 0.9664
-8.1631 0.6577 -2.3936 0.9664
-8.1671 0.6072 -2.3936 0.9664
-8.1742 0.5062 -2.3937 0.9664
-8.1800 0.4050 -2.3937 0.9664
-8.1863 0.2532 -2.3938 0.9664
-8.1890 0.1519 -2.3938 0.9664
-8.1898 0.1013 -2.3938 0.9664
-7.9700 -0.0493 -2.3938 0.9673
-7.9697 -0.0986 -2.3939 0.9673
-7.9680 -0.1971 -2.3939 0.9673
-7.9651 -0.2957 -2.3939 0.9673
-7.9609 -0.3942 -2.3940 0.9673
-7.9584 -0.4434 -2.3940 0.9673
-7.9556 -0.4926 -2.3940 0.9673
-7.9525 -0.5418 -2.3940 0.9673
-7.9490 -0.5910 -2.3941 0.9673
-7.9453 -0.6402 -2.3941 0.9673
-7.9322 -0.7874 -2.3941 0.9673
-7.9273 -0.8365 -2.3942 0.9673
-7.9220 -0.8855 -2.3942 0.9673
-7.9106 -0.9834 -2.3942 0.9673
-7.8979 -1.0812 -2.3943 0.9673
-7.8841 -1.1788 -2.3943 0.9673
-7.8690 -1.2763 -2.3943 0.9673
-7.8611 -1.3249 -2.3943 0.9673
-7.8528 -1.3735 -2.3944 0.9673
-7.8353 -1.4706 -2.3944 0.9673
-7.8261 -1.5190 -2.3944 0.9673
-7.7968 -1.6640 -2.3945 0.9673
-7.7864 -1.7122 -2.3945 0.9673
-7.7648 -1.8084 -2.3945 0.9673
-7.7535 -1.8564 -2.3945 0.9673
-7.7301 -1.9522 -2.3946 0.9672
-7.7179 -2.0000 -2.3946 0.9672
-7.6387 -2.2850 -2.3947 0.9672
-7.4744 -2.3369 -2.3521 0.9678
-7.3149 -2.3368 -2.3064 0.9684
-7.1615 -2.3367 -2.2625 0.9690
-7.0137 -2.3366 -2.2204 0.9696
-6.8715 -2.3365 -2.1799 0.9701
-6.4740 -2.3362 -2.0672 0.9717
-6.1155 -2.3360 -1.9662 0.9730
-6.0036 -2.3359 -1.9348 0.9735
-5.5742 -2.3291 -1.8144 0.9751
-5.5741 -2.4105 -1.8240 0.9750
-5.5495 -2.4407 -1.8208 0.9750
-5.3680 -2.4405 -1.7711 0.9757
-5.0763 -2.4225 -1.6894 0.9768
-4.8289 -2.3783 -1.6167 0.9778
-4.7160 -2.3956 -1.5887 0.9782
-4.4453 -2.3982 -1.5170 0.9791
-4.4564 -2.4399 -1.5259 0.9790
-4.3283 -2.4398 -1.4923 0.9795
-3.9915 -2.2826 -1.3810 0.9810
-3.8573 -2.3343 -1.3541 0.9813
-3.7516 -2.3342 -1.3271 0.9817
-3.4125 -2.3340 -1.2417 0.9829
-3.3676 -2.3340 -1.2306 0.9830
-3.2801 -2.3339 -1.2091 0.9833
-3.1544 -2.3338 -1.1785 0.9837
-3.1139 -2.3338 -1.1688 0.9839
-3.0741 -2.3338 -1.1592 0.9840
-2.9963 -2.3337 -1.1407 0.9843
-2.9584 -2.3337 -1.1317 0.9844
-2.9215 -2.3341 -1.1231 0.9845
-2.8603 -2.3437 -1.1106 0.9847
-2.8302 -2.3485 -1.1046 0.9848
-2.7419 -2.3624 -1.0870 0.9850
-2.6562 -2.3759 -1.0704 0.9852
-2.5731 -2.3889 -1.0546 0.9854
-2.5191 -2.3975 -1.0445 0.9856
-2.4661 -2.4058 -1.0348 0.9857
-2.4452 -2.4151 -1.0322 0.9857
-2.4054 -2.4353 -1.0281 0.9858
-2.3659 -2.4554 -1.0241 0.9859
-2.3463 -2.4654 -1.0222 0.9859
-2.3073 -2.4852 -1.0185 0.9859
-2.2879 -2.4951 -1.0167 0.9860
-2.2686 -2.5049 -1.0150 0.9860
-2.2109 -2.5342 -1.0101 0.9861
-2.1349 -2.5729 -1.0041 0.9861
-2.1161 -2.5825 -1.0028 0.9862
-2.0274 -2.6365 -0.9989 0.9862
-1.9980 -2.6659 -1.0006 0.9862
-1.8642 -2.7994 -1.0102 0.9861
-1.8492 -2.8144 -1.0114 0.9860
-1.8342 -2.8294 -1.0127 0.9860
-1.7735 -2.8900 -1.0184 0.9859
-1.7275 -2.9359 -1.0231 0.9859
-1.7128 -2.9526 -1.0252 0.9858
-1.6898 -2.9977 -1.0335 0.9857
-1.6664 -3.0436 -1.0422 0.9856
-1.6183 -3.1377 -1.0604 0.9854
-1.6061 -3.1617 -1.0651 0.9853
-1.5937 -3.1860 -1.0699 0.9852
-1.5812 -3.2104 -1.0749 0.9852
-1.4828 -3.4879 -1.1383 0.9843
-1.4613 -3.6227 -1.1732 0.9838
-1.4539 -3.6695 -1.1855 0.9837
-1.4384 -3.6970 -1.1915 0.9836
-1.4155 -3.7058 -1.1915 0.9836
-1.3938 -3.7177 -1.1925 0.9836
-1.3859 -3.7673 -1.2056 0.9834
-1.3778 -3.8180 -1.2191 0.9832
-1.3945 -3.9404 -1.2554 0.9827
-1.4172 -4.0849 -1.2986 0.9821
-2.0019 -6.0090 -1.9023 0.9739
-1.9607 -6.0091 -1.8984 0.9739
-1.9196 -6.0091 -1.8947 0.9740
-1.8788 -6.0091 -1.8910 0.9740
-1.8381 -6.0091 -1.8874 0.9741
-1.7975 -6.0092 -1.8839 0.9741
-1.7571 -6.0092 -1.8804 0.9742
-1.5969 -6.0093 -1.8675 0.9744
-1.5572 -6.0093 -1.8645 0.9744
-1.4782 -6.0094 -1.8587 0.9745
-1.4388 -6.0094 -1.8559 0.9745
-1.3996 -6.0094 -1.8532 0.9746
-1.3605 -6.0095 -1.8506 0.9746
-1.2826 -6.0095 -1.8456 0.9747
-1.2437 -6.0095 -1.8432 0.9747
-1.2050 -6.0095 -1.8409 0.9747
-1.1664 -6.0095 -1.8386 0.9748
-1.1279 -6.0096 -1.8365 0.9748
-1.0895 -6.0096 -1.8344 0.9748
-1.0129 -6.0096 -1.8304 0.9749
-0.9747 -6.0096 -1.8285 0.9749
-0.8986 -6.0096 -1.8250 0.9749
-0.8606 -6.0096 -1.8234 0.9750
-0.7094 -6.0097 -1.8175 0.9750
-0.6342 -6.0098 -1.8150 0.9751
-0.5966 -6.0098 -1.8139 0.9751
-0.5591 -6.0098 -1.8128 0.9751
-0.5216 -6.0099 -1.8118 0.9751
-0.4468 -6.0099 -1.8100 0.9751
-0.4095 -6.0100 -1.8093 0.9752
-0.4191 -7.5230 -2.2630 0.9690
-0.3725 -7.5229 -2.2622 0.9690
-0.2959 -7.9724 -2.3961 0.9672
-0.1973 -7.9755 -2.3962 0.9672
-0.1480 -7.9766 -2.3962 0.9672
-0.0986 -7.9774 -2.3962 0.9672
-0.0493 -7.9779 -2.3962 0.9672
0.0000 -7.9781 -2.3962 0.9672
0.0987 -7.9776 -2.3962 0.9672
0.1481 -7.9769 -2.3962 0.9672
0.2960 -7.9729 -2.3963 0.9672
0.4439 -7.9662 -2.3963 0.9672
0.5424 -7.9601 -2.3963 0.9672
0.5916 -7.9567 -2.3963 0.9672
0.6408 -7.9529 -2.3964 0.9672
0.6900 -7.9488 -2.3964 0.9672
0.8373 -7.9348 -2.3964 0.9672
0.8864 -7.9295 -2.3964 0.9672
0.9844 -7.9180 -2.3964 0.9672
1.0822 -7.9053 -2.3965 0.9672
1.2662 -7.8071 -2.3755 0.9675
1.2723 -7.5491 -2.2993 0.9685
1.2546 -7.1727 -2.1870 0.9700
1.2697 -7.0036 -2.1378 0.9707
1.4229 -6.8752 -2.1087 0.9711
1.4673 -6.8751 -2.1114 0.9711
1.5564 -6.8750 -2.1171 0.9710
1.6460 -6.8750 -2.1232 0.9709
1.7754 -6.8515 -2.1258 0.9709
1.8182 -6.8417 -2.1262 0.9709
1.8622 -6.8368 -2.1282 0.9708
2.2859 -7.6417 -2.3957 0.9672
2.3331 -7.6275 -2.3956 0.9672
2.4273 -7.5980 -2.3956 0.9672
2.7075 -7.5027 -2.3956 0.9672
2.7538 -7.4857 -2.3956 0.9672
2.8462 -7.4511 -2.3956 0.9672
2.8922 -7.4334 -2.3956 0.9672
3.0296 -7.3784 -2.3956 0.9672
3.1206 -7.3403 -2.3956 0.9672
3.1659 -7.3209 -2.3956 0.9672
3.3012 -7.2609 -2.3956 0.9672
3.3460 -7.2403 -2.3956 0.9672
3.4353 -7.1983 -2.3956 0.9672
3.4797 -7.1770 -2.3956 0.9672
3.5240 -7.1553 -2.3956 0.9672
3.5682 -7.1333 -2.3956 0.9672
3.7435 -7.0428 -2.3955 0.9672
3.8303 -6.9960 -2.3955 0.9672
3.9166 -6.9480 -2.3955 0.9672
3.9594 -6.9237 -2.3955 0.9672
4.0448 -6.8741 -2.3955 0.9672
4.0480 -6.7834 -2.3726 0.9675
4.0462 -6.6861 -2.3472 0.9679
4.0445 -6.5908 -2.3225 0.9682
4.0411 -6.4062 -2.2749 0.9689
4.0379 -6.2290 -2.2296 0.9695
4.0363 -6.1430 -2.2077 0.9698
4.0348 -6.0587 -2.1863 0.9701
4.3266 -6.0806 -2.2414 0.9693
4.3887 -6.0879 -2.2541 0.9691
4.4517 -6.0954 -2.2670 0.9690
5.0456 -6.8196 -2.5479 0.9652
5.0876 -6.7883 -2.5479 0.9652
5.2539 -6.6603 -2.5479 0.9652
5.2950 -6.6277 -2.5479 0.9652
5.4170 -6.5283 -2.5478 0.9652
5.4973 -6.4607 -2.5478 0.9652
5.5371 -6.4266 -2.5478 0.9652
5.5768 -6.3922 -2.5478 0.9652
5.6554 -6.3227 -2.5478 0.9652
5.7331 -6.2522 -2.5478 0.9652
5.8480 -6.1447 -2.5478 0.9652
5.8859 -6.1084 -2.5478 0.9652
5.9235 -6.0719 -2.5477 0.9652
5.9610 -6.0351 -2.5477 0.9652
5.9982 -5.9981 -2.5477 0.9652
6.0351 -5.9609 -2.5477 0.9652
6.0719 -5.9235 -2.5477 0.9652
6.1083 -5.8858 -2.5477 0.9652
6.1446 -5.8479 -2.5477 0.9652
6.1806 -5.8097 -2.5477 0.9652
6.2164 -5.7714 -2.5477 0.9652
6.2520 -5.7328 -2.5477 0.9652
6.2873 -5.6940 -2.5477 0.9652
6.3572 -5.6158 -2.5476 0.9652
6.3918 -5.5763 -2.5476 0.9652
6.4940 -5.4568 -2.5476 0.9652
6.5610 -5.3760 -2.5476 0.9652
6.6269 -5.2944 -2.5476 0.9652
6.7558 -5.1287 -2.5475 0.9652
6.7873 -5.0869 -2.5475 0.9652
6.8804 -4.9600 -2.5475 0.9652
6.9712 -4.8315 -2.5475 0.9652
7.0304 -4.7448 -2.5474 0.9652
7.0595 -4.7013 -2.5474 0.9652
7.1455 -4.5694 -2.5474 0.9652
7.2014 -4.4807 -2.5474 0.9652
7.2562 -4.3912 -2.5474 0.9652
7.2831 -4.3463 -2.5474 0.9652
7.3098 -4.3011 -2.5473 0.9652
7.3883 -4.1647 -2.5473 0.9652
7.4139 -4.1189 -2.5473 0.9652
7.5134 -3.9342 -2.5473 0.9652
7.5376 -3.8877 -2.5473 0.9652
7.5614 -3.8410 -2.5472 0.9652
7.6313 -3.7000 -2.5472 0.9652
7.6540 -3.6527 -2.5472 0.9652
7.7203 -3.5100 -2.5472 0.9652
7.7419 -3.4622 -2.5472 0.9652
7.7631 -3.4142 -2.5471 0.9652
7.8046 -3.3179 -2.5471 0.9652
7.8842 -3.1238 -2.5471 0.9652
7.9033 -3.0750 -2.5471 0.9652
7.9221 -3.0260 -2.5470 0.9652
7.9589 -2.9278 -2.5470 0.9652
7.9944 -2.8291 -2.5470 0.9652
8.0117 -2.7796 -2.5470 0.9652
8.0454 -2.6803 -2.5470 0.9652
8.1091 -2.4804 -2.5469 0.9652
8.1243 -2.4302 -2.5469 0.9652
8.1391 -2.3799 -2.5469 0.9652
8.1536 -2.3295 -2.5469 0.9652
8.1817 -2.2285 -2.5469 0.9652
8.2215 -2.0763 -2.5468 0.9652
8.2342 -2.0254 -2.5468 0.9652
8.2585 -1.9234 -2.5468 0.9652
8.2816 -1.8211 -2.5468 0.9652
8.2926 -1.7698 -2.5468 0.9652
8.3034 -1.7185 -2.5467 0.9652
8.3138 -1.6671 -2.5467 0.9652
8.3239 -1.6156 -2.5467 0.9652
8.3337 -1.5641 -2.5467 0.9652
8.3858 -1.2539 -2.5466 0.9652
8.4203 -0.9940 -2.5466 0.9652
8.4263 -0.9419 -2.5466 0.9652
8.4319 -0.8897 -2.5465 0.9652
8.4588 -0.5763 -2.5465 0.9652
8.4622 -0.5240 -2.5465 0.9652
8.4652 -0.4717 -2.5464 0.9652
8.4703 -0.3669 -2.5464 0.9652
8.4724 -0.3145 -2.5464 0.9652
8.4774 -0.1049 -2.5464 0.9652
8.4778 0.0524 -2.5463 0.9652
8.4752 0.2097 -2.5463 0.9652
8.4697 0.3669 -2.5462 0.9652
8.4645 0.4716 -2.5462 0.9652
8.4542 0.6285 -2.5462 0.9652
8.4501 0.6808 -2.5462 0.9652
8.4456 0.7330 -2.5462 0.9652
8.4409 0.7853 -2.5461 0.9652
8.4305 0.8896 -2.5461 0.9652
8.4248 0.9417 -2.5461 0.9652
8.4124 1.0458 -2.5461 0.9652
8.4057 1.0978 -2.5461 0.9652
8.3914 1.2017 -2.5460 0.9652
8.3758 1.3054 -2.5460 0.9652
8.3676 1.3571 -2.5460 0.9652
8.3590 1.4088 -2.5460 0.9652
8.3214 1.6151 -2.5459 0.9652
8.3007 1.7179 -2.5459 0.9652
8.2898 1.7692 -2.5459 0.9652
8.2673 1.8716 -2.5459 0.9652
8.2555 1.9227 -2.5459 0.9652
8.2310 2.0246 -2.5458 0.9652
8.2053 2.1262 -2.5458 0.9652
8.1919 2.1769 -2.5458 0.9652
8.1643 2.2780 -2.5458 0.9652
8.1500 2.3285 -2.5458 0.9652
8.1354 2.3788 -2.5458 0.9652
8.1205 2.4291 -2.5457 0.9652
8.0739 2.5793 -2.5457 0.9652
8.0246 2.7286 -2.5457 0.9652
8.0075 2.7781 -2.5457 0.9652
7.9545 2.9262 -2.5456 0.9652
7.9362 2.9753 -2.5456 0.9652
7.8987 3.0732 -2.5456 0.9652
7.8795 3.1220 -2.5456 0.9652
7.8201 3.2676 -2.5455 0.9652
7.7790 3.3640 -2.5455 0.9652
7.7580 3.4120 -2.5455 0.9652
7.6711 3.6028 -2.5454 0.9652
7.6259 3.6974 -2.5454 0.9652
7.6029 3.7444 -2.5454 0.9652
7.5559 3.8381 -2.5454 0.9652
7.5320 3.8848 -2.5454 0.9652
7.5078 3.9313 -2.5454 0.9652
7.4833 3.9776 -2.5454 0.9652
7.4585 4.0238 -2.5453 0.9652
7.4335 4.0698 -2.5453 0.9652
7.3566 4.2070 -2.5453 0.9652
7.2772 4.3427 -2.5453 0.9652
7.2501 4.3876 -2.5452 0.9652
7.1953 4.4769 -2.5452 0.9652
7.1674 4.5212 -2.5452 0.9652
7.0822 4.6534 -2.5452 0.9652
7.0241 4.7406 -2.5452 0.9652
6.9648 4.8270 -2.5451 0.9652
6.8431 4.9977 -2.5451 0.9652
6.8121 5.0399 -2.5451 0.9652
6.7808 5.0820 -2.5451 0.9652
6.7492 5.1238 -2.5451 0.9652
6.7174 5.1654 -2.5450 0.9652
6.6203 5.2891 -2.5450 0.9652
6.5874 5.3299 -2.5450 0.9652
5.5100 4.6299 -2.1616 0.9704
5.2838 4.6097 -2.1060 0.9711
5.2220 4.6130 -2.0927 0.9713
5.1611 4.6163 -2.0797 0.9715
5.0989 4.6178 -2.0661 0.9717
4.9831 4.6264 -2.0423 0.9720
4.8645 4.6296 -2.0169 0.9723
4.7502 4.6341 -1.9932 0.9727
4.6643 4.6070 -1.9690 0.9730
4.5276 4.6410 -1.9474 0.9733
4.4921 4.6620 -1.9445 0.9733
4.4623 4.6887 -1.9441 0.9733
4.4372 4.7205 -1.9458 0.9733
4.3937 4.7916 -1.9526 0.9732
4.3756 4.8315 -1.9578 0.9731
4.2910 5.0430 -1.9888 0.9727
4.3340 5.2231 -2.0385 0.9721
4.3321 5.2870 -2.0529 0.9719
4.3328 5.4233 -2.0849 0.9714
4.2902 5.6512 -2.1310 0.9708
4.2895 5.7235 -2.1482 0.9706
4.2838 5.8655 -2.1815 0.9701
4.2777 5.9340 -2.1971 0.9699
4.2749 6.0873 -2.2341 0.9694
4.2759 6.1696 -2.2545 0.9691
4.2723 6.2465 -2.2730 0.9689
4.6522 7.0804 -2.5445 0.9652
4.5643 7.1373 -2.5445 0.9652
4.5200 7.1654 -2.5445 0.9652
4.4756 7.1932 -2.5445 0.9652
4.2963 7.3016 -2.5445 0.9652
4.2511 7.3280 -2.5445 0.9652
4.2056 7.3542 -2.5445 0.9652
4.1601 7.3800 -2.5445 0.9652
4.1143 7.4056 -2.5445 0.9652
3.7817 7.0096 -2.3921 0.9673
3.7382 7.0329 -2.3921 0.9673
3.6509 7.0785 -2.3921 0.9673
3.6071 7.1009 -2.3921 0.9673
3.5631 7.1231 -2.3921 0.9673
3.5190 7.1450 -2.3921 0.9673
3.4747 7.1666 -2.3921 0.9673
3.3858 7.2089 -2.3921 0.9673
3.2514 7.2705 -2.3921 0.9673
3.1613 7.3101 -2.3921 0.9673
3.1159 7.3295 -2.3921 0.9673
2.9794 7.3860 -2.3920 0.9673
2.9337 7.4042 -2.3920 0.9673
2.8418 7.4399 -2.3920 0.9673
2.7958 7.4573 -2.3920 0.9673
2.6570 7.5079 -2.3920 0.9673
2.6105 7.5241 -2.3920 0.9673
2.5639 7.5401 -2.3920 0.9673
2.5172 7.5558 -2.3920 0.9673
2.3295 7.6157 -2.3920 0.9673
2.2824 7.6300 -2.3920 0.9673
2.1404 7.6710 -2.3920 0.9673
2.0929 7.6840 -2.3919 0.9673
2.0454 7.6968 -2.3919 0.9673
1.8064 7.7563 -2.3919 0.9673
1.6622 7.7885 -2.3919 0.9673
1.6161 7.8088 -2.3951 0.9672
1.4710 7.8373 -2.3950 0.9672
1.4225 7.8463 -2.3950 0.9672
1.3739 7.8549 -2.3950 0.9672
1.3253 7.8632 -2.3950 0.9672
1.2767 7.8712 -2.3950 0.9672
1.2279 7.8789 -2.3950 0.9672
1.1792 7.8863 -2.3949 0.9672
1.1304 7.8934 -2.3949 0.9672
1.0816 7.9002 -2.3949 0.9672
0.9837 7.9128 -2.3949 0.9672
0.8858 7.9243 -2.3949 0.9672
0.7877 7.9346 -2.3948 0.9672
0.7386 7.9393 -2.3948 0.9672
0.5420 7.9549 -2.3948 0.9672
0.3943 7.9635 -2.3947 0.9672
0.3451 7.9658 -2.3947 0.9672
0.0493 7.9728 -2.3947 0.9672
0.0000 7.9729 -2.3946 0.9672
-0.0986 7.9722 -2.3946 0.9672
-0.1479 7.9714 -2.3946 0.9672
-0.1972 7.9703 -2.3946 0.9672
-0.2464 7.9689 -2.3946 0.9673
-0.2957 7.9672 -2.3946 0.9673
-0.4435 7.9602 -2.3945 0.9673
-0.4907 5.6536 -1.7044 0.9766
-0.5260 5.6536 -1.7054 0.9766
-0.5966 5.6534 -1.7074 0.9765
-0.6319 5.6533 -1.7085 0.9765
-0.6673 5.6532 -1.7097 0.9765
-0.7028 5.6532 -1.7110 0.9765
-0.7739 5.6530 -1.7137 0.9765
-0.8096 5.6529 -1.7152 0.9764
-0.8452 5.6528 -1.7167 0.9764
-0.9887 5.6526 -1.7235 0.9763
-1.0247 5.6525 -1.7254 0.9763
-1.1698 5.6522 -1.7336 0.9762
-1.3163 5.6519 -1.7430 0.9761
-1.3532 5.6518 -1.7455 0.9760
-1.3902 5.6517 -1.7481 0.9760
-1.4273 5.6516 -1.7507 0.9759
-1.4645 5.6516 -1.7535 0.9759
-1.5393 5.6514 -1.7592 0.9758
-1.5769 5.6513 -1.7622 0.9758
-1.6904 5.6511 -1.7716 0.9757
-1.7668 5.6509 -1.7782 0.9756
-1.8438 5.6507 -1.7852 0.9755
-1.9604 5.6505 -1.7963 0.9753
-2.0390 5.6503 -1.8042 0.9752
-2.0785 5.6502 -1.8082 0.9752
-2.1182 5.6501 -1.8123 0.9751
-2.1582 5.6500 -1.8166 0.9751
-1.5365 3.8090 -1.2336 0.9830
-1.5191 3.6997 -1.2012 0.9834
-1.4672 3.4513 -1.1264 0.9845
-1.5079 3.4286 -1.1250 0.9845
-1.5297 3.4205 -1.1254 0.9845
-1.5455 3.3993 -1.1215 0.9845
-1.5583 3.3179 -1.1010 0.9848
-1.5646 3.2784 -1.0910 0.9849
-1.5884 3.1270 -1.0534 0.9855
-1.5941 3.0907 -1.0445 0.9856
-1.5997 3.0551 -1.0358 0.9857
-1.6052 3.0200 -1.0272 0.9858
-1.6260 2.9698 -1.0169 0.9860
-1.6487 2.9250 -1.0085 0.9861
-1.6932 2.8374 -0.9924 0.9863
-1.7042 2.8160 -0.9886 0.9863
-1.7150 2.7947 -0.9848 0.9864
-1.7364 2.7526 -0.9775 0.9865
-1.7470 2.7318 -0.9739 0.9865
-1.7575 2.7112 -0.9704 0.9866
-1.7679 2.6906 -0.9670 0.9866
-1.7783 2.6703 -0.9636 0.9867
-1.8025 2.5332 -0.9338 0.9871
-1.8300 2.5056 -0.9319 0.9871
-1.8573 2.4782 -0.9302 0.9871
-1.8983 2.4372 -0.9278 0.9872
-1.9930 2.3423 -0.9237 0.9872
-2.0334 2.3018 -0.9225 0.9873
-2.0469 2.2884 -0.9221 0.9873
-2.0603 2.2749 -0.9218 0.9873
-2.0737 2.2615 -0.9216 0.9873
-2.0871 2.2481 -0.9213 0.9873
-2.1005 2.2346 -0.9211 0.9873
-2.1139 2.2212 -0.9210 0.9873
-2.2738 2.1373 -0.9373 0.9871
-2.3104 2.1186 -0.9415 0.9870
-2.3289 2.1091 -0.9437 0.9870
-2.3475 2.0997 -0.9459 0.9869
-2.3661 2.0902 -0.9482 0.9869
-2.3848 2.0806 -0.9506 0.9869
-2.4607 2.0418 -0.9604 0.9867
-2.4993 2.0222 -0.9656 0.9867
-2.5894 2.0426 -0.9906 0.9863
-2.6731 2.0293 -1.0080 0.9861
-2.7016 2.0248 -1.0140 0.9860
-2.7305 2.0202 -1.0202 0.9859
-2.7598 2.0155 -1.0264 0.9858
-2.7894 2.0108 -1.0328 0.9857
-2.8194 2.0061 -1.0393 0.9857
-2.8497 2.0012 -1.0459 0.9856
-2.9116 1.9914 -1.0595 0.9854
-2.9432 1.9864 -1.0665 0.9853
-2.9752 1.9813 -1.0736 0.9852
-3.0076 1.9761 -1.0808 0.9851
-3.0851 1.9729 -1.0999 0.9848
-3.1275 1.9729 -1.1106 0.9847
-3.1708 1.9728 -1.1216 0.9845
-3.2599 1.9728 -1.1444 0.9842
-3.6028 1.9725 -1.2336 0.9830
-4.0045 1.9722 -1.3407 0.9815
-4.0125 1.9454 -1.3393 0.9815
-4.0241 1.9204 -1.3392 0.9815
-4.5488 2.0342 -1.4966 0.9794
-4.5857 2.0168 -1.5046 0.9793
-4.8850 2.0767 -1.5943 0.9781
-4.9078 2.0151 -1.5935 0.9781
-4.9927 2.0140 -1.6170 0.9778
-5.1798 2.0523 -1.6734 0.9770
-5.1825 2.0164 -1.6702 0.9770
-5.4358 2.0763 -1.7477 0.9760
-5.5382 2.0762 -1.7764 0.9756
-5.6439 2.0762 -1.8062 0.9752
-5.6776 2.0488 -1.8129 0.9751
-5.6775 1.9698 -1.8049 0.9752
-5.7607 1.9191 -1.8237 0.9750
-6.1687 1.9706 -1.9450 0.9733
-6.4419 1.9704 -2.0233 0.9723
-6.5870 1.9704 -2.0650 0.9717
-7.0603 1.9700 -2.2015 0.9699
-7.2323 1.9699 -2.2513 0.9692
-7.4123 1.9697 -2.3035 0.9685
-7.6009 1.9696 -2.3583 0.9677
-7.7259 1.9511 -2.3933 0.9673
-7.7718 1.7594 -2.3933 0.9673
-7.7826 1.7113 -2.3933 0.9673
-7.8130 1.5667 -2.3933 0.9673
-7.8408 1.4215 -2.3933 0.9673
-7.8494 1.3729 -2.3933 0.9673
-7.8658 1.2757 -2.3933 0.9673
-7.8735 1.2271 -2.3933 0.9673
-7.8810 1.1784 -2.3934 0.9673
-7.8882 1.1296 -2.3934 0.9673
-7.8950 1.0808 -2.3934 0.9673
-7.9015 1.0320 -2.3933 0.9673
-7.9078 0.9831 -2.3934 0.9673
-7.9249 0.8363 -2.3934 0.9673
-7.9348 0.7382 -2.3935 0.9673
-7.9393 0.6891 -2.3935 0.9673
-7.9435 0.6400 -2.3935 0.9673
-7.9474 0.5909 -2.3936 0.9673
-7.9509 0.5417 -2.3936 0.9673
-7.9542 0.4925 -2.3936 0.9673
-7.9571 0.4433 -2.3936 0.9673
-7.9598 0.3941 -2.3936 0.9673
-7.9660 0.2464 -2.3937 0.9673
-7.9674 0.1971 -2.3937 0.9673
-7.9694 0.0986 -2.3938 0.9673
-7.9700 0.0493 -2.3938 0.9673
-7.7604 0.0000 -2.3938 0.9680
-7.7599 -0.0960 -2.3938 0.9680
-7.7592 -0.1440 -2.3938 0.9680
-7.7582 -0.1920 -2.3938 0.9680
-7.7554 -0.2879 -2.3939 0.9680
-7.7536 -0.3359 -2.3939 0.9680
-7.7462 -0.4796 -2.3940 0.9680
-7.7431 -0.5275 -2.3940 0.9680
-7.7322 -0.6711 -2.3940 0.9680
-7.7186 -0.8145 -2.3941 0.9680
-7.7135 -0.8622 -2.3941 0.9680
-7.7080 -0.9099 -2.3941 0.9680
-7.7023 -0.9576 -2.3941 0.9680
-7.6963 -1.0052 -2.3942 0.9680
-7.6834 -1.1003 -2.3942 0.9680
-7.6765 -1.1478 -2.3942 0.9680
-7.6693 -1.1953 -2.3942 0.9680
-7.6541 -1.2901 -2.3943 0.9680
-7.6108 -1.5261 -2.3944 0.9680
-7.6013 -1.5732 -2.3944 0.9680
-7.5709 -1.7139 -2.3944 0.9680
