ply
format ascii 1.0
element vertex 1538
property float32 x
property float32 y
property float32 z
property float32 I
end_header
29.0944 6.5865 -0.5091 0.8875
28.8467 6.7183 -0.5055 0.8883
28.4827 7.0060 -0.5006 0.8893
28.3374 7.1564 -0.4988 0.8897
27.2133 7.4122 -0.4814 0.8933
25.5684 7.1343 -0.4530 0.8992
25.4497 7.4416 -0.4525 0.8994
24.1791 7.2327 -0.4307 0.9040
21.8768 6.6917 -0.3905 0.9125
20.9786 6.9889 -0.3774 0.9153
20.7910 7.0696 -0.3748 0.9159
20.5837 7.2843 -0.3727 0.9164
18.9775 6.8482 -0.3443 0.9225
18.0874 6.9089 -0.3305 0.9255
17.9479 6.9831 -0.3287 0.9258
17.6504 7.1199 -0.3248 0.9267
17.5588 7.4646 -0.3256 0.9265
16.3230 7.2997 -0.3052 0.9310
17.1766 8.1971 -0.3248 0.9267
17.0992 8.2904 -0.3243 0.9268
16.3466 8.3036 -0.3129 0.9293
16.0968 8.3023 -0.3091 0.9301
15.8369 8.2926 -0.3051 0.9310
15.7477 8.3704 -0.3044 0.9311
15.5227 8.3744 -0.3010 0.9319
14.9502 8.3058 -0.2919 0.9339
13.0839 7.5900 -0.2582 0.9413
13.0858 7.6997 -0.2591 0.9411
11.1543 6.9402 -0.2242 0.9488
10.8742 7.0490 -0.2212 0.9495
10.7320 7.0515 -0.2192 0.9499
10.4156 6.9362 -0.2136 0.9512
10.3344 6.9748 -0.2128 0.9513
10.2058 7.0733 -0.2119 0.9515
9.9791 7.1938 -0.2100 0.9520
9.8685 7.2073 -0.2086 0.9523
9.8156 7.2621 -0.2084 0.9523
9.8714 7.3983 -0.2105 0.9518
9.8276 7.4608 -0.2106 0.9518
9.7838 7.5234 -0.2106 0.9518
9.6650 7.6241 -0.2101 0.9519
9.6083 7.7740 -0.2109 0.9518
9.5643 7.8369 -0.2110 0.9517
9.3948 7.9938 -0.2105 0.9518
9.3566 8.2654 -0.2131 0.9513
9.3437 8.3575 -0.2140 0.9511
9.3340 8.5589 -0.2161 0.9506
9.3359 8.6675 -0.2174 0.9503
9.3378 8.7775 -0.2187 0.9500
9.3398 8.8888 -0.2201 0.9497
9.3437 9.1154 -0.2228 0.9491
9.3478 9.3478 -0.2256 0.9485
9.4678 10.1978 -0.2375 0.9459
9.4359 11.0896 -0.2485 0.9434
9.3265 11.0994 -0.2474 0.9437
9.3845 11.4531 -0.2527 0.9425
9.3871 11.6019 -0.2547 0.9420
9.3897 11.7530 -0.2567 0.9416
9.4007 12.3829 -0.2653 0.9397
9.4036 12.5470 -0.2676 0.9392
9.4065 12.7140 -0.2699 0.9387
9.4125 13.0568 -0.2747 0.9376
9.5298 13.7502 -0.2855 0.9353
9.5398 14.3252 -0.2937 0.9335
9.5433 14.5243 -0.2966 0.9328
9.5468 14.7274 -0.2995 0.9322
4.4132 7.1917 -0.1440 0.9668
3.9202 6.9546 -0.1363 0.9686
3.8616 6.9508 -0.1357 0.9687
3.7596 7.0732 -0.1367 0.9685
3.5944 7.0761 -0.1355 0.9687
3.4821 7.0701 -0.1345 0.9690
3.2201 7.0826 -0.1328 0.9694
3.1146 6.9646 -0.1302 0.9699
2.9987 7.0538 -0.1308 0.9698
2.9567 7.0762 -0.1309 0.9698
2.9146 7.0986 -0.1310 0.9698
2.8725 7.1209 -0.1310 0.9697
2.7881 7.1658 -0.1312 0.9697
2.7034 7.2109 -0.1314 0.9697
2.6609 7.2334 -0.1315 0.9696
2.5638 7.2446 -0.1312 0.9697
2.5268 7.2830 -0.1316 0.9696
2.5417 7.4751 -0.1348 0.9689
2.5069 7.5249 -0.1354 0.9688
2.4717 7.5751 -0.1360 0.9686
2.4362 7.6259 -0.1366 0.9685
2.2533 7.8870 -0.1400 0.9677
2.0640 7.9651 -0.1404 0.9676
2.0733 8.2097 -0.1445 0.9667
2.0537 8.3492 -0.1467 0.9662
2.0240 8.4536 -0.1484 0.9658
1.8050 8.4574 -0.1476 0.9660
1.7506 8.4583 -0.1474 0.9660
1.6963 8.4593 -0.1472 0.9661
1.5880 8.4612 -0.1469 0.9661
1.5341 8.4621 -0.1468 0.9662
1.4803 8.4630 -0.1466 0.9662
1.3729 8.4649 -0.1464 0.9663
1.3194 8.4659 -0.1462 0.9663
1.2660 8.4668 -0.1461 0.9663
1.2126 8.4677 -0.1460 0.9664
1.1594 8.4687 -0.1459 0.9664
1.1014 8.4332 -0.1452 0.9665
0.9951 8.4296 -0.1449 0.9666
0.9533 8.5287 -0.1465 0.9663
0.7937 8.5314 -0.1462 0.9663
0.7406 8.5324 -0.1462 0.9663
0.6875 8.5333 -0.1461 0.9663
0.5815 8.5351 -0.1460 0.9664
0.4227 8.5379 -0.1459 0.9664
0.3699 8.5388 -0.1459 0.9664
0.3170 8.5397 -0.1458 0.9664
0.2642 8.5407 -0.1458 0.9664
0.1585 8.5425 -0.1458 0.9664
0.1057 8.5434 -0.1458 0.9664
0.0528 8.5444 -0.1458 0.9664
0.0000 8.5453 -0.1458 0.9664
-0.0522 8.4486 -0.1442 0.9668
-0.4207 8.4962 -0.1452 0.9665
-0.4734 8.4971 -0.1452 0.9665
-0.7343 8.4597 -0.1449 0.9666
-0.7963 8.5592 -0.1467 0.9662
-0.9034 8.5611 -0.1469 0.9661
-0.4356 3.8967 -0.0669 0.9844
-0.4566 3.8679 -0.0665 0.9845
-0.5002 3.8300 -0.0659 0.9847
-0.5224 3.8163 -0.0657 0.9847
-0.5460 3.8126 -0.0657 0.9847
-0.5939 3.8106 -0.0658 0.9847
-0.7039 3.8825 -0.0673 0.9843
-1.8100 8.4808 -0.1480 0.9659
-1.8657 8.4847 -0.1483 0.9658
-1.9851 8.5235 -0.1494 0.9656
-2.0970 8.5255 -0.1498 0.9655
-2.3232 8.5294 -0.1509 0.9653
-2.6687 8.5355 -0.1526 0.9649
-2.7271 8.5365 -0.1529 0.9648
-2.7857 8.5375 -0.1533 0.9647
-2.8205 8.4664 -0.1523 0.9649
-2.8404 8.3536 -0.1506 0.9653
-1.5684 4.5205 -0.0817 0.9810
-1.5698 4.4360 -0.0803 0.9814
-1.6037 4.4441 -0.0806 0.9813
-3.1203 7.8753 -0.1446 0.9667
-3.1571 7.8265 -0.1440 0.9668
-3.1759 7.7350 -0.1427 0.9671
-3.3016 7.6347 -0.1420 0.9673
-3.3371 7.5876 -0.1415 0.9674
-3.3723 7.5408 -0.1410 0.9675
-3.3893 7.3341 -0.1379 0.9682
-1.5909 3.2302 -0.0615 0.9857
-1.6952 3.1423 -0.0609 0.9858
-1.7083 3.1202 -0.0607 0.9859
-4.0640 7.2098 -0.1413 0.9674
-4.1836 7.2119 -0.1423 0.9672
-2.6621 4.5243 -0.0896 0.9792
-2.6632 4.4628 -0.0887 0.9794
-2.7393 4.4639 -0.0894 0.9793
-2.7663 4.4460 -0.0894 0.9793
-2.9501 4.4899 -0.0917 0.9787
-2.9905 4.4906 -0.0921 0.9786
-3.1556 4.4935 -0.0937 0.9783
-3.1978 4.4943 -0.0941 0.9782
-3.2404 4.4950 -0.0946 0.9781
-3.2834 4.4958 -0.0950 0.9780
-3.4148 4.4981 -0.0964 0.9777
-3.4594 4.4988 -0.0969 0.9776
-3.5501 4.5004 -0.0978 0.9773
-3.5961 4.5012 -0.0983 0.9772
-3.7370 4.5037 -0.0999 0.9769
-3.7693 4.4858 -0.1000 0.9768
-3.7906 4.4550 -0.0998 0.9769
-4.1361 4.5106 -0.1044 0.9758
-4.2417 4.5125 -0.1057 0.9755
-4.2955 4.5134 -0.1063 0.9754
-4.4050 4.5154 -0.1077 0.9751
-4.4608 4.5163 -0.1083 0.9749
-4.5173 4.5173 -0.1090 0.9748
-4.7508 4.5214 -0.1119 0.9741
-4.8750 4.5261 -0.1135 0.9737
-4.8791 4.4739 -0.1129 0.9739
-4.9720 4.5029 -0.1145 0.9735
-9.6338 8.6170 -0.2206 0.9496
-9.8684 8.7175 -0.2247 0.9487
-10.1231 8.7220 -0.2281 0.9479
-10.2533 8.7243 -0.2298 0.9476
-10.3854 8.7266 -0.2315 0.9472
-10.6559 8.7313 -0.2351 0.9464
-10.6801 8.6413 -0.2345 0.9465
-10.9217 8.6154 -0.2374 0.9459
-11.1356 8.6730 -0.2409 0.9451
-11.1375 8.5643 -0.2398 0.9453
-4.8893 3.7118 -0.1048 0.9757
-4.9932 3.6467 -0.1055 0.9756
-12.1479 8.7573 -0.2556 0.9418
-12.2766 8.7352 -0.2572 0.9415
-12.5087 8.6693 -0.2597 0.9409
-12.6505 8.6523 -0.2616 0.9405
-12.6564 8.3160 -0.2585 0.9412
-12.6583 8.2056 -0.2575 0.9414
-12.6621 7.9874 -0.2555 0.9419
-12.6659 7.7725 -0.2536 0.9423
-13.5381 8.1929 -0.2701 0.9387
-13.6994 8.1751 -0.2723 0.9382
-13.8189 8.0164 -0.2727 0.9381
-13.8440 7.9169 -0.2722 0.9382
-13.9389 7.8572 -0.2731 0.9380
-14.0129 7.5598 -0.2717 0.9383
-14.3712 7.4123 -0.2760 0.9374
-14.4838 7.3573 -0.2773 0.9371
-14.9720 7.3738 -0.2848 0.9354
-15.2738 7.4054 -0.2897 0.9343
-52.2283 24.5294 -0.9848 0.7939
-52.2203 23.7418 -0.9790 0.7949
-17.6589 7.5072 -0.3275 0.9261
-52.2007 21.8116 -0.9656 0.7975
-52.1895 20.6782 -0.9581 0.7989
-52.1706 18.8263 -0.9466 0.8010
-51.2570 18.1392 -0.9280 0.8045
-52.1632 18.0977 -0.9423 0.8018
-52.1559 17.3754 -0.9382 0.8026
-52.1522 17.0166 -0.9363 0.8029
-52.1450 16.3035 -0.9324 0.8037
-52.1414 15.9491 -0.9306 0.8040
-52.1343 15.2444 -0.9270 0.8047
-52.1236 14.1971 -0.9220 0.8056
-52.1166 13.5051 -0.9189 0.8062
-52.1131 13.1607 -0.9173 0.8065
-52.1061 12.4755 -0.9144 0.8071
-52.0923 11.1175 -0.9091 0.8081
-52.0889 10.7804 -0.9078 0.8083
-52.0855 10.4442 -0.9066 0.8085
-52.0782 9.7743 -0.9043 0.8090
-52.0748 9.4407 -0.9033 0.8092
-52.0680 8.7757 -0.9012 0.8096
-52.0646 8.4444 -0.9002 0.8098
-52.0546 7.4545 -0.8975 0.8103
-52.0512 7.1257 -0.8966 0.8104
-52.0479 6.7977 -0.8958 0.8106
-52.0412 6.1432 -0.8944 0.8109
-52.0379 5.8167 -0.8937 0.8110
-52.0313 5.1653 -0.8924 0.8113
-52.0249 4.5155 -0.8913 0.8115
-52.0216 4.1913 -0.8907 0.8116
-52.0183 3.8674 -0.8902 0.8117
-52.0085 2.8976 -0.8890 0.8119
-52.0052 2.5750 -0.8887 0.8120
-52.0019 2.2526 -0.8884 0.8120
-51.9953 1.6082 -0.8878 0.8121
-51.9921 1.2864 -0.8876 0.8122
-51.9724 -0.6429 -1.2732 0.8122
-51.9595 -1.9289 -1.2736 0.8122
-51.9562 -2.2506 -1.2739 0.8121
-51.9530 -2.5724 -1.2741 0.8121
-51.3662 -2.8619 -1.2602 0.8140
-51.0250 -3.4764 -1.2527 0.8149
-50.8559 -3.7810 -1.2491 0.8154
-50.6878 -4.0838 -1.2456 0.8159
-48.3651 -4.4995 -1.1898 0.8234
-48.0488 -5.0702 -1.1835 0.8242
-47.8918 -5.3533 -1.1804 0.8246
-47.7357 -5.6349 -1.1774 0.8250
-47.2720 -6.4715 -1.1687 0.8262
-46.9666 -7.0225 -1.1632 0.8269
-46.8149 -7.2961 -1.1606 0.8273
-48.3521 -8.1495 -1.2011 0.8219
-48.2715 -8.7512 -1.2017 0.8218
-47.9622 -9.3093 -1.1968 0.8224
-47.8085 -9.5866 -1.1944 0.8228
-47.3531 -10.1061 -1.1860 0.8239
-44.7562 -11.0089 -1.1290 0.8316
-44.6133 -11.2667 -1.1271 0.8318
-44.2982 -12.0656 -1.1246 0.8322
-44.0156 -12.5755 -1.1213 0.8326
-43.4861 -13.3016 -1.1139 0.8336
-43.3469 -13.5527 -1.1125 0.8338
-38.8795 -12.9525 -1.0038 0.8488
-36.5705 -13.1968 -0.9523 0.8559
-36.6790 -14.5328 -0.9664 0.8540
-36.6837 -14.7977 -0.9689 0.8536
-36.7024 -15.8718 -0.9795 0.8521
-36.7072 -16.1440 -0.9823 0.8518
-36.7167 -16.6932 -0.9880 0.8510
-36.7216 -16.9702 -0.9909 0.8506
-36.7264 -17.2489 -0.9939 0.8501
-36.7363 -17.8114 -1.0000 0.8493
-36.6644 -18.0574 -1.0011 0.8491
-36.6602 -18.3379 -1.0041 0.8487
-36.6652 -18.6248 -1.0073 0.8483
-32.6680 -16.8493 -0.9004 0.8632
-36.7860 -20.1404 -1.0273 0.8455
-36.8072 -21.3519 -1.0423 0.8434
-36.8125 -21.6604 -1.0462 0.8429
-36.8180 -21.9712 -1.0502 0.8424
-36.8580 -24.5454 -1.0847 0.8376
-36.8697 -25.2170 -1.0942 0.8363
-36.8757 -25.5572 -1.0990 0.8357
-36.8877 -26.2468 -1.1089 0.8343
-36.8938 -26.5963 -1.1141 0.8336
-36.9000 -26.9491 -1.1192 0.8329
-36.9125 -27.6648 -1.1299 0.8315
-36.9291 -29.1310 -1.1521 0.8284
-36.9356 -29.5086 -1.1580 0.8277
-36.9490 -30.2755 -1.1701 0.8260
-32.9372 -27.6762 -1.0538 0.8419
-32.6586 -27.7885 -1.0504 0.8423
-32.2604 -27.7954 -1.0431 0.8433
-31.4803 -27.8090 -1.0289 0.8453
-31.0981 -27.8157 -1.0220 0.8462
-30.7210 -27.8223 -1.0152 0.8472
-30.3488 -27.8288 -1.0086 0.8481
-29.9815 -27.8352 -1.0021 0.8490
-28.3908 -27.6971 -0.9715 0.8533
-28.0584 -27.7136 -0.9660 0.8540
-27.1388 -27.8186 -0.9520 0.8560
-26.2265 -27.9007 -0.9380 0.8579
-25.9086 -27.9063 -0.9327 0.8587
-25.2830 -27.9172 -0.9226 0.8601
-24.6709 -27.9279 -0.9128 0.8615
-24.3696 -27.9332 -0.9080 0.8622
-24.0715 -27.9384 -0.9033 0.8628
-22.2280 -27.8227 -0.8723 0.8672
-22.0688 -27.9765 -0.8728 0.8671
-21.0013 -27.6635 -0.8508 0.8703
-20.7364 -27.6682 -0.8469 0.8708
-20.4738 -27.6727 -0.8432 0.8713
-19.9554 -27.6818 -0.8359 0.8724
-19.6996 -27.6863 -0.8323 0.8729
-19.6219 -28.3118 -0.8438 0.8712
-22.1367 -32.7995 -0.9693 0.8536
-31.8435 -49.1234 -1.4340 0.7912
-31.4728 -49.2157 -1.4310 0.7916
-31.0500 -49.2227 -1.4255 0.7923
-30.2140 -49.2364 -1.4150 0.7936
-16.2639 -28.0364 -0.7939 0.8784
-16.0919 -28.1394 -0.7940 0.8784
-15.9199 -28.2423 -0.7941 0.8783
-15.4030 -28.5510 -0.7946 0.8783
-26.1985 -49.2886 -1.3673 0.7998
-14.2639 -27.2406 -0.7532 0.8842
-25.0473 -49.3089 -1.3547 0.8015
-13.9242 -28.7190 -0.7818 0.8801
-13.7073 -28.7228 -0.7796 0.8804
-13.2998 -28.7794 -0.7766 0.8809
-13.0862 -28.7831 -0.7745 0.8812
-12.8736 -28.7868 -0.7724 0.8815
-12.6622 -28.7905 -0.7704 0.8818
-12.4306 -28.7451 -0.7671 0.8822
-10.4060 -24.4777 -0.6515 0.8990
-11.7836 -28.6989 -0.7599 0.8833
-11.3963 -28.7631 -0.7578 0.8836
-11.1924 -28.7667 -0.7561 0.8838
-10.5862 -28.7773 -0.7511 0.8845
-9.9877 -28.7877 -0.7464 0.8852
-9.7932 -28.8011 -0.7451 0.8854
-9.3996 -28.8079 -0.7423 0.8858
-9.2014 -28.8032 -0.7407 0.8860
-9.0060 -28.8048 -0.7393 0.8863
-8.8119 -28.8082 -0.7379 0.8864
-7.8149 -27.3532 -0.6968 0.8924
-7.2820 -28.8349 -0.7285 0.8878
-6.7200 -28.8543 -0.7257 0.8882
-6.5329 -28.8576 -0.7248 0.8884
-6.3463 -28.8608 -0.7238 0.8885
-5.7872 -28.8610 -0.7210 0.8889
-5.6024 -28.8643 -0.7202 0.8890
-4.8670 -28.8771 -0.7173 0.8894
-4.6841 -28.8803 -0.7167 0.8895
-4.1371 -28.8898 -0.7149 0.8898
-3.7740 -28.8962 -0.7138 0.8899
-2.6848 -28.8592 -0.7100 0.8905
-2.1505 -28.9245 -0.7105 0.8904
-1.7003 -27.4599 -0.6739 0.8958
-1.2284 -49.6472 -1.2165 0.8198
-0.9229 -49.7441 -1.2187 0.8195
-0.3076 -49.7541 -1.2187 0.8195
0.9236 -49.7741 -1.2194 0.8194
1.5632 -28.0574 -0.6883 0.8937
1.7375 -28.0604 -0.6887 0.8936
2.0867 -28.0665 -0.6894 0.8935
6.1977 -49.8533 -1.2306 0.8179
4.3836 -33.5641 -0.8291 0.8733
4.4731 -31.2358 -0.7729 0.8814
4.4938 -30.0542 -0.7444 0.8855
4.5260 -29.0411 -0.7199 0.8891
4.6469 -27.5707 -0.6849 0.8942
5.0813 -29.0507 -0.7224 0.8887
5.2672 -29.0540 -0.7233 0.8886
5.4535 -29.0564 -0.7242 0.8884
6.2148 -29.1200 -0.7294 0.8877
6.3807 -29.0174 -0.7278 0.8879
6.5826 -29.0770 -0.7303 0.8876
6.7727 -29.0803 -0.7314 0.8874
7.1404 -29.0292 -0.7323 0.8873
7.5391 -29.0937 -0.7362 0.8867
7.7323 -29.0970 -0.7375 0.8865
7.9262 -29.1004 -0.7388 0.8863
8.3161 -29.1072 -0.7415 0.8859
9.1083 -29.1318 -0.7476 0.8850
9.3075 -29.1352 -0.7492 0.8848
9.7063 -29.1354 -0.7522 0.8844
10.1094 -29.1385 -0.7555 0.8839
10.3130 -29.1421 -0.7572 0.8837
10.5175 -29.1456 -0.7590 0.8834
11.0277 -29.9775 -0.7824 0.8800
11.0371 -29.4399 -0.7701 0.8818
11.5551 -29.1637 -0.7684 0.8820
11.1676 -27.6845 -0.7312 0.8874
11.9641 -29.1384 -0.7716 0.8816
12.1950 -29.1858 -0.7748 0.8811
13.0539 -29.1899 -0.7832 0.8799
13.2729 -29.1937 -0.7855 0.8796
13.6875 -29.1435 -0.7887 0.8791
14.1619 -29.2093 -0.7951 0.8782
14.3876 -29.2132 -0.7977 0.8778
15.5650 -29.2832 -0.8123 0.8757
16.0371 -29.2914 -0.8180 0.8749
16.2165 -29.1891 -0.8179 0.8749
16.7294 -29.2541 -0.8255 0.8739
17.2180 -29.2626 -0.8317 0.8730
30.0049 -50.2801 -1.4342 0.7911
30.4327 -50.2876 -1.4398 0.7904
30.8637 -50.2952 -1.4454 0.7897
31.2983 -50.3028 -1.4512 0.7890
31.7363 -50.3104 -1.4571 0.7882
32.1779 -50.3182 -1.4630 0.7874
33.5248 -50.3417 -1.4815 0.7851
33.9729 -50.3370 -1.4875 0.7843
34.9001 -50.3562 -1.5008 0.7826
35.3694 -50.3652 -1.5075 0.7817
21.4780 -29.4086 -0.8920 0.8644
22.4108 -28.7740 -0.8934 0.8642
23.9871 -29.2745 -0.9271 0.8595
23.7446 -28.2583 -0.9041 0.8627
24.4294 -28.0016 -0.9102 0.8618
25.0275 -27.9809 -0.9196 0.8605
26.9891 -29.4331 -0.9782 0.8523
27.6783 -29.4452 -0.9899 0.8507
28.7135 -29.4327 -1.0072 0.8483
29.4615 -29.4615 -1.0206 0.8464
29.8500 -29.4831 -1.0277 0.8455
30.2283 -29.4897 -1.0344 0.8445
30.6117 -29.4964 -1.0413 0.8436
32.6080 -29.5312 -1.0776 0.8386
32.9286 -29.4530 -1.0822 0.8380
32.9512 -28.0374 -1.0598 0.8410
36.5846 -29.6006 -1.1527 0.8284
37.0613 -29.6090 -1.1620 0.8271
36.4121 -27.9997 -1.1251 0.8321
37.1088 -28.1720 -1.1412 0.8299
42.2699 -30.8709 -1.2821 0.8110
32.8526 -23.0710 -0.9833 0.8516
33.0752 -22.9232 -0.9857 0.8513
42.3054 -28.5523 -1.2502 0.8153
42.3124 -28.1777 -1.2452 0.8159
42.3193 -27.8061 -1.2403 0.8166
42.3262 -27.4373 -1.2356 0.8172
42.3330 -27.0714 -1.2308 0.8179
42.3397 -26.7082 -1.2262 0.8185
42.3464 -26.3478 -1.2217 0.8191
42.3531 -25.9900 -1.2172 0.8197
42.3597 -25.6348 -1.2128 0.8203
43.3412 -24.0789 -1.2145 0.8201
44.6097 -24.0665 -1.2416 0.8164
45.2655 -24.0601 -1.2557 0.8146
46.6229 -24.0468 -1.2850 0.8107
48.0454 -24.0329 -1.3159 0.8066
48.7931 -24.0308 -1.3323 0.8044
49.5463 -24.0221 -1.3488 0.8023
50.3183 -24.0133 -1.3657 0.8000
51.1100 -24.0042 -1.3831 0.7978
51.9223 -23.9948 -1.4011 0.7954
53.6082 -23.9739 -1.4385 0.7906
55.3986 -23.9568 -1.4784 0.7854
56.3317 -23.9479 -1.4994 0.7828
57.2917 -23.9388 -1.5209 0.7800
60.3339 -23.9051 -1.5896 0.7713
61.4139 -23.8947 -1.6142 0.7682
62.5280 -23.8840 -1.6395 0.7650
63.6776 -23.8729 -1.6658 0.7618
64.8538 -23.8575 -1.6927 0.7584
66.4312 4.5261 -1.6310 0.7661
64.1555 5.1689 -1.5766 0.7730
64.1633 5.5691 -1.5776 0.7728
63.5224 6.3060 -1.5636 0.7746
64.7625 7.2391 -1.5962 0.7705
64.7767 8.0530 -1.5989 0.7701
64.7838 8.4611 -1.6004 0.7700
64.7910 8.8698 -1.6019 0.7698
60.9743 9.1170 -1.5102 0.7814
64.8197 10.5131 -1.6085 0.7689
64.8341 11.3402 -1.6122 0.7685
29.9940 6.5955 -0.7522 0.8844
29.2025 6.6110 -0.7334 0.8871
28.9951 6.7529 -0.7292 0.8877
28.5733 7.2160 -0.7219 0.8888
25.7784 6.8504 -0.6534 0.8988
27.2133 7.4122 -0.6909 0.8933
25.8159 7.2033 -0.6565 0.8983
21.1463 6.8998 -0.5449 0.9148
20.6870 7.1772 -0.5364 0.9161
18.5550 6.6958 -0.4832 0.9241
18.3162 6.7379 -0.4780 0.9249
17.9632 6.8615 -0.4710 0.9259
17.7715 7.0413 -0.4682 0.9264
17.5625 7.2111 -0.4650 0.9268
17.3881 7.3921 -0.4628 0.9272
16.2144 7.3718 -0.4363 0.9312
16.1980 7.4856 -0.4371 0.9311
16.2030 7.7325 -0.4398 0.9307
14.4718 7.4642 -0.3989 0.9369
14.4742 7.5791 -0.4002 0.9367
14.4765 7.6947 -0.4016 0.9365
14.4835 8.0466 -0.4058 0.9359
13.2399 7.9010 -0.3777 0.9402
11.6958 7.1772 -0.3361 0.9466
11.1543 6.9402 -0.3218 0.9488
11.1419 7.0284 -0.3227 0.9487
10.4156 6.9362 -0.3065 0.9512
10.2058 7.0733 -0.3042 0.9515
10.1297 7.1137 -0.3032 0.9517
10.0542 7.1538 -0.3023 0.9518
9.8685 7.2073 -0.2993 0.9523
9.8156 7.2621 -0.2991 0.9523
9.7838 7.5234 -0.3023 0.9518
9.6650 7.6241 -0.3015 0.9519
9.6522 7.7113 -0.3026 0.9518
9.5203 7.8997 -0.3030 0.9517
9.3845 7.8855 -0.3003 0.9521
9.3948 7.9938 -0.3022 0.9518
9.3694 8.1742 -0.3046 0.9515
9.3566 8.2654 -0.3058 0.9513
9.3437 8.3575 -0.3071 0.9511
9.3321 8.4516 -0.3084 0.9509
9.3378 8.7775 -0.3139 0.9500
9.3398 8.8888 -0.3158 0.9497
9.3417 9.0014 -0.3178 0.9494
9.3457 9.2308 -0.3218 0.9488
9.3106 9.4265 -0.3246 0.9484
9.4043 10.0046 -0.3363 0.9465
9.4747 10.5927 -0.3481 0.9447
9.4794 10.8655 -0.3532 0.9439
9.4819 11.0050 -0.3558 0.9435
9.3265 11.0994 -0.3551 0.9436
9.3820 11.3066 -0.3599 0.9429
9.3871 11.6019 -0.3656 0.9420
9.3897 11.7530 -0.3685 0.9416
9.3924 11.9067 -0.3715 0.9411
9.3979 12.2215 -0.3776 0.9402
9.4007 12.3829 -0.3808 0.9397
9.4125 13.0568 -0.3943 0.9376
9.3753 13.8911 -0.4105 0.9351
4.8883 7.8565 -0.2267 0.9637
4.1909 7.1225 -0.2024 0.9675
4.1085 7.0823 -0.2006 0.9678
3.8154 7.0722 -0.1968 0.9684
3.6492 7.0751 -0.1950 0.9686
3.4821 7.0701 -0.1930 0.9690
3.4322 7.0789 -0.1927 0.9690
3.3255 7.0808 -0.1916 0.9692
3.2727 7.0817 -0.1911 0.9693
3.2201 7.0826 -0.1906 0.9693
3.0407 7.0315 -0.1877 0.9698
2.9987 7.0538 -0.1877 0.9698
2.9567 7.0762 -0.1879 0.9698
2.9146 7.0986 -0.1880 0.9698
2.7881 7.1658 -0.1883 0.9697
2.6609 7.2334 -0.1888 0.9696
2.6075 7.2258 -0.1882 0.9697
2.5417 7.4751 -0.1934 0.9689
2.5069 7.5249 -0.1943 0.9688
2.3853 7.6292 -0.1958 0.9685
2.3641 7.7288 -0.1980 0.9682
2.3275 7.7810 -0.1989 0.9680
2.2906 7.8337 -0.1999 0.9679
2.1528 7.9040 -0.2007 0.9678
2.0981 7.8952 -0.2001 0.9678
2.0733 8.2097 -0.2074 0.9667
2.0537 8.3492 -0.2106 0.9662
1.9690 8.4545 -0.2126 0.9659
1.9142 8.4555 -0.2124 0.9659
1.8595 8.4564 -0.2121 0.9659
1.6963 8.4593 -0.2113 0.9661
1.5880 8.4612 -0.2109 0.9661
1.5341 8.4621 -0.2107 0.9662
1.4803 8.4630 -0.2104 0.9662
1.2660 8.4668 -0.2097 0.9663
1.2126 8.4677 -0.2095 0.9664
1.1594 8.4687 -0.2094 0.9664
1.1014 8.4332 -0.2083 0.9665
1.0482 8.4314 -0.2081 0.9666
0.9000 8.5296 -0.2101 0.9663
0.7937 8.5314 -0.2099 0.9663
0.7406 8.5324 -0.2098 0.9663
0.4227 8.5379 -0.2094 0.9664
0.3170 8.5397 -0.2093 0.9664
0.2642 8.5407 -0.2093 0.9664
0.2113 8.5416 -0.2093 0.9664
0.1585 8.5425 -0.2093 0.9664
0.1057 8.5434 -0.2093 0.9664
0.0000 8.5453 -0.2093 0.9664
-0.1045 8.4522 -0.2071 0.9667
-0.2627 8.4935 -0.2081 0.9666
-0.3153 8.4944 -0.2082 0.9666
-0.3680 8.4953 -0.2083 0.9665
-0.4734 8.4971 -0.2085 0.9665
-0.5262 8.4981 -0.2086 0.9665
-0.6817 8.4615 -0.2079 0.9666
-0.8498 8.5601 -0.2107 0.9662
-0.9034 8.5611 -0.2109 0.9661
-0.4355 3.8965 -0.0960 0.9844
-0.4566 3.8677 -0.0954 0.9845
-0.4779 3.8446 -0.0949 0.9846
-0.5224 3.8162 -0.0943 0.9847
-0.5695 3.8088 -0.0943 0.9847
-0.5939 3.8105 -0.0945 0.9847
-0.6188 3.8155 -0.0947 0.9847
-0.6445 3.8237 -0.0950 0.9846
-0.6724 3.8440 -0.0956 0.9845
-1.7195 8.5753 -0.2142 0.9656
-1.7544 8.4770 -0.2120 0.9660
-1.8100 8.4808 -0.2124 0.9659
-1.9294 8.5226 -0.2140 0.9656
-1.9851 8.5235 -0.2144 0.9656
-2.0410 8.5245 -0.2147 0.9655
-2.1533 8.5265 -0.2154 0.9654
-2.2097 8.5275 -0.2158 0.9654
-2.2664 8.5284 -0.2162 0.9653
-2.3232 8.5294 -0.2165 0.9652
-2.3802 8.5304 -0.2169 0.9652
-2.4375 8.5314 -0.2173 0.9651
-2.4949 8.5324 -0.2178 0.9651
-2.5526 8.5334 -0.2182 0.9650
-2.6105 8.5345 -0.2186 0.9649
-2.7271 8.5365 -0.2195 0.9648
-2.8205 8.4664 -0.2186 0.9649
-2.8404 8.3536 -0.2161 0.9653
-1.5698 4.4360 -0.1153 0.9813
-1.6665 4.4452 -0.1163 0.9812
-3.1571 7.8265 -0.2067 0.9668
-3.2299 7.7299 -0.2052 0.9670
-3.2658 7.6821 -0.2045 0.9672
-3.3723 7.5408 -0.2023 0.9675
-3.3893 7.3341 -0.1979 0.9682
-3.4521 7.3502 -0.1989 0.9680
-3.4972 7.3282 -0.1989 0.9680
-3.5423 7.3062 -0.1989 0.9680
-1.6084 3.1184 -0.0859 0.9861
-3.9375 7.0873 -0.1986 0.9681
-2.6632 4.4628 -0.1273 0.9794
-2.8310 4.4879 -0.1300 0.9790
-2.9101 4.4893 -0.1310 0.9788
-2.9501 4.4899 -0.1316 0.9787
-2.9905 4.4906 -0.1322 0.9786
-3.0313 4.4914 -0.1327 0.9786
-3.0723 4.4921 -0.1333 0.9785
-3.1556 4.4935 -0.1345 0.9783
-3.1978 4.4943 -0.1351 0.9782
-3.3268 4.4965 -0.1370 0.9779
-3.3706 4.4973 -0.1377 0.9778
-3.4148 4.4981 -0.1383 0.9777
-3.4594 4.4988 -0.1390 0.9775
-3.5045 4.4996 -0.1397 0.9774
-3.5961 4.5012 -0.1411 0.9772
-3.6426 4.5020 -0.1419 0.9771
-3.6896 4.5029 -0.1426 0.9770
-3.7370 4.5037 -0.1433 0.9769
-3.7906 4.4550 -0.1433 0.9769
-3.9822 4.5080 -0.1473 0.9762
-4.1361 4.5106 -0.1499 0.9758
-4.2955 4.5134 -0.1526 0.9754
-4.3499 4.5144 -0.1536 0.9752
-4.4050 4.5154 -0.1545 0.9751
-4.5173 4.5173 -0.1565 0.9748
-4.5745 4.5183 -0.1575 0.9746
-4.6325 4.5193 -0.1585 0.9744
-4.7508 4.5214 -0.1606 0.9741
-4.8750 4.5261 -0.1629 0.9737
-9.6338 8.6170 -0.3166 0.9496
-9.8684 8.7175 -0.3225 0.9487
-10.1231 8.7220 -0.3273 0.9479
-11.1375 8.5643 -0.3441 0.9453
-12.1618 8.7673 -0.3672 0.9418
-12.5087 8.6693 -0.3728 0.9409
-12.5960 8.6150 -0.3738 0.9408
-12.6771 8.5559 -0.3746 0.9406
-13.2722 8.7205 -0.3890 0.9384
-13.4898 8.6266 -0.3922 0.9379
-13.5269 8.4164 -0.3902 0.9382
-13.5381 8.1929 -0.3876 0.9386
-13.6760 7.9335 -0.3873 0.9387
-13.7219 7.8471 -0.3872 0.9387
-13.7912 7.7740 -0.3878 0.9386
-13.8649 7.7029 -0.3885 0.9385
-13.9388 7.6315 -0.3893 0.9384
-14.0129 7.5598 -0.3900 0.9383
-14.4838 7.3573 -0.3979 0.9371
-14.7314 7.2553 -0.4022 0.9364
-14.9118 7.2299 -0.4059 0.9358
-15.2062 7.2568 -0.4127 0.9348
-52.2243 24.1345 -1.4092 0.7944
-17.6052 7.7428 -0.4711 0.9259
-17.6589 7.5072 -0.4700 0.9261
-52.1929 21.0539 -1.3786 0.7984
-52.1857 20.3042 -1.3716 0.7993
-52.1781 19.5617 -1.3650 0.8001
-52.1744 19.1932 -1.3617 0.8006
-52.1706 18.8263 -1.3586 0.8010
-51.2530 18.1378 -1.3317 0.8045
-52.1632 18.0977 -1.3524 0.8018
-52.1595 17.7358 -1.3495 0.8022
-52.1486 16.6593 -1.3410 0.8033
-52.1414 15.9491 -1.3356 0.8040
-52.1378 15.5960 -1.3330 0.8043
-52.1343 15.2444 -1.3305 0.8047
-52.1272 14.5449 -1.3256 0.8053
-52.1166 13.5050 -1.3188 0.8062
-52.1061 12.4755 -1.3124 0.8070
-52.0957 11.4555 -1.3066 0.8078
-52.0923 11.1175 -1.3047 0.8081
-52.0855 10.4442 -1.3012 0.8085
-52.0748 9.4407 -1.2964 0.8092
-52.0714 9.1078 -1.2948 0.8094
-52.0680 8.7757 -1.2934 0.8096
-52.0646 8.4444 -1.2920 0.8097
-52.0546 7.4545 -1.2881 0.8103
-52.0512 7.1257 -1.2869 0.8104
-52.0446 6.4702 -1.2846 0.8107
-52.0412 6.1432 -1.2836 0.8108
-52.0379 5.8167 -1.2826 0.8110
-52.0346 5.4908 -1.2817 0.8111
-52.0313 5.1653 -1.2808 0.8112
-52.0280 4.8402 -1.2799 0.8113
-52.0216 4.1913 -1.2784 0.8115
-52.0183 3.8674 -1.2777 0.8116
-52.0150 3.5438 -1.2771 0.8117
-52.0052 2.5750 -1.2754 0.8119
-52.0019 2.2526 -1.2750 0.8120
-51.9986 1.9303 -1.2746 0.8120
-51.9953 1.6083 -1.2742 0.8121
-51.9888 0.9646 -1.2737 0.8122
-51.9823 0.3214 -1.2733 0.8122
-46.8321 0.0000 -1.4951 0.8291
-51.9693 -0.9643 -1.6594 0.8122
-51.9661 -1.2858 -1.6595 0.8122
-51.9595 -1.9289 -1.6600 0.8121
-51.9562 -2.2506 -1.6603 0.8121
-51.9530 -2.5724 -1.6607 0.8121
-51.3662 -2.8619 -1.6424 0.8139
-51.1952 -3.1701 -1.6376 0.8144
-51.0250 -3.4764 -1.6328 0.8149
-50.6878 -4.0838 -1.6235 0.8159
-50.5206 -4.3850 -1.6190 0.8163
-48.3651 -4.4995 -1.5507 0.8233
-48.2065 -4.7856 -1.5466 0.8238
-47.8918 -5.3533 -1.5385 0.8246
-47.7357 -5.6349 -1.5346 0.8250
-47.5804 -5.9152 -1.5307 0.8254
-47.4258 -6.1940 -1.5269 0.8258
-47.2720 -6.4715 -1.5233 0.8262
-47.1189 -6.7477 -1.5196 0.8265
-46.9666 -7.0226 -1.5161 0.8269
-46.8149 -7.2961 -1.5126 0.8273
-47.5687 -7.7152 -1.5385 0.8246
-48.2745 -8.4437 -1.5646 0.8219
-48.1165 -9.0308 -1.5630 0.8221
-47.3531 -10.1061 -1.5458 0.8238
-47.0486 -10.9574 -1.5422 0.8242
-44.7562 -11.0089 -1.4715 0.8316
-44.6133 -11.2668 -1.4690 0.8318
-44.4708 -11.5238 -1.4666 0.8321
-44.4401 -11.8096 -1.4680 0.8319
-44.2982 -12.0656 -1.4658 0.8322
-44.1567 -12.3209 -1.4636 0.8324
-44.0156 -12.5755 -1.4614 0.8326
-43.8749 -12.8293 -1.4594 0.8328
-43.7346 -13.0824 -1.4574 0.8330
-39.5199 -12.8949 -1.3271 0.8467
-38.8795 -12.9525 -1.3083 0.8487
-36.7766 -12.7594 -1.2428 0.8557
-36.5660 -12.9402 -1.2383 0.8562
-36.5705 -13.1968 -1.2412 0.8559
-36.6608 -13.4863 -1.2471 0.8553
-36.6653 -13.7460 -1.2501 0.8550
-36.6930 -15.3318 -1.2696 0.8529
-36.7024 -15.8718 -1.2766 0.8521
-36.7216 -16.9702 -1.2915 0.8505
-36.7264 -17.2489 -1.2954 0.8501
-36.6652 -18.6248 -1.3129 0.8482
-36.7705 -19.2541 -1.3251 0.8470
-36.7808 -19.8429 -1.3342 0.8460
-36.7860 -20.1404 -1.3389 0.8455
-36.7965 -20.7418 -1.3485 0.8445
-36.8125 -21.6604 -1.3636 0.8429
-36.8180 -21.9712 -1.3688 0.8423
-36.8234 -22.2845 -1.3741 0.8418
-36.8345 -22.9184 -1.3850 0.8406
-36.7652 -23.8326 -1.3988 0.8392
-36.8580 -24.5454 -1.4138 0.8376
-36.8757 -25.5572 -1.4324 0.8356
-36.8817 -25.9004 -1.4388 0.8350
-36.8938 -26.5963 -1.4520 0.8336
-36.9062 -27.3052 -1.4657 0.8322
-36.9125 -27.6647 -1.4727 0.8314
-36.8361 -28.6899 -1.4906 0.8296
-36.9291 -29.1310 -1.5016 0.8284
-36.9356 -29.5086 -1.5093 0.8276
-36.9490 -30.2755 -1.5250 0.8260
-32.9372 -27.6762 -1.3735 0.8418
-32.6586 -27.7885 -1.3690 0.8423
-32.2604 -27.7954 -1.3595 0.8433
-31.0981 -27.8157 -1.3320 0.8462
-29.9815 -27.8352 -1.3061 0.8490
-29.2608 -27.8478 -1.2896 0.8507
-27.7325 -27.7325 -1.2521 0.8547
-26.8733 -27.8895 -1.2365 0.8564
-26.2265 -27.9007 -1.2225 0.8579
-25.5941 -27.9118 -1.2090 0.8594
-24.9753 -27.9226 -1.1960 0.8608
-24.3696 -27.9332 -1.1835 0.8621
-23.4844 -27.9486 -1.1654 0.8641
-23.1952 -27.9537 -1.1597 0.8647
-22.7749 -27.7951 -1.1472 0.8661
-22.4930 -27.8001 -1.1417 0.8667
-22.0688 -27.9765 -1.1376 0.8671
-21.2687 -27.6589 -1.1139 0.8697
-21.0013 -27.6635 -1.1088 0.8702
-20.4738 -27.6727 -1.0990 0.8713
-19.9554 -27.6818 -1.0894 0.8723
-19.6167 -27.9338 -1.0897 0.8723
-19.6234 -28.3141 -1.0998 0.8712
-22.1527 -33.7151 -1.2879 0.8509
-31.0497 -49.2221 -1.8580 0.7922
-30.2136 -49.2358 -1.8442 0.7936
-16.5223 -27.3020 -1.0188 0.8801
-16.3502 -27.3987 -1.0186 0.8801
-16.0119 -27.6019 -1.0187 0.8801
-15.6735 -27.8053 -1.0190 0.8801
-15.3348 -28.0088 -1.0194 0.8800
-15.1654 -28.1106 -1.0197 0.8800
-25.4289 -49.3026 -1.7710 0.8009
-25.0475 -49.3094 -1.7657 0.8014
-14.3618 -28.7114 -1.0249 0.8794
-13.7073 -28.7228 -1.0161 0.8804
-13.2998 -28.7794 -1.0122 0.8808
-13.0862 -28.7831 -1.0094 0.8811
-12.6622 -28.7905 -1.0041 0.8817
-10.4056 -24.4767 -0.8491 0.8990
-10.2934 -24.6349 -0.8524 0.8987
-11.7836 -28.6989 -0.9905 0.8832
-11.6012 -28.7596 -0.9900 0.8833
-11.3964 -28.7631 -0.9877 0.8835
-11.1924 -28.7667 -0.9855 0.8838
-10.9894 -28.7702 -0.9832 0.8840
-10.1864 -28.7843 -0.9748 0.8850
-9.9877 -28.7877 -0.9728 0.8852
-9.4011 -28.8125 -0.9676 0.8858
-9.2014 -28.8032 -0.9653 0.8860
-8.8119 -28.8082 -0.9618 0.8864
-8.6184 -28.8116 -0.9601 0.8866
-7.8149 -27.3532 -0.9082 0.8924
-8.2381 -29.5243 -0.9786 0.8846
-7.4712 -28.8316 -0.9509 0.8876
-6.3473 -28.8653 -0.9436 0.8884
-5.9724 -28.8578 -0.9408 0.8888
-5.4180 -28.8675 -0.9377 0.8891
-4.9679 -27.4029 -0.8891 0.8945
-5.0503 -28.8739 -0.9358 0.8893
-4.8671 -28.8771 -0.9349 0.8894
-4.5015 -28.8835 -0.9332 0.8896
-4.3106 -28.8293 -0.9306 0.8899
-4.1371 -28.8898 -0.9317 0.8898
-3.7740 -28.8962 -0.9304 0.8899
-3.5858 -28.8434 -0.9279 0.8902
-3.4176 -28.9519 -0.9307 0.8899
-3.2365 -28.9550 -0.9302 0.8899
-3.0557 -28.9582 -0.9296 0.8900
-1.9709 -28.9277 -0.9257 0.8904
-1.7004 -27.4599 -0.8783 0.8957
-1.6698 -29.9712 -0.9583 0.8868
-2.4613 -49.7083 -1.5889 0.8194
-2.1535 -49.7140 -1.5886 0.8194
-0.9229 -49.7445 -1.5884 0.8195
0.0001 -49.7595 -1.5886 0.8194
0.3078 -49.7645 -1.5888 0.8194
1.4375 -46.4737 -1.4844 0.8302
1.7254 -46.4787 -1.4849 0.8302
2.0135 -46.4838 -1.4854 0.8301
1.7375 -28.0604 -0.8976 0.8936
1.5349 -20.6451 -0.6609 0.9205
2.0215 -20.3627 -0.6533 0.9214
2.4008 -20.3382 -0.6538 0.9213
2.6543 -20.3232 -0.6543 0.9212
2.9102 -20.3219 -0.6554 0.9211
3.1669 -20.3200 -0.6566 0.9210
3.4247 -20.3196 -0.6579 0.9208
3.6835 -20.3182 -0.6592 0.9207
3.8131 -20.3165 -0.6599 0.9206
4.0734 -20.3142 -0.6614 0.9204
4.3350 -20.3122 -0.6631 0.9202
4.5985 -20.3126 -0.6649 0.9200
4.7312 -20.3147 -0.6659 0.9199
7.1404 -29.0292 -0.9544 0.8872
7.3465 -29.0903 -0.9579 0.8869
7.7323 -29.0970 -0.9612 0.8865
7.7277 -27.6950 -0.9179 0.8913
8.7089 -29.1141 -0.9702 0.8855
8.8965 -29.0848 -0.9710 0.8854
9.7063 -29.1354 -0.9804 0.8844
9.9067 -29.1350 -0.9824 0.8841
10.3130 -29.1421 -0.9869 0.8836
10.5175 -29.1456 -0.9892 0.8834
11.0371 -29.4399 -1.0038 0.8818
10.5734 -27.6809 -0.9460 0.8882
9.5003 -24.4175 -0.8365 0.9005
11.5551 -29.1637 -1.0015 0.8820
11.1676 -27.6845 -0.9530 0.8874
12.4112 -29.1945 -1.0128 0.8808
12.6266 -29.1983 -1.0156 0.8805
13.0539 -29.1899 -1.0208 0.8799
9.4242 -20.7286 -0.7270 0.9129
9.5331 -20.2979 -0.7159 0.9142
9.6674 -20.2575 -0.7166 0.9141
9.8280 -20.2704 -0.7192 0.9138
14.3876 -29.2132 -1.0396 0.8778
14.5858 -29.1592 -1.0409 0.8777
14.8434 -29.2212 -1.0464 0.8771
15.3052 -29.2292 -1.0533 0.8763
15.8814 -27.7712 -1.0213 0.8798
16.3453 -27.7793 -1.0290 0.8790
16.5799 -27.7834 -1.0329 0.8785
16.8162 -27.7875 -1.0369 0.8781
32.6226 -50.3252 -1.9147 0.7866
33.0716 -50.3330 -1.9227 0.7858
34.3775 -50.2633 -1.9441 0.7837
34.9005 -50.3568 -1.9560 0.7825
35.3698 -50.3658 -1.9648 0.7817
35.8434 -50.3749 -1.9738 0.7808
21.6327 -28.8641 -1.1516 0.8656
21.8180 -28.7392 -1.1520 0.8655
22.3745 -28.3638 -1.1534 0.8654
23.9790 -29.6367 -1.2171 0.8585
23.9855 -29.2725 -1.2082 0.8595
23.7168 -28.2252 -1.1770 0.8628
23.7228 -27.8804 -1.1687 0.8637
23.8554 -27.6875 -1.1668 0.8639
24.1600 -27.6928 -1.1733 0.8632
24.4680 -27.6982 -1.1799 0.8625
25.0946 -27.7091 -1.1935 0.8610
26.9759 -29.0559 -1.2658 0.8533
27.6783 -29.4452 -1.2902 0.8507
26.9429 -27.9616 -1.2397 0.8561
28.7438 -29.4638 -1.3141 0.8481
29.1079 -29.4701 -1.3224 0.8472
29.0900 -28.0301 -1.2897 0.8507
31.0001 -29.5032 -1.3662 0.8426
31.4062 -29.5216 -1.3761 0.8416
32.6080 -29.5312 -1.4045 0.8386
33.0242 -29.5385 -1.4145 0.8375
33.8748 -29.5533 -1.4352 0.8353
34.3095 -29.5609 -1.4458 0.8342
32.9840 -28.0653 -1.3827 0.8409
32.9572 -27.6930 -1.3743 0.8417
29.6116 -24.2633 -1.2222 0.8580
37.5456 -29.6174 -1.5267 0.8258
38.0380 -29.6260 -1.5393 0.8245
36.3672 -27.6089 -1.4577 0.8330
42.2632 -31.2686 -1.6784 0.8103
42.2703 -30.8712 -1.6711 0.8110
29.1929 -21.0448 -1.1489 0.8659
29.4394 -19.8689 -1.1339 0.8675
30.1660 -19.8207 -1.1523 0.8655
30.8737 -19.7434 -1.1700 0.8636
42.3537 -25.9904 -1.5865 0.8197
42.3668 -25.2825 -1.5751 0.8208
42.3733 -24.9323 -1.5696 0.8214
42.7276 -24.0851 -1.5659 0.8218
43.3414 -24.0790 -1.5829 0.8200
44.6100 -24.0667 -1.6182 0.8164
45.2658 -24.0602 -1.6366 0.8145
45.9367 -24.0537 -1.6554 0.8126
47.3260 -24.0401 -1.6947 0.8086
48.0457 -24.0330 -1.7151 0.8065
48.7940 -24.0312 -1.7364 0.8044
49.5472 -24.0226 -1.7579 0.8022
50.3192 -24.0137 -1.7800 0.8000
51.1110 -24.0046 -1.8027 0.7977
52.7569 -23.9858 -1.8502 0.7930
55.3979 -23.9565 -1.9269 0.7854
56.3310 -23.9476 -1.9542 0.7827
57.2909 -23.9385 -1.9823 0.7800
58.2789 -23.9290 -2.0113 0.7771
60.3354 -23.9057 -2.0719 0.7713
62.5296 -23.8846 -2.1370 0.7650
63.6792 -23.8735 -2.1712 0.7617
64.8555 -23.8581 -2.2062 0.7584
63.3622 2.7446 -2.0248 0.7758
62.8182 4.6704 -2.0110 0.7772
63.6229 5.1260 -2.0378 0.7746
63.6306 5.5229 -2.0391 0.7744
63.6383 5.9203 -2.0405 0.7743
63.5223 6.3060 -2.0380 0.7746
64.7625 7.2391 -2.0804 0.7704
64.7767 8.0530 -2.0839 0.7701
64.7838 8.4611 -2.0858 0.7699
60.9182 9.1086 -1.9665 0.7815
64.8125 10.1010 -2.0941 0.7691
64.8197 10.5131 -2.0964 0.7689
64.8269 10.9262 -2.0988 0.7687
64.8486 12.1712 -2.1065 0.7679
64.8559 12.5882 -2.1092 0.7677
20.1720 4.1748 -0.6576 0.9209
29.9940 6.5955 -0.9804 0.8843
29.2026 6.6110 -0.9559 0.8871
28.9951 6.7529 -0.9505 0.8877
27.1858 6.6870 -0.8938 0.8940
27.2032 6.8700 -0.8957 0.8938
25.5595 6.6233 -0.8429 0.8997
22.1260 6.7679 -0.7387 0.9116
21.9284 6.8561 -0.7335 0.9122
21.1463 6.8998 -0.7101 0.9148
20.9786 6.9889 -0.7059 0.9153
20.7910 7.0696 -0.7011 0.9159
18.6729 6.7383 -0.6338 0.9236
18.1715 6.8126 -0.6196 0.9253
18.0874 6.9089 -0.6181 0.9254
17.5625 7.2111 -0.6061 0.9268
17.3881 7.3921 -0.6032 0.9272
17.2856 7.6023 -0.6029 0.9272
16.3230 7.2997 -0.5709 0.9309
16.2139 7.3716 -0.5686 0.9312
16.2393 7.6269 -0.5728 0.9307
16.2418 7.7510 -0.5745 0.9305
14.5153 7.7154 -0.5248 0.9363
14.5176 7.8321 -0.5266 0.9361
13.0801 7.3731 -0.4794 0.9417
12.9872 7.4269 -0.4776 0.9419
12.9980 7.8660 -0.4850 0.9410
11.1097 6.9124 -0.4177 0.9490
10.7534 6.8767 -0.4075 0.9502
10.6393 6.8968 -0.4048 0.9505
10.5267 6.9166 -0.4021 0.9508
10.3344 6.9748 -0.3980 0.9513
10.1297 7.1137 -0.3952 0.9517
10.0542 7.1538 -0.3939 0.9518
9.8685 7.2073 -0.3901 0.9523
9.8156 7.2621 -0.3898 0.9523
9.7099 7.3715 -0.3892 0.9524
9.6572 7.4261 -0.3889 0.9524
9.6046 7.4806 -0.3887 0.9524
9.4868 7.6758 -0.3896 0.9523
9.3948 7.9938 -0.3938 0.9518
9.3822 8.0836 -0.3954 0.9516
9.3694 8.1742 -0.3970 0.9515
9.3437 8.3575 -0.4002 0.9511
9.3359 8.6676 -0.4067 0.9503
9.3378 8.7775 -0.4091 0.9500
9.3398 8.8888 -0.4116 0.9497
9.3417 9.0014 -0.4142 0.9494
9.3437 9.1154 -0.4167 0.9491
9.3457 9.2308 -0.4194 0.9488
9.3478 9.3478 -0.4220 0.9485
9.3106 9.4265 -0.4230 0.9484
9.2992 9.5321 -0.4251 0.9481
9.3034 9.7755 -0.4308 0.9474
9.3078 10.0255 -0.4367 0.9467
9.3146 10.4137 -0.4461 0.9456
9.3169 10.5469 -0.4493 0.9452
9.3216 10.8190 -0.4559 0.9444
9.3265 11.0994 -0.4628 0.9436
9.3655 11.2868 -0.4682 0.9430
9.2847 11.4754 -0.4713 0.9426
9.2927 11.9312 -0.4828 0.9413
9.2954 12.0882 -0.4868 0.9408
9.2982 12.2478 -0.4909 0.9403
9.3068 12.7433 -0.5038 0.9388
9.3098 12.9144 -0.5083 0.9383
9.3223 13.6302 -0.5272 0.9360
9.4285 13.9700 -0.5381 0.9348
9.4353 14.3599 -0.5486 0.9335
9.4423 14.7654 -0.5595 0.9323
9.4460 14.9744 -0.5652 0.9316
4.8883 7.8565 -0.2954 0.9636
4.4132 7.1917 -0.2694 0.9668
4.2748 7.1635 -0.2663 0.9672
4.1909 7.1225 -0.2638 0.9675
4.0276 7.0429 -0.2590 0.9681
3.9202 6.9546 -0.2549 0.9686
3.8154 7.0722 -0.2565 0.9684
3.7596 7.0732 -0.2557 0.9685
3.5269 7.0509 -0.2517 0.9689
3.4821 7.0701 -0.2516 0.9690
3.3787 7.0798 -0.2504 0.9691
3.3255 7.0808 -0.2497 0.9692
3.2727 7.0817 -0.2491 0.9693
3.1146 6.9646 -0.2436 0.9699
3.0407 7.0315 -0.2446 0.9698
2.9987 7.0538 -0.2447 0.9698
2.9567 7.0762 -0.2448 0.9698
2.8725 7.1209 -0.2451 0.9697
2.8303 7.1434 -0.2453 0.9697
2.7881 7.1658 -0.2455 0.9697
2.7458 7.1883 -0.2457 0.9697
2.7034 7.2109 -0.2459 0.9697
2.6075 7.2258 -0.2452 0.9697
2.5069 7.5249 -0.2532 0.9688
2.4717 7.5751 -0.2544 0.9686
2.4362 7.6259 -0.2556 0.9685
2.3853 7.6292 -0.2552 0.9685
2.3641 7.7288 -0.2580 0.9682
2.2533 7.8870 -0.2619 0.9677
2.2137 7.9337 -0.2630 0.9676
2.0640 7.9651 -0.2627 0.9676
2.0733 8.2097 -0.2703 0.9667
1.9690 8.4545 -0.2771 0.9659
1.9142 8.4555 -0.2768 0.9659
1.8595 8.4564 -0.2764 0.9659
1.8050 8.4574 -0.2761 0.9660
1.7506 8.4583 -0.2758 0.9660
1.6963 8.4593 -0.2754 0.9661
1.4803 8.4630 -0.2743 0.9662
1.2083 7.4502 -0.2410 0.9702
1.2029 7.7182 -0.2494 0.9692
1.2126 8.4677 -0.2731 0.9663
1.1594 8.4687 -0.2729 0.9664
1.0482 8.4314 -0.2712 0.9666
0.8881 8.4163 -0.2702 0.9667
0.8356 8.4172 -0.2700 0.9667
0.7831 8.4181 -0.2699 0.9667
0.7307 8.4190 -0.2698 0.9667
0.6875 8.5333 -0.2733 0.9663
0.6345 8.5342 -0.2732 0.9663
0.5815 8.5351 -0.2731 0.9663
0.5286 8.5361 -0.2730 0.9664
0.4756 8.5370 -0.2730 0.9664
0.4227 8.5379 -0.2729 0.9664
0.3170 8.5397 -0.2728 0.9664
0.1057 8.5434 -0.2728 0.9664
0.0528 8.5444 -0.2728 0.9664
-0.1045 8.4522 -0.2699 0.9667
-0.1569 8.4558 -0.2700 0.9667
-0.2583 8.3517 -0.2668 0.9671
-0.3680 8.4953 -0.2715 0.9665
-0.4829 7.7984 -0.2494 0.9692
-0.5096 7.4802 -0.2394 0.9704
-0.6292 8.4632 -0.2709 0.9666
-0.7963 8.5592 -0.2744 0.9662
-0.4565 3.8675 -0.1243 0.9845
-0.4779 3.8444 -0.1237 0.9846
-0.5002 3.8298 -0.1233 0.9847
-0.5224 3.8161 -0.1230 0.9847
-0.5459 3.8124 -0.1230 0.9847
-0.5938 3.8104 -0.1231 0.9847
-0.6188 3.8154 -0.1234 0.9847
-0.6723 3.8438 -0.1246 0.9845
-1.5877 8.4595 -0.2748 0.9661
-1.6421 8.4604 -0.2751 0.9661
-1.7195 8.5753 -0.2792 0.9656
-1.7544 8.4770 -0.2764 0.9659
-1.8657 8.4847 -0.2773 0.9658
-1.9294 8.5226 -0.2790 0.9656
-1.9957 7.9024 -0.2602 0.9679
-1.9990 7.7141 -0.2544 0.9686
-2.4375 8.5314 -0.2833 0.9651
-2.4949 8.5324 -0.2838 0.9650
-2.6105 8.5345 -0.2849 0.9649
-1.5698 4.4360 -0.1502 0.9813
-1.6350 4.4446 -0.1512 0.9812
-1.6877 4.4182 -0.1510 0.9812
-3.0832 7.9245 -0.2715 0.9665
-3.1203 7.8753 -0.2704 0.9667
-3.1571 7.8265 -0.2694 0.9668
-3.3016 7.6347 -0.2656 0.9673
-3.3512 7.3709 -0.2585 0.9681
-3.3893 7.3341 -0.2579 0.9682
-3.4521 7.3502 -0.2592 0.9680
-3.4972 7.3282 -0.2592 0.9680
-3.5423 7.3062 -0.2592 0.9680
-1.5909 3.2302 -0.1150 0.9857
-1.6084 3.1184 -0.1120 0.9861
-1.6726 3.1468 -0.1138 0.9858
-1.6952 3.1423 -0.1140 0.9858
-1.7083 3.1202 -0.1136 0.9859
-4.0641 7.2098 -0.2642 0.9674
-4.1236 7.2108 -0.2652 0.9673
-2.6621 4.5243 -0.1676 0.9792
-2.6843 4.4356 -0.1655 0.9795
-2.7393 4.4639 -0.1672 0.9793
-2.7663 4.4459 -0.1672 0.9793
-2.8704 4.4886 -0.1701 0.9789
-2.9501 4.4899 -0.1715 0.9787
-2.9905 4.4906 -0.1722 0.9786
-3.0313 4.4914 -0.1730 0.9785
-3.1556 4.4935 -0.1753 0.9783
-3.1978 4.4943 -0.1761 0.9782
-3.2404 4.4950 -0.1769 0.9781
-3.3268 4.4965 -0.1786 0.9779
-3.3706 4.4973 -0.1794 0.9778
-3.4148 4.4981 -0.1803 0.9777
-3.5501 4.5004 -0.1830 0.9773
-3.6426 4.5020 -0.1849 0.9771
-3.6896 4.5029 -0.1859 0.9770
-3.7277 4.4924 -0.1864 0.9769
-3.7693 4.4858 -0.1871 0.9768
-3.8630 4.4835 -0.1889 0.9766
-3.8881 4.4567 -0.1888 0.9766
-4.0329 4.5088 -0.1931 0.9761
-4.0842 4.5097 -0.1942 0.9759
-4.1361 4.5106 -0.1954 0.9758
-4.1886 4.5116 -0.1965 0.9757
-4.2417 4.5125 -0.1977 0.9755
-4.4608 4.5163 -0.2027 0.9749
-4.5173 4.5173 -0.2040 0.9748
-4.6325 4.5193 -0.2066 0.9744
-4.6912 4.5203 -0.2080 0.9743
-4.8791 4.4739 -0.2113 0.9739
-4.9033 4.2778 -0.2077 0.9743
-4.9042 4.2254 -0.2067 0.9744
-4.9095 3.9223 -0.2006 0.9752
-4.9103 3.8735 -0.1997 0.9753
-4.8901 3.6650 -0.1951 0.9758
-4.8909 3.6186 -0.1942 0.9759
-4.9932 3.6467 -0.1974 0.9756
-10.8114 7.7938 -0.4255 0.9481
-10.9380 7.6813 -0.4267 0.9479
-11.1814 7.7494 -0.4343 0.9470
-12.5669 8.3689 -0.4820 0.9414
-12.5702 8.1485 -0.4783 0.9418
-12.5718 8.0395 -0.4764 0.9420
-12.5369 7.8004 -0.4714 0.9426
-12.6707 7.7754 -0.4746 0.9422
-13.4966 8.1677 -0.5036 0.9388
-13.5425 8.0815 -0.5035 0.9388
-13.5883 7.9953 -0.5033 0.9389
-13.7472 7.7492 -0.5038 0.9388
-13.8206 7.6783 -0.5048 0.9387
-13.8943 7.6071 -0.5057 0.9386
-14.0425 7.4640 -0.5077 0.9383
-14.1493 7.4089 -0.5099 0.9381
-14.4847 7.2454 -0.5171 0.9372
-14.6542 7.2172 -0.5215 0.9367
-14.8337 7.1920 -0.5263 0.9362
-15.2062 7.2568 -0.5379 0.9348
-52.2283 24.5294 -1.8422 0.7938
-52.2243 24.1345 -1.8367 0.7943
-52.2163 23.3514 -1.8261 0.7954
-17.7367 7.5403 -0.6153 0.9258
-52.2007 21.8115 -1.8062 0.7974
-52.1929 21.0540 -1.7967 0.7983
-52.1895 20.6782 -1.7922 0.7988
-52.1857 20.3042 -1.7877 0.7992
-52.1819 19.9321 -1.7833 0.7997
-52.1781 19.5617 -1.7790 0.8001
-52.1595 17.7357 -1.7588 0.8021
-52.1559 17.3754 -1.7551 0.8025
-52.1450 16.3035 -1.7442 0.8036
-52.1414 15.9491 -1.7408 0.8040
-52.1343 15.2444 -1.7341 0.8046
-52.1201 13.8504 -1.7217 0.8059
-52.1166 13.5051 -1.7188 0.8062
-52.1131 13.1607 -1.7160 0.8065
-52.1096 12.8176 -1.7132 0.8067
-52.1061 12.4755 -1.7105 0.8070
-52.0992 11.7945 -1.7054 0.8075
-52.0889 10.7804 -1.6982 0.8083
-52.0855 10.4442 -1.6960 0.8085
-52.0821 10.1089 -1.6938 0.8087
-52.0782 9.7743 -1.6916 0.8089
-52.0613 8.1137 -1.6821 0.8099
-52.0512 7.1257 -1.6773 0.8104
-52.0446 6.4702 -1.6743 0.8107
-52.0379 5.8167 -1.6717 0.8109
-52.0346 5.4907 -1.6705 0.8111
-52.0313 5.1653 -1.6693 0.8112
-52.0216 4.1913 -1.6662 0.8115
-52.0183 3.8674 -1.6653 0.8116
-52.0085 2.8977 -1.6630 0.8118
-52.0019 2.2526 -1.6617 0.8120
-51.9921 1.2864 -1.6604 0.8121
-46.7847 0.0000 -1.8414 0.8292
-46.7969 -0.2894 -1.8419 0.8292
-51.9724 -0.6429 -2.0458 0.8122
-51.9693 -0.9643 -2.0458 0.8121
-51.9661 -1.2858 -2.0460 0.8121
-51.9628 -1.6073 -2.0462 0.8121
-51.9595 -1.9289 -2.0465 0.8121
-49.5006 -2.4510 -1.9507 0.8200
-49.1715 -3.0448 -1.9391 0.8210
-48.3651 -4.4995 -1.9118 0.8233
-47.7357 -5.6349 -1.8919 0.8250
-47.1190 -6.7477 -1.8735 0.8265
-46.9666 -7.0226 -1.8691 0.8269
-48.1194 -8.7236 -1.9248 0.8222
-47.9649 -9.0024 -1.9208 0.8225
-47.8110 -9.2799 -1.9169 0.8229
-47.6578 -9.5564 -1.9131 0.8232
-47.3531 -10.1061 -1.9058 0.8238
-47.0507 -10.6516 -1.8988 0.8244
-46.9003 -10.9229 -1.8954 0.8247
-46.7505 -11.1933 -1.8921 0.8249
-44.7563 -11.0089 -1.8141 0.8315
-44.6133 -11.2668 -1.8111 0.8318
-44.2982 -12.0656 -1.8071 0.8321
-43.4920 -12.4259 -1.7803 0.8344
-43.3529 -12.6767 -1.7778 0.8346
-43.4861 -13.3016 -1.7899 0.8336
-39.5199 -12.8949 -1.6362 0.8467
-38.0008 -12.9214 -1.5798 0.8516
-36.7766 -12.7594 -1.5322 0.8557
-36.5660 -12.9402 -1.5267 0.8562
-36.6608 -13.4862 -1.5375 0.8552
-36.6744 -14.2692 -1.5489 0.8542
-36.6790 -14.5328 -1.5529 0.8539
-36.6930 -15.3318 -1.5652 0.8528
-36.6977 -15.6011 -1.5695 0.8525
-36.7119 -16.4178 -1.5829 0.8513
-36.7167 -16.6932 -1.5875 0.8509
-36.7216 -16.9702 -1.5922 0.8505
-36.6644 -18.0574 -1.6086 0.8491
-32.6401 -16.8349 -1.4455 0.8633
-32.7351 -17.1410 -1.4544 0.8625
-36.7757 -19.5475 -1.6392 0.8464
-36.7808 -19.8429 -1.6449 0.8459
-36.8018 -21.0457 -1.6686 0.8439
-36.8072 -21.3519 -1.6748 0.8434
-36.8180 -21.9712 -1.6876 0.8423
-36.8234 -22.2845 -1.6941 0.8417
-36.8289 -22.6002 -1.7007 0.8412
-36.7546 -23.5041 -1.7171 0.8398
-36.8522 -24.2139 -1.7356 0.8382
-36.8580 -24.5454 -1.7430 0.8376
-36.8697 -25.2170 -1.7581 0.8363
-36.8817 -25.9004 -1.7738 0.8349
-36.9000 -26.9491 -1.7985 0.8328
-36.9125 -27.6647 -1.8156 0.8314
-36.9188 -28.0277 -1.8244 0.8306
-36.9252 -28.3942 -1.8334 0.8299
-36.8361 -28.6899 -1.8377 0.8295
-36.9423 -29.8901 -1.8704 0.8268
-36.9490 -30.2755 -1.8801 0.8259
-32.9372 -27.6762 -1.6932 0.8418
-32.6586 -27.7885 -1.6878 0.8423
-32.2604 -27.7954 -1.6760 0.8433
-31.8677 -27.8023 -1.6645 0.8443
-31.4803 -27.8090 -1.6533 0.8452
-30.3488 -27.8288 -1.6207 0.8480
-29.9815 -27.8352 -1.6102 0.8489
-29.6188 -27.8415 -1.6000 0.8498
-29.2608 -27.8478 -1.5899 0.8507
-27.3741 -27.7149 -1.5332 0.8556
-27.1388 -27.8186 -1.5297 0.8559
-25.5941 -27.9118 -1.4905 0.8593
-25.2830 -27.9172 -1.4824 0.8600
-24.6709 -27.9279 -1.4667 0.8614
-24.3696 -27.9332 -1.4590 0.8621
-24.0715 -27.9384 -1.4515 0.8628
-23.7765 -27.9435 -1.4441 0.8634
-23.1952 -27.9537 -1.4297 0.8647
-22.7749 -27.7951 -1.4144 0.8660
-22.2281 -27.8227 -1.4017 0.8671
-22.0585 -28.3218 -1.4129 0.8661
-21.2687 -27.6589 -1.3733 0.8696
-21.0013 -27.6635 -1.3670 0.8702
-20.7364 -27.6682 -1.3609 0.8707
-20.4738 -27.6727 -1.3549 0.8713
-20.2135 -27.6773 -1.3490 0.8718
-19.6996 -27.6863 -1.3374 0.8728
-22.1527 -33.7151 -1.5878 0.8509
-31.8437 -49.1236 -2.3042 0.7911
-31.4720 -49.2145 -2.2993 0.7915
-30.6297 -49.2284 -2.2820 0.7929
-30.2132 -49.2352 -2.2737 0.7935
-16.5031 -27.2702 -1.2546 0.8802
-16.1652 -27.4732 -1.2546 0.8802
-15.4890 -27.8796 -1.2553 0.8801
-15.1505 -28.0830 -1.2559 0.8801
-15.0121 -28.2431 -1.2589 0.8798
-14.2639 -27.2406 -1.2103 0.8842
-13.8592 -27.2836 -1.2045 0.8847
-14.1423 -28.7152 -1.2599 0.8797
-13.2280 -27.2831 -1.1934 0.8857
-13.7073 -28.7228 -1.2527 0.8804
-13.4916 -28.7266 -1.2492 0.8807
-13.0638 -28.7340 -1.2424 0.8813
-12.2091 -27.3009 -1.1771 0.8872
-12.6406 -28.7414 -1.2358 0.8819
-10.2916 -24.6305 -1.0507 0.8987
-11.1497 -27.1550 -1.1554 0.8891
-11.3964 -28.7631 -1.2177 0.8835
-11.1924 -28.7667 -1.2149 0.8838
-10.9894 -28.7702 -1.2122 0.8840
-10.7874 -28.7738 -1.2095 0.8843
-10.3858 -28.7808 -1.2043 0.8847
-9.5985 -28.8119 -1.1953 0.8855
-9.0060 -28.8048 -1.1879 0.8862
-8.3334 -27.2441 -1.1214 0.8922
-8.3149 -27.7969 -1.1420 0.8903
-8.3160 -28.4399 -1.1663 0.8881
-7.7588 -27.8066 -1.1363 0.8909
-7.7490 -28.4498 -1.1606 0.8887
-7.4712 -28.8316 -1.1723 0.8876
-6.5349 -28.8663 -1.1649 0.8883
-6.3482 -28.8695 -1.1634 0.8884
-6.1595 -28.8611 -1.1615 0.8886
-5.4180 -28.8675 -1.1560 0.8891
-4.7944 -27.4103 -1.0952 0.8946
-4.6204 -27.4134 -1.0942 0.8947
-4.2733 -27.4194 -1.0922 0.8949
-3.9274 -27.4254 -1.0905 0.8950
-3.7549 -27.4285 -1.0896 0.8951
-3.2388 -27.4375 -1.0874 0.8953
-2.7247 -27.4464 -1.0856 0.8955
-2.5536 -27.4494 -1.0851 0.8955
-2.3828 -27.4524 -1.0846 0.8956
-2.2120 -27.4554 -1.0841 0.8956
-1.8710 -27.4613 -1.0834 0.8957
-1.8457 -49.7202 -1.9583 0.8194
-1.5357 -49.6513 -1.9552 0.8197
-1.2284 -49.6481 -1.9547 0.8197
-0.9229 -49.7448 -1.9583 0.8194
-0.3076 -49.7548 -1.9584 0.8194
0.3078 -49.7649 -1.9588 0.8194
0.6157 -49.7699 -1.9591 0.8193
0.9236 -49.7749 -1.9595 0.8193
1.4375 -46.4737 -1.8301 0.8302
1.7254 -46.4787 -1.8306 0.8301
1.3891 -28.0544 -1.1056 0.8936
1.5632 -28.0574 -1.1060 0.8936
1.3956 -20.4841 -0.8081 0.9211
1.6312 -20.2466 -0.7995 0.9219
1.7569 -20.2420 -0.7997 0.9219
1.8829 -20.2395 -0.8001 0.9219
2.1355 -20.2378 -0.8010 0.9218
2.2623 -20.2387 -0.8015 0.9217
3.1562 -20.2514 -0.8067 0.9212
3.5425 -20.2534 -0.8093 0.9210
3.6711 -20.2495 -0.8100 0.9209
3.8045 -20.2705 -0.8118 0.9208
3.9344 -20.2706 -0.8127 0.9207
4.0648 -20.2714 -0.8138 0.9206
4.1954 -20.2715 -0.8148 0.9205
4.4577 -20.2722 -0.8170 0.9203
4.7180 -20.2581 -0.8187 0.9201
4.9987 -20.3221 -0.8237 0.9196
7.3465 -29.0903 -1.1809 0.8868
7.5391 -29.0937 -1.1829 0.8866
8.7089 -29.1141 -1.1961 0.8855
9.5094 -29.1441 -1.2066 0.8845
9.9067 -29.1350 -1.2112 0.8841
10.1094 -29.1385 -1.2139 0.8839
10.5175 -29.1456 -1.2196 0.8833
10.6071 -28.2930 -1.1893 0.8861
10.5734 -27.6809 -1.1664 0.8881
11.1529 -28.1487 -1.1917 0.8859
11.1114 -27.5453 -1.1691 0.8879
8.5847 -19.8516 -0.8513 0.9171
8.7122 -19.8092 -0.8518 0.9170
9.2768 -19.7521 -0.8589 0.9164
9.7224 -19.7406 -0.8661 0.9157
9.8757 -19.7429 -0.8689 0.9154
10.0289 -19.7431 -0.8716 0.9152
15.3052 -29.2292 -1.2986 0.8763
15.7733 -29.2374 -1.3076 0.8755
15.2112 -27.7830 -1.2467 0.8809
16.7294 -29.2541 -1.3264 0.8738
16.5919 -27.8036 -1.2744 0.8784
17.6150 -29.1075 -1.3391 0.8727
18.4350 -29.2243 -1.3600 0.8708
18.9534 -29.2385 -1.3714 0.8698
19.4809 -29.2529 -1.3833 0.8688
19.7481 -29.2603 -1.3894 0.8682
34.9009 -50.3574 -2.4115 0.7825
35.3702 -50.3664 -2.4224 0.7816
35.8358 -50.3643 -2.4329 0.7808
21.6327 -28.8641 -1.4197 0.8655
21.8180 -28.7392 -1.4202 0.8655
22.1888 -28.4891 -1.4213 0.8654
23.9838 -29.2705 -1.4894 0.8594
23.7228 -27.8804 -1.4408 0.8637
23.8554 -27.6875 -1.4385 0.8639
24.1600 -27.6928 -1.4465 0.8632
24.4680 -27.6982 -1.4546 0.8625
24.7795 -27.7036 -1.4629 0.8618
26.9891 -29.4331 -1.5718 0.8523
26.9759 -29.0559 -1.5605 0.8532
27.6783 -29.4452 -1.5906 0.8506
28.0291 -29.4513 -1.6002 0.8498
29.1079 -29.4701 -1.6303 0.8472
29.4766 -29.4766 -1.6407 0.8463
28.3576 -28.0090 -1.5688 0.8525
31.0001 -29.5032 -1.6844 0.8426
31.3958 -29.5119 -1.6960 0.8416
32.1615 -29.4909 -1.7175 0.8397
33.0242 -29.5385 -1.7439 0.8375
32.9349 -29.0940 -1.7297 0.8387
32.9411 -28.7387 -1.7206 0.8395
32.9472 -28.3872 -1.7117 0.8402
32.9840 -28.0653 -1.7046 0.8408
29.3428 -24.3479 -1.5007 0.8584
29.5258 -24.1930 -1.5024 0.8583
35.8705 -27.9379 -1.7895 0.8336
36.3420 -27.9457 -1.8044 0.8323
36.4111 -27.2890 -1.7909 0.8335
28.6976 -21.2320 -1.4051 0.8668
28.6419 -20.9180 -1.3960 0.8676
28.6503 -20.3856 -1.3840 0.8687
28.7127 -19.8997 -1.3750 0.8695
28.8495 -19.7315 -1.3757 0.8694
28.9340 -19.5278 -1.3739 0.8696
42.3608 -25.6355 -1.9488 0.8202
42.3739 -24.9327 -1.9351 0.8213
42.7279 -24.0852 -1.9305 0.8217
43.3417 -24.0792 -1.9515 0.8200
43.9689 -24.0731 -1.9730 0.8182
44.6102 -24.0668 -1.9951 0.8164
47.3263 -24.0402 -2.0893 0.8086
48.7949 -24.0317 -2.1408 0.8043
49.5481 -24.0230 -2.1673 0.8022
51.9243 -23.9958 -2.2514 0.7953
52.7579 -23.9862 -2.2811 0.7929
53.6069 -23.9733 -2.3113 0.7905
55.3972 -23.9562 -2.3756 0.7854
56.3303 -23.9473 -2.4092 0.7827
57.0337 -23.8310 -2.4329 0.7808
57.1800 -23.4779 -2.4329 0.7808
57.3241 -23.1238 -2.4329 0.7808
62.1875 -21.1456 -2.5853 0.7688
62.3171 -20.7606 -2.5853 0.7688
62.4443 -20.3748 -2.5853 0.7688
62.5691 -19.9883 -2.5853 0.7688
62.8116 -19.2129 -2.5853 0.7688
62.9292 -18.8241 -2.5853 0.7688
63.1572 -18.0444 -2.5853 0.7688
63.2676 -17.6534 -2.5853 0.7688
63.3755 -17.2618 -2.5853 0.7688
63.5842 -16.4767 -2.5853 0.7688
63.6848 -16.0831 -2.5853 0.7688
