ply
format ascii 1.0
element vertex 1558
property float32 x
property float32 y
property float32 z
property float32 I
end_header
-3.1138 4.4928 0.0691 0.9784
-3.1556 4.4935 0.0694 0.9783
-3.2834 4.4958 0.0703 0.9780
-3.3268 4.4965 0.0707 0.9779
-3.3706 4.4973 0.0710 0.9778
-3.4148 4.4981 0.0713 0.9777
-3.4594 4.4988 0.0717 0.9776
-3.5045 4.4996 0.0721 0.9774
-3.5501 4.5004 0.0724 0.9773
-3.5961 4.5012 0.0728 0.9772
-3.6426 4.5020 0.0732 0.9771
-3.6896 4.5029 0.0735 0.9770
-3.7906 4.4550 0.0739 0.9769
-3.9822 4.5080 0.0760 0.9762
-4.0329 4.5088 0.0764 0.9761
-4.0842 4.5097 0.0769 0.9760
-4.1361 4.5106 0.0773 0.9758
-4.2417 4.5125 0.0782 0.9755
-4.2955 4.5134 0.0787 0.9754
-4.3499 4.5144 0.0792 0.9752
-4.5745 4.5183 0.0812 0.9746
-4.6325 4.5193 0.0818 0.9744
-4.7508 4.5214 0.0829 0.9741
-4.8111 4.5224 0.0834 0.9739
-4.8791 4.4739 0.0837 0.9739
-4.9720 4.5029 0.0847 0.9735
-9.6338 8.6170 0.1633 0.9496
-9.9948 8.7197 0.1676 0.9483
-10.3854 8.7266 0.1714 0.9472
-10.5196 8.7289 0.1727 0.9468
-10.6800 8.6412 0.1735 0.9465
-11.1491 8.6835 0.1785 0.9450
-11.2601 8.6586 0.1794 0.9448
-4.8909 3.6186 0.0769 0.9760
-4.9932 3.6467 0.0781 0.9756
-12.4054 8.7118 0.1915 0.9412
-13.4577 8.7238 0.2026 0.9379
-13.4898 8.6266 0.2023 0.9380
-13.5269 8.4164 0.2013 0.9383
-13.5381 8.1929 0.1999 0.9387
-13.8189 8.0164 0.2018 0.9381
-14.0592 7.6974 0.2025 0.9379
-14.1490 7.5206 0.2024 0.9379
-14.2596 7.4667 0.2034 0.9376
-14.3712 7.4123 0.2043 0.9374
-14.4838 7.3573 0.2052 0.9371
-14.9720 7.3738 0.2108 0.9354
-15.3404 7.3209 0.2147 0.9343
-56.6833 26.6217 0.7912 0.7784
-56.6906 26.1985 0.7890 0.7789
-56.6980 25.7776 0.7869 0.7795
-56.7053 25.3589 0.7848 0.7800
-17.6076 7.7439 0.2430 0.9259
-17.7421 7.5426 0.2436 0.9258
-58.8419 24.5866 0.8057 0.7748
-54.3662 21.1526 0.7371 0.7919
-54.4230 20.7881 0.7360 0.7921
-54.4429 19.6463 0.7312 0.7933
-51.2829 18.1484 0.6873 0.8044
-54.4560 18.8931 0.7282 0.7941
-54.4626 18.5189 0.7267 0.7944
-54.4756 17.7747 0.7239 0.7951
-54.4885 17.0362 0.7212 0.7958
-54.4211 16.2791 0.7176 0.7967
-57.3717 16.3914 0.7538 0.7877
-58.9642 16.4526 0.7734 0.7828
-53.1495 13.7727 0.6936 0.8028
-53.1738 12.3840 0.6897 0.8038
-53.1798 12.0391 0.6888 0.8040
-53.1858 11.6952 0.6880 0.8043
-53.1918 11.3522 0.6871 0.8045
-53.1978 11.0099 0.6863 0.8047
-53.2097 10.3278 0.6848 0.8051
-53.2156 9.9878 0.6840 0.8053
-53.2215 9.6486 0.6833 0.8054
-53.2275 9.3101 0.6827 0.8056
-53.2334 8.9722 0.6820 0.8058
-53.2451 8.2982 0.6808 0.8061
-53.2685 6.9571 0.6787 0.8066
-53.2744 6.6231 0.6782 0.8067
-53.2802 6.2894 0.6778 0.8068
-53.2918 5.6234 0.6770 0.8071
-53.3034 4.9588 0.6763 0.8072
-57.7341 4.6515 0.7317 0.7932
-57.7403 4.2928 0.7315 0.7932
-57.7466 3.9344 0.7312 0.7933
-57.7528 3.5761 0.7310 0.7934
-57.7591 3.2181 0.7308 0.7934
-57.7654 2.8602 0.7307 0.7935
-57.7903 1.4298 0.7303 0.7935
-55.8960 0.6914 0.7062 0.7996
-55.9267 -0.3459 0.2913 0.7995
-55.9327 -0.6919 0.2913 0.7995
-55.9448 -1.3842 0.2915 0.7994
-55.9509 -1.7306 0.2915 0.7994
-55.9443 -2.0768 0.2916 0.7994
-49.6666 -2.1514 0.2589 0.8197
-49.3355 -2.7488 0.2574 0.8207
-49.0083 -3.3390 0.2558 0.8216
-48.6849 -3.9225 0.2544 0.8225
-48.5246 -4.2118 0.2537 0.8230
-48.3651 -4.4994 0.2530 0.8234
-48.0488 -5.0702 0.2516 0.8243
-47.7357 -5.6350 0.2503 0.8251
-47.5804 -5.9152 0.2497 0.8255
-47.4258 -6.1940 0.2491 0.8259
-47.2720 -6.4715 0.2485 0.8263
-47.1189 -6.7477 0.2479 0.8266
-46.8149 -7.2961 0.2468 0.8274
-47.6578 -9.5564 0.2532 0.8233
-46.7505 -11.1933 0.2504 0.8251
-44.6133 -11.2668 0.2397 0.8319
-44.4708 -11.5238 0.2393 0.8321
-44.3290 -11.7801 0.2389 0.8324
-44.1876 -12.0356 0.2385 0.8326
-44.0467 -12.2903 0.2382 0.8328
-43.9060 -12.5442 0.2378 0.8331
-43.7656 -12.7973 0.2375 0.8333
-43.6257 -13.0498 0.2372 0.8335
-43.4861 -13.3016 0.2368 0.8337
-39.7686 -12.9760 0.2179 0.8459
-38.9641 -12.9807 0.2139 0.8485
-38.1885 -12.9852 0.2101 0.8510
-37.4402 -12.9896 0.2064 0.8534
-37.2114 -13.4281 0.2060 0.8536
-37.2160 -13.6905 0.2065 0.8533
-37.2252 -14.2190 0.2075 0.8527
-41.8365 -16.2776 0.2338 0.8356
-41.5653 -16.7669 0.2334 0.8359
-41.2949 -17.2547 0.2331 0.8361
-41.1600 -17.4981 0.2329 0.8362
-41.6984 -18.0323 0.2366 0.8338
-44.2606 -19.4660 0.2518 0.8241
-43.8245 -20.2527 0.2514 0.8244
-43.6795 -20.5144 0.2513 0.8245
-48.9259 -23.7214 0.2832 0.8045
-32.6719 -16.8513 0.1915 0.8633
-43.8207 -27.2652 0.2688 0.8135
-43.2386 -27.2754 0.2663 0.8151
-42.2756 -27.7774 0.2635 0.8168
-42.2822 -28.1577 0.2646 0.8161
-33.2763 -27.6118 0.2252 0.8412
-32.9372 -27.6762 0.2240 0.8419
-32.6586 -27.7885 0.2233 0.8424
-32.2604 -27.7954 0.2218 0.8434
-30.7210 -27.8223 0.2159 0.8472
-29.6188 -27.8415 0.2117 0.8499
-28.9071 -27.8539 0.2091 0.8517
-28.0585 -27.7136 0.2054 0.8541
-27.7325 -27.7325 0.2043 0.8548
-27.3741 -27.7149 0.2029 0.8557
-27.1388 -27.8186 0.2025 0.8560
-26.8733 -27.8895 0.2017 0.8565
-25.2830 -27.9172 0.1962 0.8601
-24.9753 -27.9226 0.1951 0.8608
-24.6709 -27.9279 0.1941 0.8615
-24.3696 -27.9332 0.1931 0.8622
-24.0715 -27.9384 0.1921 0.8629
-23.7765 -27.9435 0.1911 0.8635
-23.1952 -27.9537 0.1892 0.8648
-22.7749 -27.7951 0.1872 0.8661
-21.2687 -27.6589 0.1817 0.8697
-21.0013 -27.6635 0.1809 0.8703
-20.7364 -27.6682 0.1801 0.8708
-20.2135 -27.6773 0.1785 0.8719
-19.9554 -27.6818 0.1777 0.8724
-22.1367 -32.7995 0.2061 0.8536
-22.1527 -33.7151 0.2101 0.8510
-14.3618 -28.7114 0.1672 0.8795
-13.7073 -28.7228 0.1658 0.8805
-13.4656 -28.6710 0.1650 0.8810
-12.8736 -28.7868 0.1642 0.8815
-12.4306 -28.7451 0.1631 0.8823
-10.4071 -24.4802 0.1385 0.8991
-10.2998 -24.6502 0.1391 0.8986
-10.9894 -28.7702 0.1604 0.8841
-10.7822 -28.7599 0.1600 0.8844
-10.5862 -28.7773 0.1597 0.8846
-9.9877 -28.7877 0.1587 0.8852
-9.5928 -28.7946 0.1581 0.8857
-9.0060 -28.8048 0.1572 0.8863
-8.8119 -28.8082 0.1569 0.8865
-8.6184 -28.8116 0.1566 0.8867
-7.8149 -27.3532 0.1482 0.8924
-8.2381 -29.5243 0.1596 0.8846
-7.8512 -28.8250 0.1556 0.8874
-7.6609 -28.8283 0.1554 0.8875
-7.4712 -28.8316 0.1551 0.8877
-7.2820 -28.8349 0.1549 0.8878
-7.0934 -28.8382 0.1547 0.8880
-6.9054 -28.8415 0.1545 0.8881
-6.5308 -28.8481 0.1541 0.8884
-6.3442 -28.8513 0.1539 0.8886
-5.6024 -28.8643 0.1531 0.8890
-5.0503 -28.8739 0.1527 0.8894
-4.8671 -28.8771 0.1525 0.8895
-4.6841 -28.8803 0.1524 0.8896
-4.5015 -28.8835 0.1522 0.8896
-4.3106 -28.8293 0.1518 0.8899
-4.1372 -28.8898 0.1520 0.8898
-3.9554 -28.8930 0.1519 0.8899
-3.7740 -28.8962 0.1518 0.8900
-3.4176 -28.9519 0.1518 0.8899
-3.0557 -28.9582 0.1517 0.8901
-2.8750 -28.9613 0.1516 0.8901
-2.6848 -28.8592 0.1510 0.8905
-2.3302 -28.9214 0.1511 0.8904
-1.9709 -28.9277 0.1510 0.8905
-1.6699 -29.9712 0.1563 0.8869
1.4375 -46.4737 0.2422 0.8303
1.7254 -46.4787 0.2422 0.8302
1.5632 -28.0574 0.1464 0.8937
1.7375 -28.0604 0.1464 0.8936
2.0867 -28.0665 0.1466 0.8935
2.2615 -28.0696 0.1467 0.8935
4.3836 -33.5642 0.1763 0.8734
4.4509 -32.5119 0.1709 0.8770
4.4731 -31.2358 0.1643 0.8814
4.5260 -29.0411 0.1531 0.8891
5.2672 -29.0540 0.1538 0.8886
5.6502 -29.1101 0.1544 0.8881
6.2148 -29.1200 0.1551 0.8877
6.3807 -29.0174 0.1547 0.8879
6.9633 -29.0836 0.1558 0.8873
7.5391 -29.0937 0.1565 0.8867
7.7323 -29.0970 0.1568 0.8865
8.3161 -29.1072 0.1577 0.8860
8.5121 -29.1106 0.1580 0.8858
8.7089 -29.1141 0.1583 0.8855
9.3041 -29.1245 0.1592 0.8849
9.5041 -29.1279 0.1596 0.8847
9.9067 -29.1350 0.1603 0.8842
10.5175 -29.1456 0.1614 0.8834
11.0277 -29.9775 0.1664 0.8801
11.5551 -29.1637 0.1634 0.8821
12.6197 -29.1823 0.1656 0.8806
12.8362 -29.1861 0.1661 0.8803
13.0539 -29.1899 0.1665 0.8799
13.2729 -29.1937 0.1670 0.8796
13.4931 -29.1976 0.1675 0.8793
15.0736 -29.2252 0.1713 0.8767
15.3052 -29.2292 0.1718 0.8764
16.0371 -29.2914 0.1739 0.8750
16.4878 -29.2498 0.1749 0.8743
16.7294 -29.2541 0.1755 0.8739
17.2180 -29.2626 0.1768 0.8730
26.8007 -34.8529 0.2290 0.8387
26.8083 -34.4202 0.2272 0.8399
23.9861 -29.6455 0.1986 0.8585
23.9988 -28.9221 0.1957 0.8604
24.0049 -28.5681 0.1943 0.8613
26.8908 -29.6925 0.2086 0.8519
27.3316 -29.4391 0.2092 0.8516
27.6783 -29.4452 0.2105 0.8507
26.9429 -27.9616 0.2022 0.8561
29.1079 -29.4701 0.2157 0.8473
29.7908 -29.4246 0.2181 0.8458
30.1766 -28.0163 0.2145 0.8481
32.1976 -29.5241 0.2275 0.8397
32.6080 -29.5312 0.2291 0.8386
33.4464 -29.5459 0.2324 0.8365
33.8748 -29.5533 0.2341 0.8354
34.3095 -29.5609 0.2359 0.8343
29.6215 -24.2714 0.1995 0.8580
36.5120 -29.5419 0.2446 0.8287
36.9877 -29.5502 0.2466 0.8275
37.5456 -29.6174 0.2491 0.8259
39.5649 -29.6527 0.2575 0.8206
39.6059 -28.1809 0.2532 0.8233
32.8526 -23.0710 0.2091 0.8517
46.6519 -29.8333 0.2884 0.8013
46.6588 -29.4329 0.2873 0.8020
46.6658 -29.0354 0.2863 0.8026
47.0149 -28.8508 0.2873 0.8020
47.6933 -28.8626 0.2903 0.8001
49.4127 -24.7169 0.2878 0.8017
63.3622 2.7446 0.3303 0.7759
62.8182 4.6704 0.3281 0.7773
67.0974 6.2421 0.3510 0.7637
64.7484 6.4277 0.3389 0.7708
64.7554 6.8331 0.3391 0.7707
64.7696 7.6457 0.3397 0.7704
64.8661 8.0641 0.3404 0.7699
64.7910 8.8698 0.3406 0.7698
61.0564 9.1292 0.3215 0.7812
64.8125 10.1010 0.3416 0.7692
64.8197 10.5132 0.3420 0.7690
64.8269 10.9262 0.3424 0.7688
64.9235 11.3558 0.3433 0.7682
64.9308 11.7714 0.3437 0.7680
64.8559 12.5882 0.3441 0.7678
20.2186 4.0543 0.1074 0.9208
29.2025 6.6110 0.1559 0.8871
28.9951 6.7529 0.1551 0.8877
28.3066 7.5222 0.1525 0.8894
28.1968 7.6801 0.1522 0.8897
28.1714 7.8606 0.1523 0.8896
28.1460 8.0415 0.1525 0.8895
22.1260 6.7679 0.1205 0.9116
21.9284 6.8561 0.1197 0.9122
21.1463 6.8998 0.1159 0.9149
20.9786 6.9889 0.1152 0.9153
20.7910 7.0696 0.1144 0.9159
18.7865 6.9109 0.1043 0.9231
18.1715 6.8126 0.1011 0.9253
18.0874 6.9089 0.1008 0.9255
17.8098 7.0565 0.0998 0.9262
17.6975 7.2665 0.0996 0.9263
17.6281 7.3657 0.0995 0.9264
17.5588 7.4646 0.0994 0.9265
17.4897 7.5633 0.0992 0.9266
17.4208 7.6617 0.0991 0.9267
17.3520 7.7599 0.0990 0.9268
17.1831 7.8123 0.0983 0.9273
17.2108 7.9536 0.0987 0.9270
17.0992 8.2904 0.0990 0.9268
16.3466 8.3036 0.0955 0.9293
15.7477 8.3704 0.0929 0.9311
15.5314 8.3791 0.0919 0.9318
15.3125 8.3836 0.0909 0.9326
14.9503 8.3059 0.0891 0.9339
14.5137 8.2999 0.0871 0.9353
14.3692 8.3356 0.0865 0.9357
14.0764 8.4001 0.0854 0.9365
13.8852 8.4029 0.0845 0.9371
11.6958 7.1772 0.0715 0.9466
11.1543 6.9402 0.0684 0.9488
11.1419 7.0284 0.0686 0.9487
10.2823 7.0326 0.0649 0.9514
10.2058 7.0733 0.0647 0.9515
10.1297 7.1137 0.0645 0.9517
10.0542 7.1538 0.0643 0.9518
9.9791 7.1938 0.0641 0.9520
9.8685 7.2073 0.0636 0.9523
9.7838 7.5234 0.0643 0.9518
9.3845 7.8855 0.0638 0.9522
9.3694 8.1742 0.0648 0.9515
9.3321 8.4516 0.0656 0.9509
9.3340 8.5589 0.0660 0.9506
9.3359 8.6675 0.0663 0.9503
9.3417 9.0014 0.0676 0.9494
9.3437 9.1154 0.0680 0.9491
9.3457 9.2308 0.0684 0.9488
9.3478 9.3478 0.0689 0.9485
9.3106 9.4265 0.0690 0.9484
9.4590 9.6959 0.0705 0.9473
9.4611 9.8189 0.0710 0.9469
9.4633 9.9435 0.0715 0.9466
9.4043 10.0046 0.0715 0.9466
9.4700 10.3276 0.0730 0.9455
9.4723 10.4592 0.0735 0.9451
9.4747 10.5927 0.0740 0.9447
9.4770 10.7281 0.0746 0.9443
9.4819 11.0050 0.0757 0.9435
9.4359 11.0896 0.0758 0.9434
9.3265 11.0994 0.0755 0.9437
9.3820 11.3066 0.0765 0.9429
9.3897 11.7530 0.0783 0.9416
9.3952 12.0628 0.0796 0.9407
9.4065 12.7140 0.0824 0.9387
9.3928 13.2008 0.0844 0.9372
9.5330 13.9383 0.0880 0.9347
9.5364 14.1299 0.0888 0.9341
9.5468 14.7274 0.0914 0.9322
9.5054 14.8641 0.0919 0.9319
9.3927 14.8899 0.0917 0.9320
4.8883 7.8565 0.0482 0.9637
4.4132 7.1917 0.0439 0.9668
4.2748 7.1635 0.0434 0.9672
4.1909 7.1225 0.0430 0.9675
4.1085 7.0823 0.0426 0.9678
4.0276 7.0429 0.0423 0.9681
3.9202 6.9546 0.0416 0.9686
3.8616 6.9508 0.0414 0.9687
3.6492 7.0751 0.0415 0.9687
3.5944 7.0761 0.0413 0.9688
3.4821 7.0701 0.0410 0.9690
3.4322 7.0789 0.0410 0.9690
3.3255 7.0808 0.0407 0.9692
3.2727 7.0817 0.0406 0.9693
3.1146 6.9646 0.0397 0.9699
3.0668 6.9731 0.0397 0.9700
2.9987 7.0538 0.0399 0.9698
2.9567 7.0762 0.0399 0.9698
2.7458 7.1883 0.0401 0.9697
2.7034 7.2109 0.0401 0.9697
2.5268 7.2830 0.0401 0.9696
2.5417 7.4751 0.0411 0.9689
2.5069 7.5249 0.0413 0.9688
2.4717 7.5751 0.0415 0.9686
2.3641 7.7288 0.0421 0.9682
2.2137 7.9337 0.0429 0.9676
2.0981 7.8952 0.0425 0.9679
2.0733 8.2097 0.0441 0.9667
1.9690 8.4545 0.0452 0.9659
1.9142 8.4555 0.0452 0.9659
1.8595 8.4564 0.0451 0.9660
1.6963 8.4593 0.0449 0.9661
1.5880 8.4612 0.0448 0.9662
1.5341 8.4621 0.0448 0.9662
1.4803 8.4630 0.0447 0.9662
1.2126 8.4677 0.0446 0.9664
1.1014 8.4332 0.0443 0.9666
1.0482 8.4314 0.0442 0.9666
0.9533 8.5287 0.0447 0.9663
0.8468 8.5305 0.0446 0.9663
0.7406 8.5324 0.0446 0.9663
0.6875 8.5333 0.0446 0.9663
0.6345 8.5342 0.0446 0.9663
0.5815 8.5351 0.0446 0.9664
0.5286 8.5361 0.0445 0.9664
0.4227 8.5379 0.0445 0.9664
0.2113 8.5416 0.0445 0.9664
0.0528 8.5444 0.0445 0.9664
-0.1045 8.4522 0.0440 0.9668
-0.2627 8.4935 0.0443 0.9666
-0.3153 8.4944 0.0443 0.9666
-0.5790 8.4990 0.0444 0.9665
-0.6817 8.4615 0.0442 0.9666
-0.7343 8.4597 0.0442 0.9666
-0.4355 3.8961 0.0204 0.9844
-0.4565 3.8673 0.0203 0.9845
-0.5224 3.8159 0.0201 0.9847
-0.5459 3.8122 0.0201 0.9847
-0.6188 3.8152 0.0201 0.9847
-0.6444 3.8233 0.0202 0.9846
-0.6723 3.8436 0.0203 0.9845
-1.6091 8.5734 0.0454 0.9657
-1.7195 8.5753 0.0456 0.9656
-2.0410 8.5245 0.0457 0.9655
-2.1533 8.5265 0.0458 0.9654
-2.2664 8.5284 0.0460 0.9653
-2.3232 8.5294 0.0460 0.9653
-2.3802 8.5304 0.0461 0.9652
-2.5526 8.5334 0.0464 0.9650
-2.6105 8.5345 0.0465 0.9649
-2.7857 8.5375 0.0468 0.9647
-2.8205 8.4664 0.0465 0.9649
-2.8404 8.3536 0.0460 0.9653
-1.5698 4.4360 0.0245 0.9814
-1.6037 4.4441 0.0246 0.9813
-1.6665 4.4452 0.0247 0.9812
-1.6877 4.4182 0.0246 0.9813
-3.1203 7.8753 0.0441 0.9667
-3.2299 7.7299 0.0436 0.9670
-3.3371 7.5876 0.0432 0.9674
-3.3723 7.5408 0.0430 0.9675
-3.3512 7.3709 0.0422 0.9681
-3.3893 7.3341 0.0421 0.9682
-3.5423 7.3062 0.0423 0.9680
-1.5925 3.1351 0.0183 0.9860
-1.6084 3.1184 0.0183 0.9861
-1.6475 3.1464 0.0185 0.9859
-1.7083 3.1202 0.0185 0.9859
-3.9375 7.0873 0.0422 0.9681
-4.0641 7.2098 0.0431 0.9674
-4.1836 7.2119 0.0434 0.9672
-2.9101 4.4893 0.0279 0.9788
-2.9905 4.4906 0.0281 0.9786
-3.0313 4.4914 0.0282 0.9786
-3.1978 4.4943 0.0287 0.9782
-3.4148 4.4981 0.0294 0.9777
-3.4594 4.4988 0.0296 0.9776
-3.5045 4.4996 0.0297 0.9774
-3.5501 4.5004 0.0299 0.9773
-3.5961 4.5012 0.0300 0.9772
-3.6426 4.5020 0.0302 0.9771
-3.6896 4.5029 0.0303 0.9770
-3.7693 4.4858 0.0305 0.9768
-3.8630 4.4835 0.0308 0.9766
-3.9822 4.5080 0.0313 0.9762
-4.0329 4.5088 0.0315 0.9761
-4.0842 4.5097 0.0317 0.9760
-4.2417 4.5125 0.0323 0.9755
-4.2955 4.5134 0.0325 0.9754
-4.4050 4.5154 0.0329 0.9751
-4.4608 4.5163 0.0331 0.9749
-4.6325 4.5193 0.0337 0.9744
-4.6912 4.5203 0.0339 0.9743
-4.8750 4.5261 0.0346 0.9737
-4.8791 4.4739 0.0345 0.9739
-9.6338 8.6170 0.0673 0.9496
-10.1231 8.7220 0.0696 0.9480
-10.2617 8.7314 0.0702 0.9475
-10.3953 8.7349 0.0707 0.9471
-10.5196 8.7289 0.0712 0.9468
-10.6559 8.7313 0.0718 0.9464
-4.8893 3.7118 0.0320 0.9757
-4.8901 3.6650 0.0318 0.9759
-4.9932 3.6467 0.0322 0.9756
-12.4056 8.7120 0.0790 0.9412
-12.5087 8.6693 0.0793 0.9409
-12.7367 8.7112 0.0804 0.9401
-13.5453 8.3121 0.0828 0.9384
-13.5381 8.1929 0.0824 0.9387
-13.6994 8.1751 0.0831 0.9382
-13.8440 7.9169 0.0831 0.9382
-13.9389 7.8572 0.0833 0.9380
-14.2596 7.4667 0.0838 0.9376
-14.4838 7.3573 0.0846 0.9371
-15.3404 7.3209 0.0885 0.9343
-56.6833 26.6217 0.3262 0.7784
-56.6980 25.7776 0.3244 0.7795
-56.7053 25.3589 0.3235 0.7800
-17.6191 7.6193 0.1000 0.9261
-58.8419 24.5866 0.3321 0.7748
-59.9263 24.6055 0.3374 0.7717
-54.2448 21.4926 0.3039 0.7918
-54.4230 20.7881 0.3034 0.7921
-54.4296 20.4059 0.3028 0.7925
-54.4429 19.6463 0.3015 0.7933
-54.4756 17.7747 0.2984 0.7952
-54.4885 17.0362 0.2973 0.7958
-54.3299 16.6185 0.2959 0.7967
-54.9719 16.0741 0.2983 0.7953
-59.2918 16.1495 0.3201 0.7821
-53.1495 13.7727 0.2860 0.8028
-53.1803 12.7327 0.2848 0.8035
-53.1984 11.6979 0.2837 0.8042
-53.2104 11.0125 0.2830 0.8046
-53.2163 10.6709 0.2827 0.8048
-53.2223 10.3302 0.2824 0.8050
-53.2392 8.6349 0.2809 0.8059
-53.2636 7.9641 0.2805 0.8062
-53.2753 7.2933 0.2801 0.8065
-53.1313 6.2718 0.2786 0.8073
-53.3034 4.9588 0.2788 0.8072
-57.7403 4.2928 0.3016 0.7933
-57.7466 3.9344 0.3015 0.7933
-57.7591 3.2181 0.3013 0.7934
-57.7654 2.8602 0.3012 0.7935
-55.9020 0.3457 0.2912 0.7996
-46.9151 0.0000 -0.1040 0.8289
-49.5006 -2.4510 -0.1098 0.8202
-49.1715 -3.0448 -0.1092 0.8211
-49.0084 -3.3390 -0.1089 0.8216
-48.5246 -4.2118 -0.1079 0.8230
-48.3651 -4.4995 -0.1077 0.8234
-48.2065 -4.7856 -0.1074 0.8238
-48.0488 -5.0702 -0.1071 0.8243
-47.7357 -5.6349 -0.1065 0.8251
-46.9666 -7.0225 -0.1052 0.8270
-46.8149 -7.2961 -0.1050 0.8274
-47.5687 -7.7152 -0.1068 0.8247
-48.3521 -8.1495 -0.1087 0.8219
-48.1194 -8.7236 -0.1084 0.8223
-47.6578 -9.5564 -0.1077 0.8233
-47.5051 -9.8318 -0.1075 0.8236
-47.3531 -10.1061 -0.1073 0.8239
-46.9003 -10.9229 -0.1067 0.8248
-46.7505 -11.1933 -0.1065 0.8251
-44.3097 -11.4820 -0.1014 0.8327
-44.1682 -11.7373 -0.1013 0.8329
-44.0271 -11.9918 -0.1011 0.8332
-43.9911 -12.2747 -0.1012 0.8330
-43.6257 -13.0498 -0.1009 0.8335
-43.4861 -13.3016 -0.1008 0.8337
-43.3469 -13.5527 -0.1007 0.8339
-38.6572 -12.6134 -0.0901 0.8499
-36.5705 -13.1968 -0.0862 0.8560
-36.6608 -13.4862 -0.0866 0.8553
-36.6653 -13.7459 -0.0868 0.8550
-36.6744 -14.2692 -0.0872 0.8544
-36.6837 -14.7977 -0.0877 0.8537
-36.6883 -15.0640 -0.0879 0.8533
-36.6977 -15.6011 -0.0884 0.8526
-36.7024 -15.8718 -0.0886 0.8522
-36.7072 -16.1440 -0.0889 0.8518
-36.7119 -16.4178 -0.0891 0.8514
-36.7216 -16.9702 -0.0897 0.8506
-36.7313 -17.5293 -0.0902 0.8498
-36.7363 -17.8114 -0.0905 0.8493
-36.6644 -18.0574 -0.0906 0.8492
-36.6652 -18.6248 -0.0911 0.8483
-36.7808 -19.8429 -0.0926 0.8461
-36.7912 -20.4400 -0.0933 0.8451
-36.8125 -21.6604 -0.0947 0.8429
-36.8180 -21.9712 -0.0950 0.8424
-36.8345 -22.9184 -0.0961 0.8407
-36.7546 -23.5041 -0.0967 0.8399
-36.8522 -24.2139 -0.0977 0.8383
-36.8697 -25.2170 -0.0990 0.8364
-36.8757 -25.5572 -0.0994 0.8357
-36.8817 -25.9004 -0.0999 0.8350
-36.9000 -26.9491 -0.1013 0.8330
-36.9062 -27.3052 -0.1018 0.8322
-36.9188 -28.0277 -0.1027 0.8308
-36.9356 -29.5086 -0.1048 0.8277
-33.2763 -27.6118 -0.0958 0.8412
-32.9372 -27.6762 -0.0954 0.8419
-31.8677 -27.8023 -0.0937 0.8444
-31.4803 -27.8090 -0.0931 0.8453
-31.0981 -27.8157 -0.0925 0.8463
-29.6188 -27.8415 -0.0901 0.8499
-28.9071 -27.8539 -0.0890 0.8517
-28.0585 -27.7136 -0.0874 0.8541
-27.3741 -27.7149 -0.0863 0.8557
-27.1388 -27.8186 -0.0862 0.8560
-26.8733 -27.8895 -0.0858 0.8565
-25.9086 -27.9063 -0.0844 0.8587
-25.5941 -27.9118 -0.0839 0.8594
-24.9753 -27.9226 -0.0830 0.8608
-24.6709 -27.9279 -0.0826 0.8615
-24.3697 -27.9332 -0.0822 0.8622
-24.0715 -27.9384 -0.0817 0.8629
-22.7749 -27.7951 -0.0796 0.8661
-22.4930 -27.8001 -0.0793 0.8667
-22.2281 -27.8227 -0.0790 0.8672
-22.0688 -27.9765 -0.0790 0.8672
-22.0585 -28.3218 -0.0796 0.8662
-20.4738 -27.6727 -0.0763 0.8714
-20.2135 -27.6773 -0.0760 0.8719
-19.9554 -27.6818 -0.0756 0.8724
-19.6996 -27.6863 -0.0753 0.8729
-19.6117 -27.9267 -0.0756 0.8724
-19.6184 -28.3068 -0.0763 0.8713
-19.6251 -28.6939 -0.0770 0.8702
-22.1367 -32.7995 -0.0877 0.8536
-31.8433 -49.1230 -0.1298 0.7912
-31.4738 -49.2173 -0.1295 0.7916
-30.6314 -49.2311 -0.1285 0.7930
-30.2149 -49.2380 -0.1280 0.7937
-29.8014 -49.2448 -0.1276 0.7943
-28.1766 -49.2715 -0.1258 0.7969
-26.9321 -49.1911 -0.1243 0.7991
-26.5508 -49.2147 -0.1239 0.7996
-25.0468 -49.3079 -0.1226 0.8015
-13.4655 -28.6710 -0.0702 0.8810
-13.0862 -28.7831 -0.0701 0.8812
-12.8736 -28.7868 -0.0699 0.8815
-12.6622 -28.7905 -0.0697 0.8818
-10.6043 -24.5217 -0.0592 0.8986
-10.4068 -24.4795 -0.0590 0.8991
-10.2985 -24.6469 -0.0592 0.8987
-11.7836 -28.6989 -0.0688 0.8833
-11.6012 -28.7596 -0.0687 0.8833
-11.3963 -28.7631 -0.0686 0.8836
-10.7822 -28.7599 -0.0681 0.8844
-10.5862 -28.7773 -0.0680 0.8846
-9.9765 -28.7554 -0.0675 0.8854
-9.7788 -28.7589 -0.0673 0.8856
-9.1906 -28.7691 -0.0669 0.8862
-9.0060 -28.8048 -0.0669 0.8863
-8.8119 -28.8082 -0.0668 0.8865
-8.6184 -28.8116 -0.0667 0.8867
-8.4257 -28.8150 -0.0665 0.8868
-7.8149 -27.3532 -0.0631 0.8924
-8.2381 -29.5243 -0.0679 0.8846
-7.6609 -28.8283 -0.0661 0.8875
-6.7103 -28.8124 -0.0656 0.8884
-5.9724 -28.8578 -0.0653 0.8888
-5.7872 -28.8610 -0.0652 0.8889
-5.4180 -28.8675 -0.0651 0.8892
-4.9679 -27.4029 -0.0617 0.8946
-4.8670 -28.8771 -0.0649 0.8895
-4.6841 -28.8803 -0.0648 0.8896
-4.5015 -28.8835 -0.0648 0.8896
-3.4176 -28.9519 -0.0646 0.8899
-3.2365 -28.9550 -0.0646 0.8900
-2.1505 -28.9245 -0.0643 0.8905
-1.7004 -27.4599 -0.0610 0.8958
-2.4612 -49.7067 -0.1103 0.8195
-1.8457 -49.7181 -0.1103 0.8195
-0.9229 -49.7431 -0.1103 0.8195
-0.3076 -49.7531 -0.1103 0.8195
0.6157 -49.7682 -0.1103 0.8195
1.1497 -46.4687 -0.1030 0.8303
1.4375 -46.4737 -0.1031 0.8303
2.0135 -46.4838 -0.1031 0.8302
1.3891 -28.0544 -0.0623 0.8937
1.5632 -28.0574 -0.0623 0.8937
1.7375 -28.0604 -0.0623 0.8936
1.9120 -28.0635 -0.0623 0.8936
2.0867 -28.0665 -0.0624 0.8935
2.2615 -28.0696 -0.0624 0.8935
2.6119 -28.0757 -0.0625 0.8933
5.5713 -49.8426 -0.1112 0.8182
6.1978 -49.8538 -0.1113 0.8180
4.3836 -33.5641 -0.0750 0.8734
4.4509 -32.5119 -0.0727 0.8770
4.4938 -30.0542 -0.0674 0.8855
4.5260 -29.0411 -0.0651 0.8891
4.7107 -29.0443 -0.0652 0.8890
4.6469 -27.5707 -0.0620 0.8942
5.2672 -29.0540 -0.0654 0.8886
5.4535 -29.0564 -0.0655 0.8885
5.8378 -29.1134 -0.0658 0.8880
6.0260 -29.1167 -0.0659 0.8879
6.5826 -29.0770 -0.0661 0.8876
6.9633 -29.0836 -0.0663 0.8873
7.3465 -29.0903 -0.0665 0.8869
7.7277 -27.6950 -0.0638 0.8914
8.7089 -29.1141 -0.0673 0.8855
8.8965 -29.0848 -0.0674 0.8854
9.1051 -29.1216 -0.0676 0.8851
9.5043 -29.1285 -0.0679 0.8847
9.7052 -29.1320 -0.0681 0.8844
9.9067 -29.1350 -0.0682 0.8842
10.1094 -29.1385 -0.0684 0.8839
10.3130 -29.1421 -0.0685 0.8837
9.3575 -24.4979 -0.0581 0.9004
11.5551 -29.1637 -0.0695 0.8821
11.1676 -27.6845 -0.0662 0.8874
11.9641 -29.1384 -0.0698 0.8816
12.4046 -29.1788 -0.0703 0.8809
12.6199 -29.1826 -0.0705 0.8806
12.8260 -29.1629 -0.0706 0.8804
13.2729 -29.1937 -0.0711 0.8796
13.4931 -29.1976 -0.0713 0.8793
14.1619 -29.2093 -0.0719 0.8782
14.3876 -29.2132 -0.0722 0.8779
16.0371 -29.2914 -0.0740 0.8750
16.7294 -29.2541 -0.0747 0.8739
30.4338 -50.2895 -0.1303 0.7905
30.8649 -50.2970 -0.1308 0.7897
31.7375 -50.3123 -0.1318 0.7882
34.3760 -50.2611 -0.1350 0.7838
34.8990 -50.3546 -0.1358 0.7827
35.8418 -50.3726 -0.1370 0.7809
36.8021 -50.3910 -0.1383 0.7791
37.2890 -50.4003 -0.1390 0.7782
38.2769 -50.4193 -0.1403 0.7763
26.8083 -34.4202 -0.0967 0.8399
26.7727 -33.9394 -0.0958 0.8412
23.9909 -29.2791 -0.0839 0.8595
24.2097 -28.4527 -0.0828 0.8612
25.4691 -28.4747 -0.0847 0.8583
27.3317 -29.4391 -0.0890 0.8516
26.9429 -27.9616 -0.0861 0.8561
28.7135 -29.4327 -0.0911 0.8483
29.8500 -29.4831 -0.0930 0.8455
30.2283 -29.4897 -0.0936 0.8446
30.6116 -29.4964 -0.0942 0.8436
31.0001 -29.5032 -0.0949 0.8427
30.1765 -28.0163 -0.0913 0.8481
33.0242 -29.5385 -0.0982 0.8376
33.4464 -29.5459 -0.0989 0.8365
33.8748 -29.5533 -0.0996 0.8354
34.3095 -29.5609 -0.1004 0.8343
32.9840 -28.0653 -0.0960 0.8409
29.3624 -24.3642 -0.0846 0.8585
29.6196 -24.2698 -0.0849 0.8580
36.5846 -29.6006 -0.1043 0.8284
39.0473 -29.6436 -0.1087 0.8219
42.2616 -31.2674 -0.1165 0.8104
32.8526 -23.0710 -0.0890 0.8517
33.0752 -22.9232 -0.0892 0.8513
42.2969 -28.9288 -0.1136 0.8147
42.3109 -28.1767 -0.1127 0.8160
42.3247 -27.4364 -0.1118 0.8173
42.3450 -26.3469 -0.1105 0.8191
42.3516 -25.9891 -0.1101 0.8197
42.3582 -25.6339 -0.1097 0.8203
42.3778 -24.5834 -0.1086 0.8220
42.4814 -24.2936 -0.1085 0.8222
43.3405 -24.0786 -0.1099 0.8201
43.9678 -24.0724 -0.1111 0.8183
44.6090 -24.0661 -0.1123 0.8165
45.9356 -24.0531 -0.1149 0.8127
46.6221 -24.0464 -0.1163 0.8107
49.5439 -24.0210 -0.1220 0.8023
50.3159 -24.0121 -0.1236 0.8001
51.1076 -24.0030 -0.1251 0.7978
54.4928 -23.9662 -0.1319 0.7881
55.4004 -23.9576 -0.1338 0.7855
60.3299 -23.9036 -0.1438 0.7714
63.6731 -23.8713 -0.1507 0.7619
63.3622 2.7446 -0.1406 0.7759
62.8182 4.6704 -0.1396 0.7773
67.9315 6.3197 -0.1512 0.7612
64.7484 6.4277 -0.1442 0.7708
64.7767 8.0530 -0.1447 0.7702
64.7838 8.4611 -0.1448 0.7700
64.7910 8.8698 -0.1449 0.7698
64.7981 9.2794 -0.1451 0.7696
61.0544 9.1289 -0.1368 0.7812
64.8125 10.1010 -0.1454 0.7692
64.8197 10.5132 -0.1455 0.7690
64.8269 10.9262 -0.1457 0.7688
64.8341 11.3402 -0.1459 0.7685
64.8559 12.5882 -0.1464 0.7678
20.2178 4.0541 -0.0457 0.9208
20.1741 4.1753 -0.0457 0.9209
29.9940 6.5955 -0.0680 0.8844
28.6854 7.0558 -0.0655 0.8886
28.5733 7.2160 -0.0653 0.8888
27.3032 7.4367 -0.0627 0.8930
25.5714 7.3059 -0.0589 0.8991
24.0549 7.1955 -0.0556 0.9044
21.9284 6.8561 -0.0509 0.9122
21.3134 6.8087 -0.0496 0.9144
21.1463 6.8998 -0.0493 0.9149
20.9786 6.9889 -0.0490 0.9153
20.7910 7.0696 -0.0487 0.9159
17.8098 7.0565 -0.0425 0.9262
17.6975 7.2665 -0.0424 0.9263
17.5588 7.4646 -0.0423 0.9265
17.4897 7.5633 -0.0422 0.9266
17.1831 7.8123 -0.0418 0.9273
17.2108 7.9536 -0.0420 0.9270
17.1937 8.0752 -0.0421 0.9268
17.1766 8.1971 -0.0422 0.9267
17.0992 8.2904 -0.0421 0.9268
16.8423 8.2949 -0.0416 0.9277
15.9778 8.3664 -0.0400 0.9304
15.7477 8.3704 -0.0395 0.9311
15.3026 8.3782 -0.0387 0.9326
14.9502 8.3058 -0.0379 0.9339
14.5137 8.2999 -0.0371 0.9353
14.2696 8.3962 -0.0367 0.9359
11.1543 6.9402 -0.0291 0.9488
10.7320 7.0515 -0.0285 0.9499
10.4156 6.9362 -0.0277 0.9512
10.2823 7.0326 -0.0276 0.9514
10.2058 7.0733 -0.0275 0.9515
10.1297 7.1137 -0.0274 0.9517
9.9791 7.1938 -0.0273 0.9520
9.8685 7.2073 -0.0271 0.9523
9.8156 7.2621 -0.0271 0.9523
9.7838 7.5234 -0.0274 0.9518
9.7399 7.5860 -0.0274 0.9518
9.6650 7.6241 -0.0273 0.9520
9.6522 7.7113 -0.0274 0.9518
9.6083 7.7740 -0.0274 0.9518
9.5643 7.8369 -0.0274 0.9517
9.5203 7.8997 -0.0274 0.9517
9.3845 7.8855 -0.0272 0.9522
9.3822 8.0836 -0.0274 0.9517
9.3437 8.3575 -0.0278 0.9511
9.3321 8.4516 -0.0279 0.9509
9.3378 8.7775 -0.0284 0.9500
9.3398 8.8888 -0.0286 0.9497
9.3417 9.0014 -0.0288 0.9494
9.3437 9.1154 -0.0289 0.9491
9.3457 9.2308 -0.0291 0.9488
9.3478 9.3478 -0.0293 0.9485
9.4633 9.9435 -0.0304 0.9466
9.4043 10.0046 -0.0304 0.9466
9.4678 10.1978 -0.0308 0.9459
9.4700 10.3276 -0.0311 0.9455
9.4747 10.5927 -0.0315 0.9447
9.4770 10.7281 -0.0317 0.9444
9.4359 11.0896 -0.0323 0.9434
9.3265 11.0994 -0.0321 0.9437
9.3820 11.3066 -0.0326 0.9429
9.3897 11.7530 -0.0333 0.9416
9.3924 11.9067 -0.0336 0.9411
9.3979 12.2215 -0.0342 0.9402
9.4065 12.7140 -0.0351 0.9387
9.3928 13.2008 -0.0359 0.9372
9.5265 13.5656 -0.0367 0.9358
9.5330 13.9383 -0.0374 0.9347
9.5364 14.1299 -0.0378 0.9341
9.3927 14.8899 -0.0390 0.9320
4.8883 7.8565 -0.0205 0.9637
4.3604 7.2052 -0.0187 0.9669
4.0276 7.0429 -0.0180 0.9681
3.9202 6.9546 -0.0177 0.9686
3.7596 7.0732 -0.0178 0.9685
3.5944 7.0761 -0.0176 0.9688
3.5269 7.0509 -0.0175 0.9690
3.4821 7.0701 -0.0175 0.9690
3.4322 7.0789 -0.0174 0.9690
3.3255 7.0808 -0.0173 0.9692
3.2727 7.0817 -0.0173 0.9693
3.2201 7.0826 -0.0172 0.9694
3.0407 7.0315 -0.0170 0.9698
2.7458 7.1883 -0.0171 0.9697
2.7034 7.2109 -0.0171 0.9697
2.6609 7.2334 -0.0171 0.9696
2.6075 7.2258 -0.0170 0.9697
2.5638 7.2446 -0.0170 0.9697
2.5417 7.4751 -0.0175 0.9689
2.5069 7.5249 -0.0176 0.9688
2.4717 7.5751 -0.0177 0.9686
2.3641 7.7288 -0.0179 0.9682
2.3275 7.7810 -0.0180 0.9680
2.2137 7.9337 -0.0183 0.9676
2.1528 7.9040 -0.0182 0.9678
2.0640 7.9651 -0.0182 0.9676
2.0733 8.2097 -0.0188 0.9667
2.0537 8.3492 -0.0191 0.9662
2.0240 8.4536 -0.0193 0.9658
1.9690 8.4545 -0.0192 0.9659
1.9142 8.4555 -0.0192 0.9659
1.8050 8.4574 -0.0192 0.9660
1.7505 8.4583 -0.0191 0.9660
1.5880 8.4612 -0.0191 0.9662
1.3729 8.4649 -0.0190 0.9663
1.2126 8.4677 -0.0190 0.9664
1.1594 8.4687 -0.0189 0.9664
1.1014 8.4332 -0.0189 0.9666
0.9533 8.5287 -0.0190 0.9663
0.9000 8.5296 -0.0190 0.9663
0.7937 8.5314 -0.0190 0.9663
0.5815 8.5351 -0.0190 0.9664
0.4227 8.5379 -0.0189 0.9664
0.2642 8.5407 -0.0189 0.9664
0.1585 8.5425 -0.0189 0.9664
0.1057 8.5434 -0.0189 0.9664
0.0528 8.5444 -0.0189 0.9664
-0.0523 8.4486 -0.0187 0.9668
-0.1569 8.4558 -0.0187 0.9667
-0.2101 8.4926 -0.0188 0.9666
-0.3153 8.4944 -0.0188 0.9666
-0.4207 8.4962 -0.0189 0.9665
-0.4734 8.4971 -0.0189 0.9665
-0.5790 8.4990 -0.0189 0.9665
-0.7343 8.4597 -0.0188 0.9666
-0.8498 8.5601 -0.0191 0.9662
-0.9034 8.5610 -0.0191 0.9662
-0.4565 3.8671 -0.0086 0.9845
-0.4779 3.8441 -0.0086 0.9846
-0.5001 3.8295 -0.0086 0.9847
-0.5938 3.8100 -0.0085 0.9847
-0.6188 3.8151 -0.0086 0.9847
-0.6444 3.8232 -0.0086 0.9846
-1.6091 8.5734 -0.0193 0.9657
-1.6642 8.5743 -0.0194 0.9657
-1.8100 8.4808 -0.0192 0.9659
-1.8657 8.4847 -0.0193 0.9658
-1.9294 8.5226 -0.0194 0.9657
-2.0410 8.5245 -0.0194 0.9655
-2.0970 8.5255 -0.0195 0.9655
-2.1533 8.5265 -0.0195 0.9654
-2.2664 8.5284 -0.0196 0.9653
-2.3232 8.5294 -0.0196 0.9653
-2.3802 8.5304 -0.0196 0.9652
-2.7271 8.5365 -0.0199 0.9648
-2.8205 8.4664 -0.0198 0.9649
-1.5684 4.5205 -0.0106 0.9810
-1.5698 4.4360 -0.0104 0.9814
-1.5665 4.3409 -0.0102 0.9817
-1.5692 4.1856 -0.0099 0.9823
-1.5717 4.0396 -0.0096 0.9828
-1.5729 3.9699 -0.0095 0.9831
-1.5764 3.7727 -0.0091 0.9838
-1.5775 3.7106 -0.0089 0.9840
-1.5785 3.6502 -0.0088 0.9842
-1.5796 3.5915 -0.0087 0.9844
-1.5815 3.4786 -0.0085 0.9848
-1.5925 3.1351 -0.0078 0.9860
-1.6952 3.1423 -0.0079 0.9858
-4.1236 7.2108 -0.0184 0.9673
-2.6621 4.5243 -0.0116 0.9792
-2.6632 4.4628 -0.0115 0.9794
-2.6843 4.4356 -0.0115 0.9795
-2.9101 4.4893 -0.0119 0.9788
-2.9905 4.4906 -0.0120 0.9786
-3.0313 4.4914 -0.0120 0.9786
-3.1138 4.4928 -0.0121 0.9784
-3.2404 4.4950 -0.0123 0.9781
-3.3706 4.4973 -0.0125 0.9778
-3.4148 4.4981 -0.0125 0.9777
-3.5501 4.5004 -0.0127 0.9773
-3.5961 4.5012 -0.0128 0.9772
-3.6426 4.5020 -0.0128 0.9771
-3.6896 4.5029 -0.0129 0.9770
-3.7906 4.4550 -0.0129 0.9769
-3.9723 4.4967 -0.0133 0.9763
-4.0329 4.5088 -0.0134 0.9761
-4.0842 4.5097 -0.0135 0.9760
-4.6325 4.5193 -0.0143 0.9744
-4.6912 4.5203 -0.0144 0.9743
-4.7508 4.5214 -0.0145 0.9741
-4.7991 4.5111 -0.0146 0.9740
-4.8601 4.5121 -0.0147 0.9738
-4.9720 4.5029 -0.0149 0.9735
-4.9033 4.2778 -0.0144 0.9743
-4.9060 4.1224 -0.0142 0.9747
-4.9078 4.0213 -0.0141 0.9749
-4.9086 3.9716 -0.0140 0.9751
-4.8893 3.7118 -0.0136 0.9757
-4.8901 3.6650 -0.0135 0.9759
-12.1479 8.7573 -0.0332 0.9419
-12.4058 8.7121 -0.0336 0.9412
-12.7367 8.7112 -0.0342 0.9401
-12.9118 8.7143 -0.0345 0.9396
-13.2722 8.7205 -0.0352 0.9385
-13.4898 8.6266 -0.0355 0.9380
-13.5084 8.5212 -0.0354 0.9381
-13.5269 8.4164 -0.0353 0.9383
-13.5453 8.3121 -0.0352 0.9384
-13.6994 8.1751 -0.0354 0.9382
-13.8189 8.0164 -0.0354 0.9381
-13.8440 7.9169 -0.0353 0.9382
-13.9990 7.7774 -0.0355 0.9380
-14.0592 7.6974 -0.0355 0.9379
-14.0129 7.5598 -0.0353 0.9383
-14.1490 7.5206 -0.0355 0.9379
-14.2596 7.4667 -0.0357 0.9376
-14.4838 7.3573 -0.0360 0.9371
-14.9720 7.3738 -0.0370 0.9354
-52.2283 24.5294 -0.1279 0.7939
-52.2203 23.7419 -0.1271 0.7950
-17.6186 7.6190 -0.0425 0.9261
-52.1968 21.4318 -0.1251 0.7980
-52.1929 21.0540 -0.1247 0.7984
-52.1781 19.5617 -0.1235 0.8002
-52.1744 19.1932 -0.1232 0.8006
-52.1632 18.0976 -0.1224 0.8018
-52.1595 17.7358 -0.1221 0.8022
-52.1414 15.9491 -0.1208 0.8040
-52.1378 15.5960 -0.1206 0.8044
-52.1307 14.8940 -0.1202 0.8050
-52.1201 13.8504 -0.1195 0.8060
-52.1166 13.5051 -0.1193 0.8063
-52.1131 13.1607 -0.1191 0.8065
-52.1096 12.8176 -0.1189 0.8068
-52.1061 12.4755 -0.1187 0.8071
-52.0957 11.4555 -0.1182 0.8079
-52.0889 10.7804 -0.1179 0.8083
-52.0855 10.4442 -0.1177 0.8086
-52.0782 9.7743 -0.1174 0.8090
-52.0680 8.7757 -0.1170 0.8096
-52.0613 8.1137 -0.1168 0.8100
-52.0346 5.4907 -0.1160 0.8112
-52.0280 4.8402 -0.1158 0.8114
-52.0249 4.5155 -0.1157 0.8115
-52.0183 3.8674 -0.1156 0.8117
-52.0085 2.8977 -0.1154 0.8119
-52.0019 2.2526 -0.1154 0.8120
-51.9986 1.9303 -0.1153 0.8121
-51.9953 1.6082 -0.1153 0.8121
-51.9921 1.2864 -0.1153 0.8122
-51.9888 0.9646 -0.1152 0.8122
-51.9823 0.3214 -0.1152 0.8123
-51.9757 -0.3215 -0.5011 0.8123
-51.9724 -0.6429 -0.5011 0.8123
-51.9693 -0.9643 -0.5011 0.8123
-51.9628 -1.6073 -0.5012 0.8122
-51.3662 -2.8619 -0.4960 0.8140
-51.0250 -3.4765 -0.4931 0.8150
-50.8559 -3.7810 -0.4917 0.8155
-50.5206 -4.3850 -0.4889 0.8164
-48.3651 -4.4994 -0.4683 0.8234
-48.2065 -4.7856 -0.4670 0.8238
-48.0488 -5.0702 -0.4658 0.8243
-47.7357 -5.6350 -0.4634 0.8251
-47.4258 -6.1940 -0.4611 0.8259
-47.1189 -6.7477 -0.4589 0.8266
-46.9666 -7.0225 -0.4578 0.8270
-46.8149 -7.2961 -0.4568 0.8273
-48.3521 -8.1495 -0.4727 0.8219
-48.2715 -8.7512 -0.4730 0.8218
-47.9622 -9.3093 -0.4710 0.8225
-47.3531 -10.1061 -0.4668 0.8239
-47.3509 -10.4121 -0.4674 0.8237
-47.0486 -10.9575 -0.4657 0.8243
-46.8983 -11.2287 -0.4649 0.8246
-44.6133 -11.2668 -0.4436 0.8319
-44.4708 -11.5238 -0.4429 0.8321
-44.1567 -12.3209 -0.4420 0.8325
-43.8749 -12.8293 -0.4407 0.8329
-43.7346 -13.0824 -0.4401 0.8331
-38.7470 -12.9084 -0.3937 0.8493
-38.0008 -12.9214 -0.3870 0.8517
-36.7766 -12.7594 -0.3753 0.8558
-36.5660 -12.9402 -0.3740 0.8563
-36.5705 -13.1968 -0.3748 0.8560
-36.6608 -13.4863 -0.3766 0.8553
-36.6653 -13.7459 -0.3775 0.8550
-36.6699 -14.0069 -0.3785 0.8547
-36.6744 -14.2691 -0.3794 0.8543
-36.6837 -14.7977 -0.3814 0.8537
-36.6930 -15.3318 -0.3834 0.8529
-36.7072 -16.1440 -0.3866 0.8518
-36.7167 -16.6932 -0.3889 0.8510
-36.7264 -17.2489 -0.3912 0.8502
-36.7313 -17.5293 -0.3924 0.8498
-36.6652 -18.6248 -0.3965 0.8483
-36.7757 -19.5475 -0.4015 0.8465
-36.7808 -19.8429 -0.4029 0.8461
-36.7912 -20.4400 -0.4058 0.8451
-36.7965 -20.7418 -0.4072 0.8445
-36.8018 -21.0458 -0.4087 0.8440
-36.8125 -21.6604 -0.4118 0.8429
-36.7547 -23.1852 -0.4189 0.8404
-36.7546 -23.5041 -0.4206 0.8399
-36.7652 -23.8326 -0.4224 0.8392
-36.8522 -24.2139 -0.4251 0.8383
-36.8639 -24.8797 -0.4288 0.8370
-36.8697 -25.2170 -0.4307 0.8364
-36.9188 -28.0277 -0.4469 0.8308
-36.9356 -29.5086 -0.4558 0.8277
-33.2763 -27.6118 -0.4169 0.8412
-32.2604 -27.7954 -0.4105 0.8434
-31.8677 -27.8023 -0.4077 0.8444
-31.4803 -27.8090 -0.4050 0.8453
-30.7210 -27.8223 -0.3996 0.8472
-30.3488 -27.8288 -0.3970 0.8481
-29.6188 -27.8415 -0.3919 0.8499
-28.0584 -27.7136 -0.3802 0.8541
-27.7325 -27.7325 -0.3781 0.8548
-25.9086 -27.9063 -0.3671 0.8587
-25.5941 -27.9118 -0.3651 0.8594
-25.2830 -27.9172 -0.3631 0.8601
-24.9753 -27.9226 -0.3612 0.8608
-24.3696 -27.9332 -0.3574 0.8622
-24.0715 -27.9384 -0.3555 0.8628
-23.4844 -27.9486 -0.3520 0.8641
-23.1952 -27.9537 -0.3502 0.8648
-22.7749 -27.7951 -0.3464 0.8661
-22.4930 -27.8001 -0.3448 0.8667
-22.0688 -27.9764 -0.3435 0.8672
-20.7364 -27.6682 -0.3334 0.8708
-20.4738 -27.6728 -0.3319 0.8714
-19.6996 -27.6863 -0.3276 0.8729
-19.6133 -27.9289 -0.3290 0.8724
-19.6199 -28.3090 -0.3321 0.8713
-19.6267 -28.6962 -0.3352 0.8702
-22.1446 -33.2529 -0.3852 0.8523
-22.1527 -33.7151 -0.3889 0.8510
-31.4734 -49.2167 -0.5632 0.7916
-30.6310 -49.2305 -0.5590 0.7930
-29.3906 -49.2509 -0.5530 0.7950
-28.5782 -49.2643 -0.5491 0.7963
-28.1763 -49.2709 -0.5472 0.7969
-27.7771 -49.2774 -0.5454 0.7975
-26.1981 -49.2880 -0.5381 0.7999
-14.2639 -27.2406 -0.2965 0.8843
-14.1423 -28.7152 -0.3086 0.8798
-13.9242 -28.7190 -0.3077 0.8801
-13.4655 -28.6710 -0.3054 0.8810
-13.2998 -28.7794 -0.3057 0.8809
-12.8736 -28.7868 -0.3040 0.8815
-10.4064 -24.4787 -0.2564 0.8991
-10.2970 -24.6433 -0.2575 0.8987
-11.6012 -28.7596 -0.2990 0.8833
-11.3963 -28.7631 -0.2983 0.8836
-10.7822 -28.7599 -0.2961 0.8844
-10.5862 -28.7773 -0.2956 0.8846
-9.7914 -28.7957 -0.2932 0.8854
-9.5942 -28.7991 -0.2927 0.8857
-9.3979 -28.8025 -0.2921 0.8859
-9.2014 -28.8032 -0.2915 0.8861
-8.8119 -28.8082 -0.2904 0.8865
-8.6184 -28.8116 -0.2899 0.8867
-7.8149 -27.3532 -0.2743 0.8924
-8.2381 -29.5243 -0.2955 0.8846
-7.8511 -28.8250 -0.2880 0.8874
-7.6609 -28.8283 -0.2876 0.8875
-7.4712 -28.8316 -0.2871 0.8877
-7.2820 -28.8349 -0.2867 0.8878
-6.9058 -28.8433 -0.2859 0.8881
-5.6024 -28.8643 -0.2835 0.8890
-5.4180 -28.8675 -0.2832 0.8891
-5.0503 -28.8739 -0.2826 0.8894
-4.8670 -28.8771 -0.2823 0.8895
-4.6841 -28.8803 -0.2821 0.8896
-4.5015 -28.8835 -0.2818 0.8896
-4.1372 -28.8898 -0.2814 0.8898
-3.7740 -28.8962 -0.2810 0.8900
-3.4176 -28.9519 -0.2811 0.8899
-3.0557 -28.9582 -0.2807 0.8900
-2.8750 -28.9613 -0.2806 0.8901
-2.6848 -28.8592 -0.2794 0.8905
-2.5100 -28.9182 -0.2799 0.8904
-2.1505 -28.9245 -0.2796 0.8905
-1.9709 -28.9277 -0.2795 0.8905
-1.7004 -27.4599 -0.2653 0.8958
-1.8457 -49.7186 -0.4797 0.8195
-1.2284 -49.6465 -0.4788 0.8198
-0.9229 -49.7435 -0.4797 0.8195
0.0001 -49.7585 -0.4797 0.8195
0.3078 -49.7636 -0.4798 0.8195
1.1497 -46.4687 -0.4481 0.8303
1.4375 -46.4737 -0.4483 0.8303
1.3891 -28.0544 -0.2708 0.8937
1.9120 -28.0635 -0.2712 0.8936
2.7874 -28.0788 -0.2720 0.8933
2.9632 -28.0819 -0.2722 0.8932
5.5713 -49.8424 -0.4835 0.8182
5.8843 -49.8480 -0.4839 0.8181
6.1978 -49.8536 -0.4843 0.8179
4.4731 -31.2358 -0.3042 0.8814
4.7107 -29.0443 -0.2837 0.8890
5.0813 -29.0507 -0.2843 0.8887
5.2672 -29.0540 -0.2847 0.8886
5.4535 -29.0564 -0.2850 0.8885
5.8378 -29.1134 -0.2863 0.8880
6.0260 -29.1167 -0.2867 0.8879
6.2148 -29.1200 -0.2871 0.8877
6.7727 -29.0803 -0.2879 0.8874
6.9633 -29.0836 -0.2883 0.8873
7.7323 -29.0970 -0.2903 0.8865
7.7277 -27.6950 -0.2772 0.8914
9.1065 -29.1262 -0.2942 0.8851
9.5058 -29.1332 -0.2955 0.8846
9.9067 -29.1350 -0.2967 0.8842
10.1094 -29.1385 -0.2974 0.8839
10.3130 -29.1421 -0.2980 0.8837
11.0277 -29.9775 -0.3080 0.8801
11.0371 -29.4399 -0.3031 0.8818
9.5010 -24.4194 -0.2526 0.9005
11.1676 -27.6845 -0.2878 0.8874
11.9641 -29.1384 -0.3037 0.8816
13.4931 -29.1976 -0.3101 0.8793
13.6875 -29.1435 -0.3104 0.8792
13.9376 -29.2053 -0.3120 0.8786
14.3876 -29.2132 -0.3140 0.8779
14.5858 -29.1592 -0.3143 0.8777
14.8434 -29.2212 -0.3160 0.8771
15.0736 -29.2252 -0.3170 0.8767
15.3052 -29.2292 -0.3181 0.8764
15.5650 -29.2832 -0.3197 0.8758
16.0371 -29.2914 -0.3220 0.8750
16.2165 -29.1891 -0.3219 0.8750
16.4878 -29.2498 -0.3237 0.8743
16.9728 -29.2583 -0.3261 0.8734
30.0055 -50.2812 -0.5645 0.7912
30.8645 -50.2963 -0.5689 0.7897
31.2990 -50.3039 -0.5712 0.7890
31.7370 -50.3116 -0.5735 0.7882
32.1786 -50.3193 -0.5759 0.7875
33.0728 -50.3350 -0.5807 0.7859
34.3764 -50.2617 -0.5871 0.7838
34.8994 -50.3552 -0.5907 0.7826
35.3687 -50.3642 -0.5933 0.7818
35.8422 -50.3733 -0.5960 0.7809
36.8025 -50.3917 -0.6016 0.7791
26.8007 -34.8529 -0.4239 0.8387
26.7727 -33.9394 -0.4168 0.8412
23.9829 -29.6414 -0.3676 0.8585
23.9955 -28.9182 -0.3623 0.8604
24.2098 -28.4527 -0.3602 0.8612
24.5194 -28.4581 -0.3622 0.8605
26.9891 -29.4331 -0.3850 0.8524
28.0770 -29.5016 -0.3927 0.8497
26.9429 -27.9616 -0.3743 0.8561
28.7135 -29.4327 -0.3964 0.8483
29.1079 -29.4701 -0.3994 0.8473
29.4615 -29.4615 -0.4017 0.8465
30.6117 -29.4964 -0.4098 0.8436
31.3938 -29.5100 -0.4154 0.8417
32.1615 -29.4909 -0.4207 0.8398
33.0242 -29.5385 -0.4272 0.8376
33.8748 -29.5533 -0.4334 0.8354
33.4852 -28.1366 -0.4217 0.8395
29.3624 -24.3642 -0.3679 0.8585
36.9877 -29.5502 -0.4564 0.8275
37.5456 -29.6174 -0.4610 0.8259
38.1030 -29.6766 -0.4656 0.8243
38.5861 -29.6714 -0.4693 0.8231
42.2620 -31.2678 -0.5068 0.8103
42.2692 -30.8704 -0.5046 0.8111
42.2762 -30.4764 -0.5025 0.8118
39.6059 -28.1809 -0.4686 0.8233
32.8526 -23.0710 -0.3870 0.8516
33.0752 -22.9232 -0.3880 0.8513
42.2975 -28.9293 -0.4941 0.8147
42.3045 -28.5517 -0.4921 0.8153
42.3115 -28.1771 -0.4901 0.8160
42.3184 -27.8055 -0.4882 0.8166
42.3455 -26.3472 -0.4808 0.8191
42.3588 -25.6343 -0.4773 0.8203
42.3719 -24.9315 -0.4740 0.8215
42.4804 -24.2931 -0.4718 0.8222
43.9680 -24.0726 -0.4833 0.8183
44.6093 -24.0663 -0.4887 0.8165
45.9359 -24.0533 -0.4999 0.8127
46.6224 -24.0466 -0.5058 0.8107
48.0449 -24.0327 -0.5179 0.8066
48.7917 -24.0301 -0.5244 0.8045
49.5448 -24.0214 -0.5308 0.8023
51.9207 -23.9941 -0.5514 0.7955
52.7542 -23.9846 -0.5587 0.7931
53.6092 -23.9744 -0.5662 0.7906
56.3328 -23.9484 -0.5902 0.7828
58.2808 -23.9298 -0.6074 0.7772
62.5253 -23.8830 -0.6453 0.7651
63.6748 -23.8719 -0.6556 0.7618
63.3622 2.7446 -0.6115 0.7759
67.0973 4.5715 -0.6484 0.7641
62.8182 4.6704 -0.6073 0.7773
63.9204 6.3455 -0.6193 0.7734
64.7554 6.8331 -0.6278 0.7707
64.7838 8.4611 -0.6299 0.7700
64.7981 9.2794 -0.6311 0.7696
64.8269 10.9262 -0.6338 0.7688
20.1734 4.1751 -0.1986 0.9209
29.5569 6.4994 -0.2918 0.8860
28.4827 7.0060 -0.2828 0.8893
28.3805 7.1673 -0.2822 0.8895
28.2980 7.3329 -0.2818 0.8896
27.1710 7.2204 -0.2711 0.8936
25.4497 7.4416 -0.2556 0.8994
24.1791 7.2327 -0.2433 0.9040
21.8769 6.6917 -0.2206 0.9125
21.5065 6.7241 -0.2172 0.9138
21.3134 6.8087 -0.2157 0.9144
21.1463 6.8998 -0.2144 0.9149
20.9786 6.9889 -0.2132 0.9153
20.6870 7.1772 -0.2111 0.9161
20.5837 7.2843 -0.2105 0.9164
18.6729 6.7383 -0.1914 0.9237
18.0874 6.9089 -0.1867 0.9255
17.9479 6.9831 -0.1857 0.9259
17.5625 7.2111 -0.1830 0.9269
17.4749 7.3017 -0.1826 0.9270
17.3368 7.4972 -0.1821 0.9272
17.2856 7.6023 -0.1821 0.9272
16.3230 7.2997 -0.1724 0.9310
17.1831 7.8123 -0.1820 0.9273
16.3273 7.5454 -0.1734 0.9306
17.1937 8.0752 -0.1831 0.9268
17.1766 8.1971 -0.1835 0.9267
17.0992 8.2904 -0.1832 0.9268
14.8468 7.3121 -0.1596 0.9359
16.0969 8.3023 -0.1746 0.9301
15.9778 8.3664 -0.1739 0.9304
15.5300 8.3783 -0.1701 0.9318
15.3081 8.3812 -0.1683 0.9326
13.0801 7.3731 -0.1448 0.9417
14.5137 8.2999 -0.1612 0.9353
14.0755 8.3996 -0.1580 0.9365
10.8742 7.0490 -0.1249 0.9495
10.3344 6.9748 -0.1202 0.9513
10.2823 7.0326 -0.1201 0.9514
10.0542 7.1538 -0.1190 0.9518
9.8685 7.2073 -0.1178 0.9523
9.8276 7.4608 -0.1190 0.9518
9.7838 7.5234 -0.1190 0.9518
9.7399 7.5860 -0.1190 0.9518
9.5203 7.8997 -0.1193 0.9517
9.3948 7.9938 -0.1189 0.9519
9.3566 8.2654 -0.1204 0.9513
9.3437 8.3575 -0.1209 0.9511
9.3340 8.5589 -0.1221 0.9506
9.3359 8.6675 -0.1228 0.9503
9.3417 9.0014 -0.1251 0.9494
9.3437 9.1154 -0.1259 0.9491
9.3106 9.4265 -0.1278 0.9484
9.4611 9.8189 -0.1315 0.9469
9.4633 9.9435 -0.1323 0.9466
9.4043 10.0046 -0.1324 0.9466
9.4678 10.1978 -0.1342 0.9459
9.4700 10.3276 -0.1351 0.9455
9.4723 10.4592 -0.1360 0.9451
9.4747 10.5927 -0.1370 0.9447
9.4770 10.7281 -0.1380 0.9443
9.4359 11.0896 -0.1404 0.9434
9.3265 11.0994 -0.1398 0.9437
9.3897 11.7530 -0.1450 0.9416
9.3924 11.9067 -0.1462 0.9411
9.3951 12.0628 -0.1474 0.9407
9.4007 12.3829 -0.1499 0.9397
9.4036 12.5470 -0.1512 0.9392
9.4125 13.0568 -0.1552 0.9376
9.3928 13.2008 -0.1562 0.9372
9.5265 13.5656 -0.1598 0.9358
9.5364 14.1299 -0.1644 0.9341
9.5398 14.3252 -0.1659 0.9335
9.5433 14.5243 -0.1676 0.9328
9.5468 14.7274 -0.1692 0.9322
4.2748 7.1635 -0.0804 0.9672
4.1909 7.1225 -0.0797 0.9675
3.8502 7.0322 -0.0773 0.9684
3.8154 7.0722 -0.0775 0.9684
3.7042 7.0742 -0.0770 0.9686
3.4322 7.0789 -0.0758 0.9690
3.3255 7.0808 -0.0754 0.9692
3.1146 6.9646 -0.0736 0.9699
3.0668 6.9731 -0.0734 0.9700
3.0407 7.0315 -0.0739 0.9698
2.9567 7.0762 -0.0739 0.9698
2.9146 7.0986 -0.0740 0.9698
2.8725 7.1209 -0.0740 0.9698
2.8303 7.1434 -0.0741 0.9697
2.7034 7.2109 -0.0742 0.9697
2.6609 7.2334 -0.0743 0.9696
2.6075 7.2258 -0.0740 0.9697
2.5069 7.5249 -0.0765 0.9688
2.4362 7.6259 -0.0772 0.9685
2.3853 7.6292 -0.0771 0.9685
2.3641 7.7288 -0.0779 0.9682
2.2906 7.8337 -0.0787 0.9679
2.1528 7.9040 -0.0790 0.9678
2.0640 7.9651 -0.0793 0.9676
2.0537 8.3492 -0.0829 0.9662
2.0240 8.4536 -0.0838 0.9658
1.8595 8.4564 -0.0835 0.9660
1.7505 8.4583 -0.0833 0.9660
1.6963 8.4593 -0.0832 0.9661
1.5880 8.4612 -0.0830 0.9661
1.4803 8.4630 -0.0828 0.9662
1.2083 7.4502 -0.0728 0.9703
1.2093 8.0880 -0.0788 0.9678
1.0482 8.4314 -0.0819 0.9666
0.9951 8.4296 -0.0818 0.9666
0.8881 8.4163 -0.0816 0.9667
0.7831 8.4181 -0.0815 0.9667
0.6875 8.5333 -0.0825 0.9663
0.4756 8.5370 -0.0824 0.9664
0.4227 8.5379 -0.0824 0.9664
0.2642 8.5407 -0.0824 0.9664
0.2113 8.5416 -0.0824 0.9664
0.1585 8.5425 -0.0824 0.9664
-0.1045 8.4522 -0.0815 0.9668
-0.2101 8.4926 -0.0819 0.9666
-0.2583 8.3516 -0.0806 0.9671
-0.3680 8.4953 -0.0820 0.9666
-0.4713 8.4598 -0.0817 0.9667
-0.5096 7.4802 -0.0723 0.9705
-0.6817 8.4615 -0.0818 0.9666
-0.7343 8.4597 -0.0819 0.9666
-0.7963 8.5592 -0.0829 0.9662
-0.4355 3.8958 -0.0378 0.9844
-0.4565 3.8669 -0.0375 0.9845
-0.5001 3.8293 -0.0372 0.9847
-0.5224 3.8157 -0.0371 0.9847
-0.5459 3.8120 -0.0371 0.9847
-0.5694 3.8083 -0.0371 0.9847
-0.6443 3.8230 -0.0374 0.9846
-0.7036 3.8809 -0.0380 0.9843
-1.6421 8.4604 -0.0831 0.9661
-1.7195 8.5753 -0.0843 0.9656
-1.7544 8.4770 -0.0835 0.9660
-1.8100 8.4808 -0.0836 0.9659
-1.8657 8.4847 -0.0838 0.9658
-1.9294 8.5226 -0.0842 0.9656
-1.9886 8.3059 -0.0823 0.9664
-1.9990 7.7141 -0.0768 0.9686
-2.0447 7.5069 -0.0750 0.9694
-2.3802 8.5304 -0.0854 0.9652
-2.4949 8.5324 -0.0857 0.9651
-2.5526 8.5334 -0.0859 0.9650
-2.6105 8.5345 -0.0860 0.9649
-2.6687 8.5355 -0.0862 0.9649
-2.7271 8.5365 -0.0864 0.9648
-2.7857 8.5375 -0.0866 0.9647
-1.5698 4.4360 -0.0454 0.9814
-1.5665 4.3409 -0.0445 0.9817
-1.5692 4.1856 -0.0431 0.9823
-1.5775 3.7106 -0.0389 0.9840
-1.5796 3.5915 -0.0378 0.9844
-1.5805 3.5343 -0.0373 0.9846
-1.5815 3.4786 -0.0368 0.9848
-1.5909 3.2302 -0.0347 0.9857
-1.5925 3.1351 -0.0339 0.9860
-1.6726 3.1468 -0.0344 0.9858
-4.0640 7.2098 -0.0798 0.9674
-2.6621 4.5243 -0.0506 0.9792
-2.7663 4.4460 -0.0505 0.9793
-2.8310 4.4879 -0.0512 0.9790
-2.8704 4.4886 -0.0514 0.9789
-2.9101 4.4893 -0.0516 0.9788
-2.9501 4.4899 -0.0518 0.9787
-2.9905 4.4906 -0.0520 0.9786
-3.0723 4.4921 -0.0525 0.9785
-3.1138 4.4928 -0.0527 0.9784
-3.1556 4.4935 -0.0529 0.9783
-3.2834 4.4958 -0.0537 0.9780
-3.3268 4.4965 -0.0539 0.9779
-3.3706 4.4973 -0.0542 0.9778
-3.4148 4.4981 -0.0544 0.9777
-3.5045 4.4996 -0.0550 0.9774
-3.6896 4.5029 -0.0561 0.9770
-3.7370 4.5037 -0.0564 0.9769
-3.8630 4.4835 -0.0571 0.9766
-3.8881 4.4567 -0.0570 0.9766
-3.9822 4.5080 -0.0580 0.9762
-4.0329 4.5088 -0.0583 0.9761
-4.2955 4.5134 -0.0601 0.9754
-4.3499 4.5144 -0.0604 0.9752
-4.4050 4.5154 -0.0608 0.9751
-4.4608 4.5163 -0.0612 0.9749
-4.5173 4.5173 -0.0616 0.9748
-4.5745 4.5183 -0.0620 0.9746
-4.7508 4.5214 -0.0632 0.9741
-4.8750 4.5261 -0.0641 0.9737
-4.9720 4.5029 -0.0647 0.9735
-4.9236 4.2955 -0.0630 0.9742
-4.9254 4.1909 -0.0623 0.9745
-4.9263 4.1394 -0.0620 0.9746
-4.9272 4.0884 -0.0617 0.9747
-4.9281 4.0380 -0.0614 0.9748
-4.9289 3.9880 -0.0611 0.9750
-4.9112 3.8251 -0.0600 0.9754
-4.8893 3.7118 -0.0592 0.9757
-4.8901 3.6650 -0.0589 0.9759
-4.8909 3.6186 -0.0586 0.9760
-12.1479 8.7573 -0.1444 0.9419
-11.1485 7.9325 -0.1319 0.9467
-12.6807 8.5583 -0.1475 0.9406
-13.2722 8.7205 -0.1531 0.9384
-13.4577 8.7238 -0.1546 0.9379
-13.5269 8.4164 -0.1536 0.9383
-13.6994 8.1751 -0.1538 0.9382
-14.2596 7.4667 -0.1552 0.9376
-14.3712 7.4123 -0.1559 0.9374
-14.5542 7.2802 -0.1569 0.9370
-14.9720 7.3738 -0.1609 0.9354
-15.2738 7.4054 -0.1637 0.9344
-15.3404 7.3209 -0.1639 0.9343
-52.2283 24.5294 -0.5563 0.7939
-52.2243 24.1345 -0.5547 0.7944
-52.2007 21.8115 -0.5454 0.7975
-52.1968 21.4317 -0.5440 0.7979
-52.1781 19.5618 -0.5372 0.8002
-52.1744 19.1932 -0.5360 0.8006
-52.1632 18.0977 -0.5323 0.8018
-52.1559 17.3754 -0.5300 0.8026
-52.1522 17.0166 -0.5289 0.8030
-52.1486 16.6593 -0.5278 0.8033
-52.1450 16.3035 -0.5267 0.8037
-52.1378 15.5960 -0.5247 0.8044
-52.1343 15.2444 -0.5237 0.8047
-52.1307 14.8940 -0.5227 0.8050
-52.1272 14.5449 -0.5218 0.8053
-52.1236 14.1971 -0.5208 0.8057
-52.1166 13.5051 -0.5191 0.8062
-52.1131 13.1607 -0.5182 0.8065
-52.1027 12.1345 -0.5158 0.8073
-52.0957 11.4555 -0.5143 0.8079
-52.0889 10.7804 -0.5128 0.8083
-52.0821 10.1089 -0.5115 0.8088
-52.0680 8.7757 -0.5091 0.8096
-52.0579 7.7838 -0.5075 0.8101
-52.0546 7.4545 -0.5070 0.8103
-52.0512 7.1257 -0.5065 0.8105
-52.0446 6.4702 -0.5056 0.8108
-52.0412 6.1431 -0.5052 0.8109
-52.0379 5.8167 -0.5048 0.8110
-52.0346 5.4907 -0.5045 0.8111
-52.0280 4.8402 -0.5038 0.8114
-52.0249 4.5155 -0.5035 0.8115
-52.0150 3.5438 -0.5026 0.8118
-52.0117 3.2206 -0.5024 0.8118
-52.0085 2.8977 -0.5022 0.8119
-52.0019 2.2526 -0.5018 0.8120
-51.9953 1.6082 -0.5015 0.8121
-51.9921 1.2864 -0.5014 0.8122
-51.9888 0.9646 -0.5013 0.8122
-51.9823 0.3214 -0.5012 0.8123
-51.9757 -0.3215 -0.8871 0.8123
-51.9724 -0.6429 -0.8871 0.8123
-51.9693 -0.9643 -0.8871 0.8123
-51.9595 -1.9289 -0.8874 0.8122
-51.9562 -2.2506 -0.8876 0.8122
-51.0250 -3.4765 -0.8729 0.8150
-50.6878 -4.0838 -0.8679 0.8159
-50.5206 -4.3850 -0.8655 0.8164
-48.3651 -4.4995 -0.8290 0.8234
-48.2065 -4.7856 -0.8268 0.8238
-47.8918 -5.3533 -0.8225 0.8247
-46.9666 -7.0226 -0.8105 0.8270
-46.8149 -7.2961 -0.8086 0.8273
-48.3521 -8.1495 -0.8369 0.8219
-48.2715 -8.7512 -0.8373 0.8218
-47.8085 -9.5866 -0.8322 0.8228
-47.3531 -10.1061 -0.8264 0.8239
-44.7562 -11.0089 -0.7866 0.8316
-44.4401 -11.8096 -0.7848 0.8320
-44.2982 -12.0656 -0.7836 0.8322
-44.1567 -12.3209 -0.7824 0.8324
-43.8749 -12.8293 -0.7802 0.8329
-43.3159 -13.8377 -0.7761 0.8337
