ply
format ascii 1.0
element vertex 1544
property float32 x
property float32 y
property float32 z
property float32 I
end_header
9.3695 8.1742 -1.1385 0.9513
9.3566 8.2655 -1.1432 0.9511
9.3322 8.4516 -1.1529 0.9507
9.3340 8.5590 -1.1596 0.9504
9.3359 8.6676 -1.1665 0.9501
9.3379 8.7775 -1.1735 0.9498
9.3418 9.0014 -1.1879 0.9492
9.3478 9.3478 -1.2105 0.9483
9.4590 9.6960 -1.2403 0.9470
9.4612 9.8189 -1.2485 0.9467
9.4678 10.1979 -1.2742 0.9456
9.4724 10.4593 -1.2921 0.9449
9.4747 10.5928 -1.3013 0.9445
9.4771 10.7282 -1.3107 0.9441
9.4359 11.0896 -1.3333 0.9432
9.3820 11.3067 -1.3453 0.9427
9.3845 11.4532 -1.3558 0.9423
9.3898 11.7531 -1.3775 0.9414
9.3925 11.9067 -1.3886 0.9409
9.3952 12.0628 -1.4000 0.9404
9.4036 12.5471 -1.4357 0.9390
9.3928 13.2008 -1.4835 0.9370
9.5266 13.5656 -1.5178 0.9356
9.5398 14.3253 -1.5759 0.9332
9.5433 14.5244 -1.5913 0.9326
9.5054 14.8641 -1.6155 0.9316
4.4132 7.1917 -0.7726 0.9667
4.1909 7.1225 -0.7567 0.9674
4.0276 7.0429 -0.7429 0.9679
3.9202 6.9546 -0.7310 0.9684
3.8590 6.9460 -0.7276 0.9686
3.7983 6.9374 -0.7242 0.9687
3.7381 6.9290 -0.7209 0.9689
3.6785 6.9206 -0.7176 0.9690
3.5030 6.8961 -0.7082 0.9694
3.4539 6.9048 -0.7069 0.9695
3.4049 6.9134 -0.7056 0.9695
3.3561 6.9220 -0.7044 0.9696
3.3076 6.9309 -0.7032 0.9696
3.2216 6.9713 -0.7032 0.9696
3.0668 6.9731 -0.6975 0.9699
2.9146 7.0986 -0.7026 0.9696
2.7881 7.1658 -0.7041 0.9696
2.6609 7.2334 -0.7057 0.9695
2.6075 7.2258 -0.7034 0.9696
2.5638 7.2446 -0.7037 0.9696
2.5268 7.2830 -0.7059 0.9695
2.4144 7.3994 -0.7127 0.9692
2.3764 7.4387 -0.7150 0.9691
2.1975 7.6914 -0.7325 0.9684
2.1648 7.7584 -0.7375 0.9682
2.1317 7.8263 -0.7427 0.9679
2.0981 7.8952 -0.7480 0.9677
2.0537 8.3492 -0.7873 0.9661
1.9690 8.4544 -0.7948 0.9657
1.8049 8.4568 -0.7918 0.9659
1.6961 8.4585 -0.7899 0.9659
1.6419 8.4593 -0.7890 0.9660
1.2844 7.0849 -0.6593 0.9715
1.2118 6.9279 -0.6440 0.9721
1.1499 7.0895 -0.6576 0.9716
1.1051 7.0910 -0.6571 0.9716
1.0635 7.1126 -0.6585 0.9715
1.1014 8.4331 -0.7787 0.9664
0.9951 8.4296 -0.7772 0.9665
0.9533 8.5287 -0.7858 0.9661
0.6875 8.5333 -0.7839 0.9662
0.6345 8.5342 -0.7836 0.9662
0.4756 8.5370 -0.7829 0.9662
0.4227 8.5379 -0.7827 0.9662
0.3170 8.5397 -0.7825 0.9663
0.1585 8.5425 -0.7823 0.9663
0.1057 8.5434 -0.7823 0.9663
-0.2202 7.1194 -0.6522 0.9718
-0.2643 7.1198 -0.6524 0.9718
-0.3015 6.9608 -0.6380 0.9724
-0.3526 7.1207 -0.6528 0.9718
-0.3967 7.1210 -0.6531 0.9718
-0.4410 7.1216 -0.6533 0.9717
-0.4852 7.1221 -0.6537 0.9717
-0.5177 6.9631 -0.6393 0.9723
-0.3702 3.9789 -0.3659 0.9841
-0.3819 3.8473 -0.3540 0.9846
-0.4060 3.8477 -0.3543 0.9846
-0.4301 3.8481 -0.3546 0.9846
-0.4543 3.8485 -0.3548 0.9846
-0.4777 3.8422 -0.3545 0.9846
-0.5457 3.8105 -0.3525 0.9847
-0.5935 3.8084 -0.3529 0.9846
-0.6185 3.8135 -0.3537 0.9846
-0.7029 3.8771 -0.3608 0.9843
-1.6091 8.5734 -0.7987 0.9656
-1.7544 8.4770 -0.7927 0.9658
-1.8657 8.4846 -0.7955 0.9657
-1.9021 8.1671 -0.7678 0.9669
-1.9085 7.7589 -0.7316 0.9684
-1.9117 7.5697 -0.7149 0.9691
-1.9146 7.3887 -0.6989 0.9698
-1.8931 7.1240 -0.6750 0.9708
-1.9875 7.1230 -0.6771 0.9707
-2.0349 7.1225 -0.6783 0.9707
-2.0359 6.9626 -0.6642 0.9713
-2.8205 8.4664 -0.8171 0.9648
-1.5698 4.4360 -0.4309 0.9813
-1.5746 4.2803 -0.4176 0.9818
-1.6001 4.2681 -0.4174 0.9819
-1.6182 4.1590 -0.4086 0.9822
-1.6194 4.0873 -0.4026 0.9825
-1.6206 4.0176 -0.3967 0.9827
-1.6218 3.9500 -0.3910 0.9830
-1.6230 3.8842 -0.3855 0.9832
-1.6241 3.8203 -0.3801 0.9835
-1.6262 3.6976 -0.3699 0.9839
-1.6273 3.6387 -0.3650 0.9841
-1.6283 3.5814 -0.3602 0.9843
-1.6292 3.5255 -0.3556 0.9845
-1.5843 3.3198 -0.3368 0.9853
-1.5917 3.1821 -0.3258 0.9858
-1.6084 3.1184 -0.3213 0.9860
-1.6952 3.1423 -0.3269 0.9858
-3.9908 7.0798 -0.7442 0.9679
-4.0444 7.0722 -0.7460 0.9678
-4.0982 7.0647 -0.7478 0.9677
-2.6621 4.5243 -0.4807 0.9791
-2.6843 4.4356 -0.4747 0.9794
-2.7663 4.4459 -0.4795 0.9792
-2.8704 4.4886 -0.4879 0.9788
-2.9501 4.4899 -0.4919 0.9787
-2.9905 4.4906 -0.4940 0.9786
-3.0313 4.4914 -0.4962 0.9785
-3.0723 4.4921 -0.4983 0.9784
-3.1138 4.4928 -0.5005 0.9783
-3.1556 4.4935 -0.5028 0.9782
-3.1978 4.4943 -0.5051 0.9781
-3.2834 4.4958 -0.5098 0.9779
-3.3706 4.4973 -0.5146 0.9777
-3.4148 4.4981 -0.5171 0.9776
-3.5045 4.4996 -0.5222 0.9774
-3.5501 4.5004 -0.5249 0.9772
-3.5961 4.5012 -0.5275 0.9771
-3.6426 4.5020 -0.5303 0.9770
-3.6896 4.5029 -0.5330 0.9769
-3.7693 4.4858 -0.5365 0.9767
-3.7906 4.4550 -0.5356 0.9768
-3.8630 4.4835 -0.5419 0.9765
-3.9822 4.5080 -0.5508 0.9761
-4.0329 4.5088 -0.5539 0.9760
-4.0842 4.5097 -0.5571 0.9759
-4.2955 4.5134 -0.5705 0.9753
-4.4050 4.5154 -0.5776 0.9750
-4.6912 4.5203 -0.5965 0.9742
-4.7508 4.5214 -0.6005 0.9740
-4.8750 4.5261 -0.6091 0.9736
-4.8791 4.4739 -0.6061 0.9738
-4.9720 4.5029 -0.6142 0.9734
-4.9226 4.3486 -0.6014 0.9740
-4.9236 4.2955 -0.5983 0.9741
-4.9254 4.1909 -0.5922 0.9744
-4.9289 3.9880 -0.5805 0.9749
-4.9298 3.9385 -0.5778 0.9750
-4.9112 3.8251 -0.5700 0.9753
-4.9179 3.7817 -0.5681 0.9754
-4.8893 3.7118 -0.5621 0.9756
-10.8546 7.5230 -1.2093 0.9483
-10.8609 7.1362 -1.1900 0.9491
-10.8623 7.0414 -1.1853 0.9493
-10.8392 6.7441 -1.1689 0.9500
-10.9752 6.7349 -1.1791 0.9496
-10.9563 6.6304 -1.1726 0.9499
-11.1722 6.5737 -1.1870 0.9493
-12.5872 7.0953 -1.3231 0.9436
-12.5888 6.9939 -1.3186 0.9438
-12.5918 6.7932 -1.3101 0.9442
-12.5552 6.6735 -1.3019 0.9445
-12.6908 6.3481 -1.2993 0.9446
-15.3404 7.3209 -1.5564 0.9340
-22.1549 10.4052 -2.2412 0.9064
-22.2819 10.1304 -2.2412 0.9064
-17.5032 7.8275 -1.7557 0.9259
-17.4117 7.6577 -1.7417 0.9264
-17.4947 7.5655 -1.7453 0.9263
-17.5862 7.4763 -1.7498 0.9261
-17.6783 7.3867 -1.7544 0.9259
-24.1820 9.9290 -2.3936 0.9003
-24.2429 9.7793 -2.3936 0.9003
-24.3030 9.6291 -2.3936 0.9003
-24.3620 9.4787 -2.3936 0.9003
-24.4202 9.3279 -2.3936 0.9003
-24.5337 9.0251 -2.3936 0.9003
-24.5890 8.8732 -2.3936 0.9003
-24.6969 8.5684 -2.3936 0.9003
-24.7494 8.4155 -2.3936 0.9003
-24.9013 7.9549 -2.3936 0.9003
-24.9978 7.6463 -2.3936 0.9003
-25.0445 7.4916 -2.3936 0.9003
-25.3052 6.5574 -2.3936 0.9003
-25.3453 6.4007 -2.3936 0.9003
-25.3844 6.2439 -2.3936 0.9003
-25.4226 6.0867 -2.3936 0.9003
-25.5311 5.6140 -2.3936 0.9003
-25.5653 5.4561 -2.3936 0.9003
-25.6621 4.9809 -2.3936 0.9003
-25.6924 4.8221 -2.3936 0.9003
-25.7218 4.6631 -2.3936 0.9003
-25.7774 4.3446 -2.3936 0.9003
-25.8293 4.0254 -2.3936 0.9003
-25.8771 3.7057 -2.3936 0.9003
-25.8995 3.5455 -2.3936 0.9003
-25.9608 3.0645 -2.3936 0.9003
-25.9793 2.9039 -2.3936 0.9003
-25.9967 2.7432 -2.3936 0.9003
-26.0431 2.2604 -2.3936 0.9003
-26.0566 2.0993 -2.3936 0.9003
-26.0691 1.9382 -2.3936 0.9003
-26.0806 1.7769 -2.3936 0.9003
-26.0911 1.6156 -2.3936 0.9003
-26.1006 1.4542 -2.3936 0.9003
-26.1091 1.2928 -2.3936 0.9003
-26.1331 0.6465 -2.3936 0.9003
-26.1390 0.3233 -2.3936 0.9003
-26.1405 0.1617 -2.3936 0.9003
-24.1621 -0.2989 -2.3936 0.9074
-24.1565 -0.5977 -2.3936 0.9074
-24.1080 -1.6426 -2.3936 0.9074
-24.0859 -1.9406 -2.3936 0.9074
-24.0734 -2.0895 -2.3936 0.9074
-24.0144 -2.6843 -2.3936 0.9074
-23.9973 -2.8328 -2.3936 0.9074
-23.9406 -3.2775 -2.3936 0.9074
-23.8757 -3.7211 -2.3936 0.9074
-23.8522 -3.8687 -2.3936 0.9074
-23.8026 -4.1634 -2.3936 0.9074
-23.7492 -4.4575 -2.3936 0.9074
-23.7212 -4.6042 -2.3936 0.9074
-23.6625 -4.8973 -2.3936 0.9074
-23.6317 -5.0435 -2.3936 0.9074
-23.5676 -5.3354 -2.3936 0.9074
-23.4998 -5.6265 -2.3936 0.9074
-23.4645 -5.7717 -2.3936 0.9074
-23.3146 -6.3503 -2.3936 0.9074
-23.2749 -6.4944 -2.3936 0.9074
-23.2342 -6.6382 -2.3936 0.9074
-23.1504 -6.9250 -2.3936 0.9074
-23.1071 -7.0680 -2.3936 0.9074
-23.0630 -7.2108 -2.3936 0.9074
-23.0179 -7.3533 -2.3936 0.9074
-22.9720 -7.4955 -2.3936 0.9074
-22.9252 -7.6374 -2.3936 0.9074
-22.8290 -7.9204 -2.3936 0.9074
-22.7796 -8.0614 -2.3936 0.9074
-22.6781 -8.3426 -2.3936 0.9074
-22.6261 -8.4826 -2.3936 0.9074
-22.2378 -9.4538 -2.3936 0.9074
-22.1789 -9.5912 -2.3936 0.9074
-21.9972 -10.0010 -2.3936 0.9074
-21.8718 -10.2722 -2.3936 0.9074
-21.8079 -10.4074 -2.3936 0.9074
-21.6110 -10.8101 -2.3936 0.9074
-21.5438 -10.9436 -2.3936 0.9074
-21.3370 -11.3413 -2.3936 0.9074
-21.2665 -11.4731 -2.3936 0.9074
-21.1951 -11.6044 -2.3936 0.9074
-20.9762 -11.9956 -2.3936 0.9074
-20.7501 -12.3827 -2.3936 0.9074
-20.6731 -12.5108 -2.3936 0.9074
-20.4374 -12.8921 -2.3936 0.9074
-20.1123 -13.3937 -2.3936 0.9074
-19.7749 -13.8871 -2.3936 0.9074
-19.6886 -14.0091 -2.3936 0.9074
-19.5138 -14.2515 -2.3936 0.9074
-19.3361 -14.4919 -2.3936 0.9074
-19.2461 -14.6111 -2.3936 0.9074
-19.1554 -14.7298 -2.3936 0.9074
-18.5957 -15.4303 -2.3936 0.9074
-18.4035 -15.6592 -2.3936 0.9074
-18.3063 -15.7727 -2.3936 0.9074
-18.2084 -15.8856 -2.3936 0.9074
-17.8099 -16.3310 -2.3936 0.9074
-17.6066 -16.5501 -2.3936 0.9074
-17.0865 -17.0865 -2.3936 0.9074
-16.7666 -17.4006 -2.3936 0.9074
-16.3310 -17.8099 -2.3936 0.9074
-16.2206 -17.9106 -2.3936 0.9074
-15.9978 -18.1098 -2.3936 0.9074
-15.7726 -18.3063 -2.3936 0.9074
-15.1991 -18.7852 -2.3936 0.9074
-14.9656 -18.9717 -2.3936 0.9074
-14.7298 -19.1554 -2.3936 0.9074
-14.3719 -19.4254 -2.3936 0.9074
-14.2515 -19.5138 -2.3936 0.9074
-14.1306 -19.6017 -2.3936 0.9074
-14.0091 -19.6886 -2.3936 0.9074
-13.8870 -19.7749 -2.3936 0.9074
-13.7645 -19.8604 -2.3936 0.9074
-13.6414 -19.9452 -2.3936 0.9074
-13.1439 -20.2765 -2.3936 0.9074
-13.0183 -20.3573 -2.3936 0.9074
-12.6384 -20.5954 -2.3936 0.9074
-12.5107 -20.6731 -2.3936 0.9074
-12.3827 -20.7501 -2.3936 0.9074
-12.2541 -20.8263 -2.3936 0.9074
-12.1251 -20.9017 -2.3936 0.9074
-11.9956 -20.9762 -2.3936 0.9074
-11.8656 -21.0500 -2.3936 0.9074
-11.7352 -21.1230 -2.3936 0.9074
-10.4480 -19.6564 -2.2051 0.9144
-10.0427 -19.7703 -2.1966 0.9147
-9.9016 -19.7949 -2.1925 0.9149
-9.7515 -19.7999 -2.1863 0.9151
-9.6029 -19.8063 -2.1804 0.9153
-9.4753 -19.8547 -2.1793 0.9154
-10.1368 -21.9349 -2.3936 0.9074
-9.0731 -19.9565 -2.1716 0.9157
-8.9264 -19.9604 -2.1660 0.9159
-8.4902 -19.9712 -2.1497 0.9165
-8.2885 -19.8366 -2.1296 0.9172
-7.9641 -19.7432 -2.1088 0.9180
-7.8254 -19.7505 -2.1044 0.9182
-7.6854 -19.7529 -2.0996 0.9183
-7.3003 -19.8450 -2.0946 0.9185
-7.2285 -20.0313 -2.1095 0.9180
-7.6641 -22.0903 -2.3162 0.9103
-7.5113 -22.0900 -2.3112 0.9105
-7.3591 -22.0897 -2.3064 0.9107
-7.2075 -22.0895 -2.3017 0.9108
-6.7565 -22.0886 -2.2881 0.9113
-6.3105 -22.0875 -2.2755 0.9118
-6.1629 -22.0871 -2.2715 0.9119
-5.4329 -22.0875 -2.2532 0.9126
-5.2888 -22.0896 -2.2500 0.9127
-5.1450 -22.0916 -2.2469 0.9129
-5.0016 -22.0935 -2.2439 0.9130
-4.8591 -22.0975 -2.2412 0.9131
-4.7223 -22.1272 -2.2412 0.9131
-4.3110 -22.2110 -2.2412 0.9131
-4.1736 -22.2372 -2.2412 0.9131
-4.0360 -22.2626 -2.2412 0.9131
-3.8983 -22.2871 -2.2412 0.9131
-3.7604 -22.3108 -2.2412 0.9131
-3.2073 -22.3970 -2.2412 0.9131
-3.0688 -22.4164 -2.2412 0.9131
-2.6524 -22.4695 -2.2412 0.9131
-2.0958 -22.5282 -2.2412 0.9131
-1.9565 -22.5407 -2.2412 0.9131
-1.5379 -22.5731 -2.2412 0.9131
-1.1189 -22.5978 -2.2412 0.9131
-0.9791 -22.6042 -2.2412 0.9131
-0.8393 -22.6099 -2.2412 0.9131
-0.6995 -22.6146 -2.2412 0.9131
-0.5596 -22.6185 -2.2412 0.9131
-0.2798 -22.6237 -2.2412 0.9131
-0.1399 -22.6250 -2.2412 0.9131
0.1399 -22.6250 -2.2412 0.9131
0.4197 -22.6215 -2.2412 0.9131
0.5596 -22.6185 -2.2412 0.9131
0.9791 -22.6043 -2.2412 0.9131
1.1189 -22.5978 -2.2412 0.9131
1.2586 -22.5904 -2.2412 0.9131
1.3983 -22.5822 -2.2412 0.9131
1.5379 -22.5731 -2.2412 0.9131
1.6775 -22.5632 -2.2412 0.9131
1.6286 -20.2137 -2.0088 0.9217
1.8785 -20.1919 -2.0088 0.9217
2.1317 -20.2015 -2.0122 0.9216
2.6524 -22.4694 -2.2412 0.9131
2.7913 -22.4526 -2.2412 0.9131
2.9301 -22.4349 -2.2412 0.9131
3.2073 -22.3970 -2.2412 0.9131
3.3458 -22.3767 -2.2412 0.9131
3.4841 -22.3556 -2.2412 0.9131
3.6223 -22.3336 -2.2412 0.9131
3.8982 -22.2871 -2.2412 0.9131
4.0360 -22.2626 -2.2412 0.9131
4.2011 -21.6446 -2.1841 0.9152
4.1730 -20.1633 -2.0397 0.9206
4.4371 -20.1782 -2.0466 0.9203
4.6922 -20.1471 -2.0491 0.9202
5.2712 -22.0161 -2.2425 0.9130
5.4144 -22.0120 -2.2455 0.9129
5.7018 -22.0037 -2.2516 0.9127
5.8461 -21.9993 -2.2548 0.9126
6.1370 -21.9944 -2.2619 0.9123
6.7254 -21.9870 -2.2776 0.9117
6.8738 -21.9851 -2.2818 0.9116
7.1722 -21.9812 -2.2904 0.9112
7.3223 -21.9793 -2.2949 0.9111
7.3035 -21.0510 -2.2072 0.9143
7.1577 -19.4572 -2.0537 0.9200
7.3020 -19.4771 -2.0605 0.9198
7.7067 -19.4509 -2.0725 0.9193
9.8809 -21.0385 -2.3024 0.9108
9.4381 -19.4663 -2.1430 0.9167
9.9020 -19.4932 -2.1658 0.9159
10.0376 -19.4613 -2.1691 0.9157
11.6044 -21.1952 -2.3936 0.9074
11.7352 -21.1230 -2.3936 0.9074
11.9956 -20.9762 -2.3936 0.9074
12.1251 -20.9016 -2.3936 0.9074
12.3827 -20.7501 -2.3936 0.9074
12.5108 -20.6731 -2.3936 0.9074
12.7655 -20.5168 -2.3936 0.9074
13.0183 -20.3574 -2.3936 0.9074
13.2690 -20.1947 -2.3936 0.9074
13.3937 -20.1123 -2.3936 0.9074
13.5178 -20.0291 -2.3936 0.9074
14.0091 -19.6886 -2.3936 0.9074
14.1306 -19.6016 -2.3936 0.9074
14.6111 -19.2461 -2.3936 0.9074
14.7298 -19.1554 -2.3936 0.9074
15.0826 -18.8788 -2.3936 0.9074
15.5450 -18.5000 -2.3936 0.9074
16.1095 -18.0105 -2.3936 0.9074
16.2206 -17.9106 -2.3936 0.9074
16.4409 -17.7086 -2.3936 0.9074
16.7665 -17.4005 -2.3936 0.9074
17.0865 -17.0865 -2.3936 0.9074
17.1919 -16.9805 -2.3936 0.9074
17.5039 -16.6586 -2.3936 0.9074
17.6066 -16.5501 -2.3936 0.9074
17.7086 -16.4409 -2.3936 0.9074
17.9106 -16.2206 -2.3936 0.9074
18.1098 -15.9978 -2.3936 0.9074
18.2084 -15.8855 -2.3936 0.9074
18.3063 -15.7726 -2.3936 0.9074
18.5958 -15.4303 -2.3936 0.9074
18.8788 -15.0827 -2.3936 0.9074
19.0639 -14.8480 -2.3936 0.9074
19.1554 -14.7298 -2.3936 0.9074
19.3361 -14.4918 -2.3936 0.9074
19.4253 -14.3720 -2.3936 0.9074
19.7749 -13.8871 -2.3936 0.9074
19.8604 -13.7645 -2.3936 0.9074
19.9451 -13.6415 -2.3936 0.9074
20.1123 -13.3937 -2.3936 0.9074
20.1947 -13.2691 -2.3936 0.9074
20.4374 -12.8922 -2.3936 0.9074
20.5168 -12.7655 -2.3936 0.9074
20.5953 -12.6384 -2.3936 0.9074
20.6731 -12.5108 -2.3936 0.9074
20.8262 -12.2541 -2.3936 0.9074
20.9762 -11.9956 -2.3936 0.9074
21.1230 -11.7352 -2.3936 0.9074
21.1951 -11.6044 -2.3936 0.9074
21.2665 -11.4731 -2.3936 0.9074
21.5438 -10.9436 -2.3936 0.9074
21.6110 -10.8101 -2.3936 0.9074
21.7431 -10.5420 -2.3936 0.9074
21.8718 -10.2723 -2.3936 0.9074
21.9349 -10.1369 -2.3936 0.9074
22.1789 -9.5912 -2.3936 0.9074
22.2378 -9.4538 -2.3936 0.9074
22.3530 -9.1781 -2.3936 0.9074
22.4094 -9.0397 -2.3936 0.9074
22.5732 -8.6224 -2.3936 0.9074
22.6261 -8.4827 -2.3936 0.9074
22.7796 -8.0614 -2.3936 0.9074
22.8775 -7.7790 -2.3936 0.9074
22.9252 -7.6374 -2.3936 0.9074
22.9720 -7.4955 -2.3936 0.9074
23.0179 -7.3533 -2.3936 0.9074
23.0629 -7.2108 -2.3936 0.9074
23.2342 -6.6382 -2.3936 0.9074
23.3146 -6.3503 -2.3936 0.9074
23.3534 -6.2060 -2.3936 0.9074
23.3913 -6.0614 -2.3936 0.9074
23.4645 -5.7717 -2.3936 0.9074
23.4998 -5.6265 -2.3936 0.9074
23.5675 -5.3354 -2.3936 0.9074
23.6625 -4.8972 -2.3936 0.9074
23.6923 -4.7508 -2.3936 0.9074
23.7492 -4.4574 -2.3936 0.9074
23.8522 -3.8687 -2.3936 0.9074
23.9406 -3.2775 -2.3936 0.9074
23.9604 -3.1294 -2.3936 0.9074
23.9793 -2.9812 -2.3936 0.9074
24.0144 -2.6843 -2.3936 0.9074
24.0457 -2.3871 -2.3936 0.9074
24.0600 -2.2383 -2.3936 0.9074
24.0734 -2.0895 -2.3936 0.9074
24.0859 -1.9406 -2.3936 0.9074
24.0974 -1.7916 -2.3936 0.9074
24.1080 -1.6425 -2.3936 0.9074
24.1344 -1.1950 -2.3936 0.9074
14.3906 -0.5342 -1.4265 0.9438
12.3050 -0.3806 -1.2195 0.9517
12.2757 -0.3037 -1.2164 0.9518
12.2570 -0.2274 -1.2144 0.9519
12.2404 -0.1514 -1.2126 0.9520
12.2318 -0.0757 -1.2117 0.9520
12.2243 0.1512 -1.2110 0.9520
12.2237 0.2268 -1.2111 0.9520
12.2243 0.3024 -1.2113 0.9520
12.2243 0.3781 -1.2115 0.9520
12.2606 0.6831 -1.2164 0.9518
22.9657 1.5647 -2.2802 0.9116
22.5632 1.6775 -2.2412 0.9131
22.5148 2.2351 -2.2412 0.9131
22.5005 2.3743 -2.2412 0.9131
22.4854 2.5134 -2.2412 0.9131
22.4526 2.7913 -2.2412 0.9131
22.4349 2.9301 -2.2412 0.9131
22.4163 3.0687 -2.2412 0.9131
20.8125 3.7731 -2.0953 0.9185
20.2351 3.7978 -2.0394 0.9206
19.4974 3.7843 -1.9674 0.9233
19.3447 3.8790 -1.9544 0.9238
19.9640 4.3899 -2.0248 0.9211
22.1046 5.0041 -2.2450 0.9129
21.9727 5.5490 -2.2449 0.9129
21.9376 5.6847 -2.2449 0.9129
21.9017 5.8202 -2.2448 0.9129
21.8649 5.9554 -2.2448 0.9129
21.8273 6.0904 -2.2448 0.9129
21.7889 6.2252 -2.2447 0.9129
21.6686 6.6280 -2.2446 0.9129
21.3175 6.8101 -2.2168 0.9140
21.1463 6.8998 -2.2034 0.9145
20.8452 7.0880 -2.1810 0.9153
20.7410 7.1959 -2.1747 0.9155
16.2075 5.9622 -1.7107 0.9329
14.4817 5.9461 -1.5507 0.9390
14.4880 6.2652 -1.5636 0.9385
13.0017 5.8144 -1.4108 0.9444
12.9657 5.8949 -1.4109 0.9444
12.9294 5.9751 -1.4109 0.9444
12.9745 6.3900 -1.4326 0.9435
12.9762 6.4908 -1.4372 0.9433
12.9794 6.6944 -1.4467 0.9430
12.9827 6.9007 -1.4564 0.9426
12.9844 7.0050 -1.4614 0.9424
12.9861 7.1099 -1.4666 0.9422
12.9878 7.2156 -1.4718 0.9420
12.9895 7.3220 -1.4771 0.9418
12.9912 7.4292 -1.4824 0.9416
12.9964 7.7557 -1.4992 0.9410
11.0189 7.0465 -1.2956 0.9488
10.8741 7.0490 -1.2837 0.9492
10.2823 7.0326 -1.2340 0.9512
10.1297 7.1137 -1.2261 0.9515
10.0542 7.1538 -1.2223 0.9516
9.9791 7.1938 -1.2186 0.9518
9.8685 7.2073 -1.2105 0.9521
9.8156 7.2621 -1.2095 0.9521
9.6650 7.6241 -1.2194 0.9517
9.6522 7.7113 -1.2238 0.9516
9.5643 7.8368 -1.2248 0.9515
9.3845 7.8855 -1.2142 0.9519
9.3948 7.9938 -1.2219 0.9516
9.3695 8.1742 -1.2317 0.9512
9.3566 8.2655 -1.2367 0.9511
9.3418 9.0014 -1.2851 0.9492
9.3437 9.1154 -1.2931 0.9489
9.4612 9.8189 -1.3507 0.9467
9.4634 9.9435 -1.3598 0.9463
9.4043 10.0046 -1.3601 0.9463
9.4724 10.4593 -1.3978 0.9449
9.4747 10.5928 -1.4078 0.9445
9.4771 10.7282 -1.4180 0.9441
9.4602 10.9798 -1.4357 0.9434
9.4120 11.0616 -1.4387 0.9433
9.3845 11.4532 -1.4667 0.9422
9.3925 11.9067 -1.5022 0.9409
9.3980 12.2216 -1.5272 0.9399
9.4036 12.5471 -1.5532 0.9389
9.4065 12.7140 -1.5667 0.9384
9.4095 12.8839 -1.5804 0.9379
9.3928 13.2008 -1.6049 0.9370
9.5298 13.7503 -1.6572 0.9350
9.5433 14.5244 -1.7215 0.9325
9.5468 14.7274 -1.7386 0.9319
9.5054 14.8641 -1.7477 0.9315
4.6476 7.4696 -0.8715 0.9653
4.4909 7.3183 -0.8505 0.9661
4.1909 7.1225 -0.8186 0.9673
4.1085 7.0823 -0.8111 0.9676
3.8590 6.9460 -0.7871 0.9686
3.6785 6.9206 -0.7764 0.9690
3.6195 6.9123 -0.7729 0.9691
3.5609 6.9041 -0.7695 0.9693
3.5030 6.8961 -0.7662 0.9694
3.3561 6.9220 -0.7620 0.9696
3.3075 6.9306 -0.7607 0.9696
3.2107 6.9477 -0.7582 0.9697
3.1146 6.9646 -0.7557 0.9698
3.0668 6.9731 -0.7546 0.9698
3.0407 7.0315 -0.7589 0.9697
2.9567 7.0762 -0.7597 0.9696
2.9146 7.0986 -0.7601 0.9696
2.8725 7.1209 -0.7606 0.9696
2.7881 7.1658 -0.7617 0.9696
2.7458 7.1883 -0.7622 0.9695
2.6609 7.2334 -0.7635 0.9695
2.5638 7.2446 -0.7613 0.9696
2.5268 7.2830 -0.7636 0.9695
2.4896 7.3215 -0.7660 0.9694
2.4143 7.3994 -0.7710 0.9692
2.3764 7.4387 -0.7736 0.9691
2.2997 7.5182 -0.7788 0.9689
2.2615 7.5602 -0.7817 0.9688
2.1648 7.7584 -0.7979 0.9681
2.0640 7.9651 -0.8151 0.9675
2.0733 8.2097 -0.8388 0.9665
2.0240 8.4535 -0.8611 0.9657
1.9141 8.4552 -0.8587 0.9658
1.8049 8.4568 -0.8566 0.9658
1.3196 7.0307 -0.7086 0.9717
1.2749 7.0323 -0.7080 0.9717
1.2028 6.8765 -0.6915 0.9723
1.1858 7.0355 -0.7068 0.9717
1.0969 7.0385 -0.7056 0.9718
1.0635 7.1125 -0.7124 0.9715
1.1144 7.7820 -0.7787 0.9689
1.1224 8.1989 -0.8197 0.9673
1.0482 8.4313 -0.8416 0.9664
0.9533 8.5287 -0.8501 0.9661
0.7406 8.5324 -0.8484 0.9662
0.6875 8.5333 -0.8480 0.9662
0.6345 8.5342 -0.8477 0.9662
0.4756 8.5370 -0.8470 0.9662
0.3699 8.5388 -0.8466 0.9662
0.3170 8.5397 -0.8465 0.9662
0.2113 8.5416 -0.8464 0.9662
0.1585 8.5425 -0.8463 0.9662
0.0528 8.5444 -0.8464 0.9662
0.0000 8.5453 -0.8465 0.9662
-0.0522 8.4486 -0.8369 0.9666
-0.1569 8.4558 -0.8378 0.9666
-0.2993 6.9097 -0.6851 0.9726
-0.3500 7.0683 -0.7010 0.9720
-0.3938 7.0686 -0.7013 0.9719
-0.5697 7.0706 -0.7027 0.9719
-0.6137 7.0711 -0.7031 0.9719
-0.6579 7.0715 -0.7035 0.9719
-0.8498 8.5601 -0.8521 0.9660
-0.4557 3.8604 -0.3851 0.9845
-0.4999 3.8275 -0.3824 0.9846
-0.5692 3.8067 -0.3813 0.9846
-0.6440 3.8208 -0.3838 0.9845
-0.7028 3.8767 -0.3903 0.9843
-1.7195 8.5753 -0.8664 0.9655
-1.7544 8.4770 -0.8575 0.9658
-1.8100 8.4808 -0.8590 0.9657
-1.9020 8.1668 -0.8306 0.9669
-1.9053 7.9577 -0.8106 0.9676
-1.9086 7.7593 -0.7915 0.9684
-1.9147 7.3887 -0.7561 0.9698
-1.8811 7.0787 -0.7255 0.9710
-1.9724 7.0688 -0.7270 0.9709
-2.0194 7.0681 -0.7282 0.9709
-2.0203 6.9094 -0.7131 0.9715
-2.1139 7.0668 -0.7307 0.9708
-2.1614 7.0661 -0.7320 0.9707
-2.8205 8.4664 -0.8840 0.9648
-1.6182 4.1590 -0.4421 0.9822
-1.6194 4.0873 -0.4355 0.9825
-1.6206 4.0176 -0.4291 0.9827
-1.6218 3.9499 -0.4230 0.9830
-1.6230 3.8842 -0.4170 0.9832
-1.6241 3.8203 -0.4112 0.9835
-1.6283 3.5814 -0.3897 0.9843
-1.6302 3.4710 -0.3799 0.9847
-1.5843 3.3198 -0.3644 0.9853
-1.5909 3.2302 -0.3567 0.9856
-1.6084 3.1184 -0.3476 0.9860
-1.6726 3.1468 -0.3530 0.9858
-2.8310 4.4879 -0.5256 0.9789
-2.8704 4.4886 -0.5278 0.9788
-3.0313 4.4914 -0.5368 0.9785
-3.0723 4.4921 -0.5391 0.9784
-3.1138 4.4928 -0.5415 0.9783
-3.2404 4.4950 -0.5489 0.9780
-3.3268 4.4965 -0.5541 0.9778
-3.3706 4.4973 -0.5567 0.9777
-3.4148 4.4981 -0.5594 0.9776
-3.5045 4.4996 -0.5650 0.9773
-3.5501 4.5004 -0.5678 0.9772
-3.5961 4.5012 -0.5707 0.9771
-3.6426 4.5020 -0.5737 0.9770
-3.7370 4.5037 -0.5797 0.9768
-3.7693 4.4858 -0.5804 0.9767
-3.8630 4.4835 -0.5862 0.9765
-3.8881 4.4567 -0.5859 0.9765
-3.9822 4.5080 -0.5958 0.9761
-4.2955 4.5134 -0.6172 0.9753
-4.3499 4.5144 -0.6210 0.9751
-4.6325 4.5193 -0.6411 0.9743
-4.7508 4.5214 -0.6497 0.9740
-4.8111 4.5224 -0.6541 0.9738
-4.8750 4.5261 -0.6590 0.9736
-4.8791 4.4739 -0.6558 0.9737
-4.9720 4.5029 -0.6645 0.9734
-4.9039 4.3863 -0.6517 0.9739
-4.9226 4.3486 -0.6506 0.9739
-4.9236 4.2955 -0.6472 0.9741
-4.9254 4.1909 -0.6406 0.9743
-4.9263 4.1394 -0.6374 0.9745
-4.9298 3.9385 -0.6250 0.9750
-4.9112 3.8251 -0.6166 0.9753
-4.8901 3.6650 -0.6053 0.9757
-4.9932 3.6467 -0.6125 0.9755
-9.4708 6.7388 -1.1514 0.9544
-10.8578 7.3280 -1.2976 0.9487
-10.8609 7.1362 -1.2873 0.9491
-10.8624 7.0414 -1.2823 0.9493
-10.8638 6.9473 -1.2774 0.9495
-10.8310 6.6465 -1.2588 0.9502
-10.9662 6.6364 -1.2697 0.9498
-10.9947 6.4692 -1.2637 0.9500
-11.1738 6.4820 -1.2796 0.9494
-11.1754 6.3908 -1.2752 0.9496
-12.5904 6.8932 -1.4219 0.9439
-12.5934 6.6938 -1.4128 0.9443
-12.6329 6.5157 -1.4080 0.9445
-12.6997 6.4510 -1.4110 0.9444
-12.7778 6.2931 -1.4109 0.9444
-12.8158 6.2137 -1.4109 0.9444
-12.8535 6.1341 -1.4108 0.9444
-20.5383 9.4913 -2.2412 0.9131
-17.6733 8.0351 -1.9231 0.9249
-17.4767 7.5577 -1.8862 0.9263
-17.5681 7.4686 -1.8910 0.9261
-17.6599 7.3790 -1.8959 0.9260
-20.9826 8.4641 -2.2412 0.9131
-21.0345 8.3341 -2.2412 0.9131
-21.0857 8.2039 -2.2412 0.9131
-21.1360 8.0734 -2.2412 0.9131
-21.1855 7.9425 -2.2412 0.9131
-21.2821 7.6798 -2.2412 0.9131
-22.7796 8.0614 -2.3936 0.9074
-22.8775 7.7790 -2.3936 0.9074
-22.9252 7.6374 -2.3936 0.9074
-23.0179 7.3533 -2.3936 0.9074
-23.3146 6.3502 -2.3936 0.9074
-23.5341 5.4810 -2.3936 0.9074
-23.5676 5.3353 -2.3936 0.9074
-23.7493 4.4574 -2.3936 0.9074
-23.8026 4.1633 -2.3936 0.9074
-23.8983 3.5733 -2.3936 0.9074
-23.9199 3.4254 -2.3936 0.9074
-23.9406 3.2774 -2.3936 0.9074
-23.9794 2.9811 -2.3936 0.9074
-24.0143 2.6843 -2.3936 0.9074
-24.0600 2.2383 -2.3936 0.9074
-24.0734 2.0895 -2.3936 0.9074
-24.0974 1.7915 -2.3936 0.9074
-24.1524 0.7470 -2.3936 0.9074
-24.1566 0.5976 -2.3936 0.9074
-24.1598 0.4482 -2.3936 0.9074
-22.4621 -0.1389 -2.3936 0.9136
-22.4608 -0.2779 -2.3936 0.9136
-22.4518 -0.6945 -2.3936 0.9136
-22.4415 -0.9721 -2.3936 0.9136
-22.4277 -1.2496 -2.3936 0.9136
-22.4196 -1.3883 -2.3936 0.9136
-22.4006 -1.6654 -2.3936 0.9136
-22.3900 -1.8040 -2.3936 0.9136
-22.3784 -1.9425 -2.3936 0.9136
-22.3659 -2.0807 -2.3936 0.9136
-22.3527 -2.2191 -2.3936 0.9136
-22.3385 -2.3572 -2.3936 0.9136
-22.3235 -2.4953 -2.3936 0.9136
-22.3076 -2.6333 -2.3936 0.9136
-22.2909 -2.7712 -2.3936 0.9136
-22.2734 -2.9091 -2.3936 0.9136
-22.2156 -3.3217 -2.3936 0.9136
-22.1946 -3.4591 -2.3936 0.9136
-22.1501 -3.7333 -2.3936 0.9136
-22.1266 -3.8702 -2.3936 0.9136
-22.1022 -4.0070 -2.3936 0.9136
-22.0241 -4.4163 -2.3936 0.9136
-21.9964 -4.5524 -2.3936 0.9136
-21.9384 -4.8241 -2.3936 0.9136
-21.8770 -5.0951 -2.3936 0.9136
-21.8451 -5.2303 -2.3936 0.9136
-21.8124 -5.3653 -2.3936 0.9136
-21.7443 -5.6347 -2.3936 0.9136
-21.7091 -5.7690 -2.3936 0.9136
-21.6730 -5.9032 -2.3936 0.9136
-21.6360 -6.0371 -2.3936 0.9136
-21.5983 -6.1708 -2.3936 0.9136
-21.5597 -6.3043 -2.3936 0.9136
-21.5203 -6.4374 -2.3936 0.9136
-21.3972 -6.8355 -2.3936 0.9136
-21.3545 -6.9677 -2.3936 0.9136
-21.3110 -7.0997 -2.3936 0.9136
-21.2216 -7.3627 -2.3936 0.9136
-21.1757 -7.4938 -2.3936 0.9136
-21.1289 -7.6246 -2.3936 0.9136
-20.9838 -8.0153 -2.3936 0.9136
-20.9338 -8.1449 -2.3936 0.9136
-20.7791 -8.5318 -2.3936 0.9136
-20.7260 -8.6602 -2.3936 0.9136
-20.5054 -9.1702 -2.3936 0.9136
-20.3318 -9.5490 -2.3936 0.9136
-20.2723 -9.6746 -2.3936 0.9136
-20.1511 -9.9245 -2.3936 0.9136
-20.0268 -10.1730 -2.3936 0.9136
-19.8347 -10.5428 -2.3936 0.9136
-19.7028 -10.7873 -2.3936 0.9136
-19.6357 -10.9090 -2.3936 0.9136
-19.2890 -11.5108 -2.3936 0.9136
-19.0721 -11.8667 -2.3936 0.9136
-18.9984 -11.9844 -2.3936 0.9136
-18.6962 -12.4507 -2.3936 0.9136
-18.5407 -12.6809 -2.3936 0.9136
-18.4620 -12.7954 -2.3936 0.9136
-18.3825 -12.9093 -2.3936 0.9136
-18.3023 -13.0227 -2.3936 0.9136
-18.2214 -13.1357 -2.3936 0.9136
-18.1398 -13.2480 -2.3936 0.9136
-17.9746 -13.4714 -2.3936 0.9136
-17.6359 -13.9119 -2.3936 0.9136
-17.4625 -14.1290 -2.3936 0.9136
-17.2864 -14.3438 -2.3936 0.9136
-17.1974 -14.4505 -2.3936 0.9136
-17.1077 -14.5566 -2.3936 0.9136
-16.7424 -14.9753 -2.3936 0.9136
-16.6495 -15.0785 -2.3936 0.9136
-16.5559 -15.1812 -2.3936 0.9136
-16.4617 -15.2832 -2.3936 0.9136
-16.0786 -15.6858 -2.3936 0.9136
-15.9813 -15.7849 -2.3936 0.9136
-15.8834 -15.8835 -2.3936 0.9136
-15.7849 -15.9813 -2.3936 0.9136
-15.6857 -16.0786 -2.3936 0.9136
-15.3848 -16.3669 -2.3936 0.9136
-15.1811 -16.5559 -2.3936 0.9136
-15.0785 -16.6495 -2.3936 0.9136
-14.9752 -16.7424 -2.3936 0.9136
-14.8714 -16.8347 -2.3936 0.9136
-14.7670 -16.9264 -2.3936 0.9136
-14.6620 -17.0173 -2.3936 0.9136
-14.5565 -17.1077 -2.3936 0.9136
-14.4504 -17.1974 -2.3936 0.9136
-14.2366 -17.3748 -2.3936 0.9136
-14.1289 -17.4625 -2.3936 0.9136
-14.0206 -17.5496 -2.3936 0.9136
-13.9118 -17.6359 -2.3936 0.9136
-13.1356 -18.2214 -2.3936 0.9136
-13.0227 -18.3023 -2.3936 0.9136
-12.9093 -18.3825 -2.3936 0.9136
-12.7953 -18.4620 -2.3936 0.9136
-12.6809 -18.5408 -2.3936 0.9136
-12.3348 -18.7729 -2.3936 0.9136
-12.2184 -18.8488 -2.3936 0.9136
-11.9844 -18.9984 -2.3936 0.9136
-11.6298 -19.2175 -2.3936 0.9136
-11.3913 -19.3599 -2.3936 0.9136
-11.2713 -19.4300 -2.3936 0.9136
-11.1510 -19.4993 -2.3936 0.9136
-10.9089 -19.6357 -2.3936 0.9136
-10.7873 -19.7028 -2.3936 0.9136
-10.6652 -19.7691 -2.3936 0.9136
-10.2967 -19.9636 -2.3936 0.9136
-10.1730 -20.0269 -2.3936 0.9136
-9.7997 -20.2122 -2.3936 0.9136
-9.6745 -20.2724 -2.3936 0.9136
-9.5490 -20.3318 -2.3936 0.9136
-8.9158 -20.6173 -2.3936 0.9136
-8.6602 -20.7260 -2.3936 0.9136
-7.9641 -19.7431 -2.2686 0.9179
-7.8244 -19.7478 -2.2635 0.9181
-7.6855 -19.7532 -2.2586 0.9183
-7.6246 -21.1289 -2.3936 0.9136
-7.0996 -21.3111 -2.3936 0.9136
-6.8355 -21.3972 -2.3936 0.9136
-6.1707 -21.5983 -2.3936 0.9136
-5.9029 -21.6730 -2.3936 0.9136
-5.6344 -21.7443 -2.3936 0.9136
-5.2303 -21.8452 -2.3936 0.9136
-4.9595 -21.9081 -2.3936 0.9136
-4.8238 -21.9384 -2.3936 0.9136
-4.6883 -21.9678 -2.3936 0.9136
-4.5523 -21.9964 -2.3936 0.9136
-4.2798 -22.0500 -2.3935 0.9136
-4.1384 -22.0495 -2.3906 0.9137
-3.9973 -22.0489 -2.3878 0.9138
-3.4359 -22.0465 -2.3776 0.9142
-3.1570 -22.0452 -2.3731 0.9143
-3.0179 -22.0445 -2.3710 0.9144
-2.7404 -22.0431 -2.3670 0.9145
-2.6020 -22.0424 -2.3652 0.9146
-2.4638 -22.0416 -2.3634 0.9146
-2.0503 -22.0394 -2.3587 0.9148
-1.7756 -22.0377 -2.3560 0.9149
-1.5014 -22.0361 -2.3536 0.9150
-1.3644 -22.0352 -2.3526 0.9150
-1.0910 -22.0335 -2.3508 0.9151
-0.9544 -22.0325 -2.3500 0.9151
-0.6814 -22.0307 -2.3487 0.9152
-0.5451 -22.0297 -2.3482 0.9152
-0.0000 -22.0258 -2.3471 0.9152
0.6811 -22.0204 -2.3476 0.9152
0.8174 -22.0193 -2.3480 0.9152
1.2266 -22.0159 -2.3497 0.9151
1.4998 -22.0135 -2.3512 0.9151
1.6365 -22.0123 -2.3521 0.9150
1.7734 -22.0110 -2.3531 0.9150
1.7496 -20.1571 -2.1560 0.9218
2.0064 -20.2108 -2.1643 0.9215
2.1296 -20.1819 -2.1625 0.9216
3.0117 -21.9992 -2.3661 0.9146
3.4279 -21.9949 -2.3721 0.9143
3.5671 -21.9934 -2.3743 0.9143
3.7066 -21.9919 -2.3765 0.9142
3.8463 -21.9904 -2.3789 0.9141
3.9864 -21.9888 -2.3813 0.9140
4.2673 -21.9857 -2.3865 0.9138
4.1711 -20.1540 -2.1931 0.9205
4.4405 -20.1938 -2.2033 0.9202
4.7019 -20.1887 -2.2089 0.9200
5.3654 -21.8123 -2.3936 0.9136
5.5001 -21.7788 -2.3936 0.9136
5.6349 -21.7443 -2.3936 0.9136
5.7690 -21.7091 -2.3936 0.9136
6.1707 -21.5983 -2.3936 0.9136
6.7031 -21.4391 -2.3936 0.9136
6.9677 -21.3545 -2.3936 0.9136
7.0996 -21.3110 -2.3936 0.9136
7.2313 -21.2668 -2.3936 0.9136
7.4485 -21.0477 -2.3792 0.9141
7.6246 -21.1289 -2.3936 0.9136
7.1614 -19.4674 -2.2104 0.9199
7.4279 -19.4462 -2.2182 0.9197
8.4031 -20.8315 -2.3936 0.9136
8.6602 -20.7260 -2.3936 0.9136
8.9158 -20.6173 -2.3936 0.9136
9.2968 -20.4484 -2.3936 0.9136
9.5882 -19.4682 -2.3125 0.9164
9.7352 -19.4622 -2.3189 0.9162
9.8884 -19.4666 -2.3267 0.9159
10.2966 -19.9636 -2.3936 0.9136
10.4199 -19.8995 -2.3936 0.9136
10.6652 -19.7691 -2.3936 0.9136
10.9089 -19.6357 -2.3936 0.9136
11.3913 -19.3599 -2.3936 0.9136
11.7485 -19.1452 -2.3936 0.9136
11.8666 -19.0722 -2.3936 0.9136
11.9844 -18.9984 -2.3936 0.9136
12.2184 -18.8487 -2.3936 0.9136
12.7953 -18.4620 -2.3936 0.9136
12.9092 -18.3825 -2.3936 0.9136
13.0227 -18.3023 -2.3936 0.9136
13.1357 -18.2214 -2.3936 0.9136
13.2481 -18.1399 -2.3936 0.9136
13.3600 -18.0576 -2.3936 0.9136
13.4714 -17.9746 -2.3936 0.9136
13.8024 -17.7216 -2.3936 0.9136
13.9118 -17.6359 -2.3936 0.9136
14.3438 -17.2864 -2.3936 0.9136
14.4505 -17.1974 -2.3936 0.9136
14.5566 -17.1077 -2.3936 0.9136
14.7670 -16.9263 -2.3936 0.9136
14.8714 -16.8347 -2.3936 0.9136
14.9752 -16.7424 -2.3936 0.9136
15.1812 -16.5559 -2.3936 0.9136
15.2832 -16.4617 -2.3936 0.9136
15.4857 -16.2715 -2.3936 0.9136
15.6857 -16.0787 -2.3936 0.9136
15.7849 -15.9813 -2.3936 0.9136
15.8834 -15.8834 -2.3936 0.9136
15.9813 -15.7849 -2.3936 0.9136
16.0786 -15.6858 -2.3936 0.9136
16.1753 -15.5860 -2.3936 0.9136
16.2714 -15.4857 -2.3936 0.9136
16.5559 -15.1812 -2.3936 0.9136
16.6494 -15.0785 -2.3936 0.9136
16.7424 -14.9752 -2.3936 0.9136
16.8347 -14.8714 -2.3936 0.9136
16.9263 -14.7670 -2.3936 0.9136
17.1077 -14.5566 -2.3936 0.9136
17.2864 -14.3438 -2.3936 0.9136
17.5495 -14.0207 -2.3936 0.9136
18.2214 -13.1356 -2.3936 0.9136
18.3825 -12.9093 -2.3936 0.9136
18.6188 -12.5660 -2.3936 0.9136
18.6962 -12.4506 -2.3936 0.9136
18.7728 -12.3348 -2.3936 0.9136
18.8487 -12.2185 -2.3936 0.9136
19.1452 -11.7485 -2.3936 0.9136
19.2175 -11.6299 -2.3936 0.9136
19.2890 -11.5108 -2.3936 0.9136
19.4992 -11.1510 -2.3936 0.9136
19.6357 -10.9090 -2.3936 0.9136
19.7028 -10.7873 -2.3936 0.9136
19.9635 -10.2967 -2.3936 0.9136
20.0268 -10.1730 -2.3936 0.9136
20.0894 -10.0490 -2.3936 0.9136
20.3904 -9.4231 -2.3936 0.9136
20.5054 -9.1702 -2.3936 0.9136
20.6720 -8.7882 -2.3936 0.9136
20.7794 -8.5318 -2.3936 0.9136
20.9338 -8.1449 -2.3936 0.9136
20.9838 -8.0153 -2.3936 0.9136
21.0330 -7.8854 -2.3936 0.9136
21.1289 -7.6246 -2.3936 0.9136
21.1756 -7.4938 -2.3936 0.9136
21.2216 -7.3627 -2.3936 0.9136
21.3110 -7.0997 -2.3936 0.9136
21.3545 -6.9677 -2.3936 0.9136
21.4078 -6.5483 -2.3856 0.9139
21.5597 -6.3042 -2.3936 0.9136
21.6730 -5.9032 -2.3936 0.9136
21.7091 -5.7690 -2.3936 0.9136
21.8770 -5.0951 -2.3936 0.9136
21.9384 -4.8241 -2.3936 0.9136
22.0241 -4.4163 -2.3936 0.9136
22.0510 -4.2800 -2.3936 0.9136
22.0770 -4.1436 -2.3936 0.9136
22.1266 -3.8702 -2.3936 0.9136
22.1728 -3.5963 -2.3936 0.9136
22.1946 -3.4590 -2.3936 0.9136
22.2357 -3.1843 -2.3936 0.9136
22.2549 -3.0467 -2.3936 0.9136
22.2733 -2.9090 -2.3936 0.9136
22.3235 -2.4953 -2.3936 0.9136
22.3784 -1.9424 -2.3936 0.9136
22.4007 -1.6655 -2.3936 0.9136
22.4106 -1.5269 -2.3936 0.9136
22.4196 -1.3883 -2.3936 0.9136
22.4277 -1.2496 -2.3936 0.9136
22.4415 -0.9721 -2.3936 0.9136
12.3658 -0.4591 -1.3186 0.9514
12.1459 -0.3757 -1.2949 0.9523
12.1494 -0.3006 -1.2950 0.9523
12.1299 -0.2251 -1.2928 0.9524
12.1128 -0.1498 -1.2908 0.9524
12.1055 -0.0749 -1.2900 0.9525
12.1009 0.0000 -1.2895 0.9525
12.0938 0.1496 -1.2888 0.9525
12.0938 0.2992 -1.2891 0.9525
12.1009 0.4492 -1.2904 0.9525
12.1539 0.7526 -1.2976 0.9522
20.9536 1.8187 -2.2412 0.9189
20.9419 1.9482 -2.2412 0.9189
20.9162 2.2071 -2.2412 0.9189
20.8873 2.4656 -2.2412 0.9189
20.8717 2.5947 -2.2412 0.9189
20.8380 2.8527 -2.2412 0.9189
20.8199 2.9815 -2.2412 0.9189
20.8011 3.1102 -2.2412 0.9189
20.7815 3.2388 -2.2412 0.9189
20.2351 3.7978 -2.1939 0.9205
19.3572 4.1312 -2.1092 0.9235
20.5470 4.6515 -2.2449 0.9187
20.5175 4.7784 -2.2449 0.9187
20.4873 4.9051 -2.2448 0.9187
20.3918 5.2841 -2.2447 0.9188
20.3585 5.4100 -2.2447 0.9188
20.2894 5.6612 -2.2446 0.9188
20.2172 5.9116 -2.2446 0.9188
20.1031 6.2854 -2.2445 0.9188
20.0636 6.4095 -2.2444 0.9188
20.0233 6.5333 -2.2444 0.9188
19.9822 6.6569 -2.2444 0.9188
16.2052 5.8478 -1.8358 0.9330
16.2074 5.9621 -1.8402 0.9329
16.2125 6.1927 -1.8494 0.9326
14.5844 5.7785 -1.6717 0.9388
14.4816 5.9461 -1.6682 0.9390
13.1814 5.7972 -1.5345 0.9437
12.9672 5.7990 -1.5137 0.9445
12.9666 5.8952 -1.5178 0.9443
12.9697 6.0913 -1.5269 0.9440
12.9713 6.1903 -1.5316 0.9438
12.9729 6.2898 -1.5363 0.9437
12.9746 6.3900 -1.5412 0.9435
12.9794 6.6944 -1.5562 0.9429
12.9811 6.7973 -1.5614 0.9428
12.9827 6.9008 -1.5667 0.9426
12.9861 7.1099 -1.5776 0.9422
12.9895 7.3220 -1.5889 0.9418
12.9929 7.5372 -1.6006 0.9414
12.9947 7.6461 -1.6066 0.9412
12.9964 7.7557 -1.6128 0.9409
11.1543 6.9402 -1.3999 0.9485
10.4156 6.9362 -1.3335 0.9509
10.2058 7.0733 -1.3232 0.9513
10.1297 7.1137 -1.3190 0.9514
10.0542 7.1538 -1.3149 0.9516
9.8276 7.4608 -1.3148 0.9516
9.6522 7.7113 -1.3165 0.9515
9.6083 7.7740 -1.3170 0.9515
9.3948 7.9938 -1.3145 0.9516
9.3822 8.0836 -1.3197 0.9514
9.3566 8.2655 -1.3304 0.9510
9.3437 8.3575 -1.3359 0.9508
9.3322 8.4516 -1.3416 0.9506
9.3437 9.1154 -1.3910 0.9488
9.3458 9.2309 -1.3998 0.9485
9.3478 9.3478 -1.4087 0.9482
9.3106 9.4265 -1.4119 0.9481
9.4724 10.4593 -1.5037 0.9448
9.4771 10.7282 -1.5254 0.9440
9.3266 11.0995 -1.5449 0.9433
9.3820 11.3067 -1.5656 0.9426
9.3845 11.4532 -1.5778 0.9422
9.3952 12.0628 -1.6293 0.9403
9.4036 12.5471 -1.6709 0.9389
9.4065 12.7140 -1.6853 0.9384
9.4095 12.8839 -1.7001 0.9378
9.3928 13.2008 -1.7264 0.9369
9.4730 13.6683 -1.7721 0.9353
9.4730 13.8504 -1.7881 0.9347
9.5054 14.8641 -1.8801 0.9315
4.3604 7.2052 -0.8974 0.9667
4.1085 7.0823 -0.8725 0.9676
3.8905 7.0027 -0.8536 0.9683
3.6490 6.9688 -0.8382 0.9689
3.5900 6.9605 -0.8346 0.9690
3.3306 6.9791 -0.8241 0.9694
3.2818 6.9877 -0.8227 0.9694
3.2107 6.9477 -0.8156 0.9697
3.1626 6.9562 -0.8143 0.9697
3.0668 6.9731 -0.8117 0.9698
3.0407 7.0315 -0.8163 0.9697
2.9987 7.0538 -0.8168 0.9696
2.9567 7.0762 -0.8172 0.9696
2.9146 7.0986 -0.8177 0.9696
2.8303 7.1434 -0.8188 0.9696
2.7881 7.1658 -0.8194 0.9695
2.7458 7.1883 -0.8200 0.9695
2.7034 7.2109 -0.8206 0.9695
2.6202 7.2609 -0.8226 0.9694
2.5831 7.2992 -0.8251 0.9693
2.5083 7.3767 -0.8303 0.9691
2.4325 7.4552 -0.8357 0.9689
2.3943 7.4948 -0.8384 0.9688
2.3558 7.5346 -0.8412 0.9687
2.2834 7.6335 -0.8490 0.9685
2.2513 7.6992 -0.8548 0.9682
2.2188 7.7660 -0.8607 0.9680
2.1523 7.9022 -0.8727 0.9676
2.1184 7.9717 -0.8790 0.9674
2.0923 8.0744 -0.8888 0.9670
2.0733 8.2097 -0.9023 0.9665
2.0537 8.3492 -0.9162 0.9660
1.9690 8.4544 -0.9250 0.9657
1.8594 8.4560 -0.9226 0.9658
1.8049 8.4568 -0.9215 0.9658
1.6961 8.4585 -0.9193 0.9659
1.2655 6.9804 -0.7560 0.9719
1.1939 6.8258 -0.7384 0.9725
1.1771 6.9837 -0.7547 0.9719
1.1223 8.1983 -0.8818 0.9673
1.1014 8.4331 -0.9063 0.9664
1.0482 8.4313 -0.9054 0.9664
0.9951 8.4295 -0.9045 0.9664
0.7406 8.5324 -0.9126 0.9661
0.6875 8.5333 -0.9123 0.9661
0.6345 8.5342 -0.9119 0.9662
0.5286 8.5361 -0.9114 0.9662
0.3699 8.5388 -0.9108 0.9662
0.3170 8.5397 -0.9106 0.9662
0.2642 8.5407 -0.9105 0.9662
0.2113 8.5416 -0.9105 0.9662
0.1057 8.5434 -0.9105 0.9662
-0.0522 8.4486 -0.9003 0.9666
-0.1045 8.4522 -0.9007 0.9666
-0.1736 7.0150 -0.7478 0.9722
-0.2170 7.0155 -0.7479 0.9722
-0.5655 7.0188 -0.7504 0.9721
-0.6092 7.0192 -0.7508 0.9721
-0.6530 7.0196 -0.7512 0.9720
-0.8498 8.5601 -0.9167 0.9660
-0.9034 8.5610 -0.9173 0.9660
-0.4351 3.8929 -0.4174 0.9844
-0.4561 3.8641 -0.4146 0.9845
-0.4776 3.8419 -0.4126 0.9845
-0.5221 3.8140 -0.4102 0.9846
-0.6718 3.8409 -0.4155 0.9844
-1.6642 8.5743 -0.9307 0.9655
-1.7544 8.4770 -0.9225 0.9658
-1.9020 8.1666 -0.8935 0.9668
-1.9054 7.9581 -0.8720 0.9676
-1.9147 7.3888 -0.8134 0.9698
-1.8811 7.0787 -0.7805 0.9710
-1.9109 7.0159 -0.7749 0.9712
-2.0041 7.0145 -0.7774 0.9711
-2.0509 6.8562 -0.7626 0.9716
-2.6686 8.5351 -0.9529 0.9647
-2.7857 8.5375 -0.9570 0.9645
-2.8205 8.4664 -0.9509 0.9647
-2.8405 8.3536 -0.9402 0.9651
-1.5684 4.5205 -0.5099 0.9809
-1.5698 4.4360 -0.5014 0.9812
-1.6001 4.2681 -0.4857 0.9818
-1.6169 4.2330 -0.4829 0.9819
-1.6194 4.0873 -0.4685 0.9825
-1.6230 3.8842 -0.4486 0.9832
-1.6252 3.7581 -0.4363 0.9837
-1.6273 3.6387 -0.4248 0.9841
-1.6283 3.5814 -0.4192 0.9843
-1.5843 3.3198 -0.3920 0.9853
-1.5970 3.2939 -0.3901 0.9854
-1.5917 3.1821 -0.3791 0.9858
-1.5925 3.1351 -0.3747 0.9860
-1.6084 3.1184 -0.3739 0.9860
-1.6475 3.1464 -0.3785 0.9858
-1.6726 3.1468 -0.3798 0.9858
-4.0181 7.1283 -0.8720 0.9676
-4.1263 7.1130 -0.8763 0.9675
-2.6632 4.4628 -0.5538 0.9793
-2.7393 4.4639 -0.5581 0.9792
-2.8310 4.4879 -0.5654 0.9789
-2.9101 4.4893 -0.5701 0.9787
-2.9501 4.4899 -0.5725 0.9786
-2.9905 4.4906 -0.5749 0.9785
-3.0313 4.4914 -0.5774 0.9784
-3.1138 4.4928 -0.5825 0.9783
-3.2834 4.4958 -0.5932 0.9779
-3.4148 4.4981 -0.6018 0.9775
-3.5501 4.5004 -0.6108 0.9772
-3.5961 4.5012 -0.6139 0.9771
-3.6896 4.5029 -0.6203 0.9769
-3.7693 4.4858 -0.6244 0.9767
-4.0842 4.5097 -0.6483 0.9758
-4.2417 4.5125 -0.6599 0.9754
-4.2955 4.5134 -0.6640 0.9752
-4.3499 4.5144 -0.6680 0.9751
-4.4050 4.5154 -0.6722 0.9749
-4.5745 4.5183 -0.6852 0.9745
-4.6912 4.5203 -0.6942 0.9741
-4.8111 4.5224 -0.7036 0.9738
-4.8750 4.5261 -0.7089 0.9736
-4.8791 4.4739 -0.7054 0.9737
-4.9236 4.2955 -0.6963 0.9741
-4.9245 4.2429 -0.6927 0.9742
-4.9254 4.1909 -0.6891 0.9743
-4.9281 4.0380 -0.6789 0.9747
-4.9289 3.9880 -0.6756 0.9748
-4.9179 3.7817 -0.6611 0.9754
-4.8893 3.7118 -0.6541 0.9756
-4.8901 3.6650 -0.6512 0.9757
-4.9932 3.6467 -0.6589 0.9754
-9.3132 6.7138 -1.2234 0.9549
-9.4696 6.6501 -1.2331 0.9545
-9.4432 6.5447 -1.2243 0.9548
-9.4826 6.4856 -1.2242 0.9548
-10.8594 7.2318 -1.3903 0.9489
-10.8625 7.0414 -1.3794 0.9493
-10.8639 6.9473 -1.3741 0.9494
-10.8668 6.7613 -1.3638 0.9498
-10.8314 6.5549 -1.3491 0.9503
-11.1770 6.3004 -1.3672 0.9497
-12.5889 6.9940 -1.5346 0.9437
-12.5904 6.8933 -1.5296 0.9439
-12.5920 6.7932 -1.5246 0.9441
-12.5935 6.6938 -1.5198 0.9442
-12.5950 6.5951 -1.5150 0.9444
-12.5965 6.4969 -1.5103 0.9446
-12.5981 6.3994 -1.5057 0.9447
-12.5996 6.3025 -1.5012 0.9449
-12.5630 6.1873 -1.4923 0.9452
-17.2853 7.7301 -2.0177 0.9267
-17.3998 7.5245 -2.0201 0.9266
-17.5835 7.3471 -2.0307 0.9262
-19.5052 7.8681 -2.2412 0.9189
-19.5535 7.7473 -2.2412 0.9189
-19.6010 7.6262 -2.2412 0.9189
-19.6478 7.5049 -2.2412 0.9189
-19.6938 7.3833 -2.2412 0.9189
-19.7391 7.2613 -2.2412 0.9189
-19.8274 7.0166 -2.2412 0.9189
-19.9127 6.7709 -2.2412 0.9189
-19.9949 6.5240 -2.2412 0.9189
-20.0348 6.4003 -2.2412 0.9189
-21.5203 6.4374 -2.3936 0.9136
-21.5597 6.3042 -2.3936 0.9136
-21.6360 6.0370 -2.3936 0.9136
-21.7443 5.6346 -2.3936 0.9136
-21.7787 5.5000 -2.3936 0.9136
-21.8124 5.3652 -2.3936 0.9136
-21.9081 4.9596 -2.3936 0.9136
-21.9384 4.8241 -2.3936 0.9136
-21.9964 4.5524 -2.3936 0.9136
-22.0241 4.4162 -2.3936 0.9136
-22.0770 4.1435 -2.3936 0.9136
-22.1501 3.7332 -2.3936 0.9136
-22.2156 3.3216 -2.3936 0.9136
-22.2550 3.0466 -2.3936 0.9136
-22.2734 2.9090 -2.3936 0.9136
-22.3076 2.6332 -2.3936 0.9136
-22.3235 2.4953 -2.3936 0.9136
-22.3526 2.2190 -2.3936 0.9136
-22.3660 2.0807 -2.3936 0.9136
-22.3784 1.9423 -2.3936 0.9136
-22.3899 1.8039 -2.3936 0.9136
-22.4007 1.6654 -2.3936 0.9136
-22.4105 1.5269 -2.3936 0.9136
-22.4277 1.2496 -2.3936 0.9136
-22.4351 1.1107 -2.3936 0.9136
-22.4414 0.9721 -2.3936 0.9136
-22.4470 0.8333 -2.3936 0.9136
-22.4518 0.6944 -2.3936 0.9136
-22.4586 0.4167 -2.3936 0.9136
-20.9828 -0.0001 -2.3936 0.9190
-20.9811 -0.2595 -2.3936 0.9190
-20.9763 -0.5191 -2.3936 0.9190
-20.9727 -0.6487 -2.3936 0.9190
-20.9683 -0.7784 -2.3936 0.9190
-20.9571 -1.0377 -2.3936 0.9190
-20.9502 -1.1672 -2.3936 0.9190
-20.9342 -1.4263 -2.3936 0.9190
-20.9250 -1.5558 -2.3936 0.9190
-20.9042 -1.8145 -2.3936 0.9190
-20.8925 -1.9437 -2.3936 0.9190
-20.8669 -2.2020 -2.3936 0.9190
-20.8529 -2.3309 -2.3936 0.9190
-20.8225 -2.5887 -2.3936 0.9190
-20.8061 -2.7174 -2.3936 0.9190
-20.7521 -3.1029 -2.3936 0.9190
-20.6909 -3.4874 -2.3936 0.9190
-20.6690 -3.6153 -2.3936 0.9190
-20.6462 -3.7430 -2.3936 0.9190
-20.5983 -3.9981 -2.3936 0.9190
-20.4931 -4.5064 -2.3936 0.9190
-20.4649 -4.6330 -2.3936 0.9190
-20.4359 -4.7595 -2.3936 0.9190
-20.4060 -4.8858 -2.3936 0.9190
-20.3754 -5.0119 -2.3936 0.9190
-20.3441 -5.1378 -2.3936 0.9190
-20.3119 -5.2635 -2.3936 0.9190
-20.2789 -5.3890 -2.3936 0.9190
-20.2452 -5.5143 -2.3936 0.9190
-20.2107 -5.6394 -2.3936 0.9190
-20.1755 -5.7643 -2.3936 0.9190
-20.1026 -6.0133 -2.3936 0.9190
-20.0267 -6.2615 -2.3936 0.9190
-19.9876 -6.3853 -2.3936 0.9190
-19.9477 -6.5087 -2.3936 0.9190
-19.8657 -6.7549 -2.3936 0.9190
-19.8236 -6.8776 -2.3936 0.9190
-19.6474 -7.3659 -2.3936 0.9190
-19.6015 -7.4873 -2.3936 0.9190
-19.4102 -7.9698 -2.3936 0.9190
-19.3606 -8.0897 -2.3936 0.9190
-19.3102 -8.2093 -2.3936 0.9190
-19.2591 -8.3285 -2.3936 0.9190
-19.2072 -8.4475 -2.3936 0.9190
-19.1013 -8.6843 -2.3936 0.9190
-18.9369 -9.0373 -2.3936 0.9190
-18.8806 -9.1542 -2.3936 0.9190
-18.7659 -9.3870 -2.3936 0.9190
-18.7075 -9.5029 -2.3936 0.9190
-18.6484 -9.6184 -2.3936 0.9190
-18.5886 -9.7335 -2.3936 0.9190
-18.3421 -10.1904 -2.3936 0.9190
-18.2787 -10.3036 -2.3936 0.9190
-18.2147 -10.4164 -2.3936 0.9190
-17.8839 -10.9746 -2.3936 0.9190
-17.8157 -11.0849 -2.3936 0.9190
-17.6773 -11.3045 -2.3936 0.9190
-17.6070 -11.4135 -2.3936 0.9190
-17.5361 -11.5222 -2.3936 0.9190
-17.4646 -11.6306 -2.3936 0.9190
-17.2457 -11.9524 -2.3936 0.9190
-17.1715 -12.0588 -2.3936 0.9190
-17.0966 -12.1648 -2.3936 0.9190
-16.9448 -12.3754 -2.3936 0.9190
-16.7905 -12.5840 -2.3936 0.9190
-16.7123 -12.6876 -2.3936 0.9190
-16.6336 -12.7907 -2.3936 0.9190
-16.5541 -12.8933 -2.3936 0.9190
-16.3934 -13.0971 -2.3936 0.9190
-16.3121 -13.1982 -2.3936 0.9190
-16.2302 -13.2988 -2.3936 0.9190
-16.1476 -13.3989 -2.3936 0.9190
-16.0644 -13.4985 -2.3936 0.9190
-15.8963 -13.6962 -2.3936 0.9190
-15.8113 -13.7942 -2.3936 0.9190
-15.6394 -13.9887 -2.3936 0.9190
-15.4652 -14.1811 -2.3936 0.9190
-15.1995 -14.4655 -2.3936 0.9190
-15.1097 -14.5592 -2.3936 0.9190
-14.9285 -14.7451 -2.3936 0.9190
-14.8370 -14.8371 -2.3936 0.9190
-14.7450 -14.9286 -2.3936 0.9190
-14.5592 -15.1097 -2.3936 0.9190
-14.4655 -15.1995 -2.3936 0.9190
-14.2764 -15.3773 -2.3936 0.9190
-14.1811 -15.4653 -2.3936 0.9190
-13.8917 -15.7256 -2.3936 0.9190
-13.6961 -15.8963 -2.3936 0.9190
-13.5976 -15.9807 -2.3936 0.9190
-13.4985 -16.0645 -2.3936 0.9190
-12.9954 -16.4741 -2.3936 0.9190
-12.8933 -16.5542 -2.3936 0.9190
-12.7906 -16.6336 -2.3936 0.9190
-12.5839 -16.7905 -2.3936 0.9190
-12.4799 -16.8680 -2.3936 0.9190
-12.3753 -16.9449 -2.3936 0.9190
-12.1648 -17.0967 -2.3936 0.9190
-11.8455 -17.3194 -2.3936 0.9190
-11.6304 -17.4646 -2.3936 0.9190
-11.5222 -17.5362 -2.3936 0.9190
-11.4135 -17.6071 -2.3936 0.9190
-11.3044 -17.6773 -2.3936 0.9190
-11.0849 -17.8158 -2.3936 0.9190
-10.8637 -17.9515 -2.3936 0.9190
-10.7525 -18.0184 -2.3936 0.9190
-10.6409 -18.0845 -2.3936 0.9190
-10.4164 -18.2147 -2.3936 0.9190
-9.8483 -18.5281 -2.3936 0.9190
-9.6183 -18.6484 -2.3936 0.9190
-9.5028 -18.7076 -2.3936 0.9190
-9.2707 -18.8237 -2.3936 0.9190
-8.9199 -18.9924 -2.3936 0.9190
-8.3285 -19.2591 -2.3936 0.9190
-8.2092 -19.3102 -2.3936 0.9190
-8.0897 -19.3607 -2.3936 0.9190
-7.9698 -19.4103 -2.3936 0.9190
-7.6083 -19.5548 -2.3936 0.9190
-7.4872 -19.6015 -2.3936 0.9190
-7.2442 -19.6926 -2.3936 0.9190
-7.1223 -19.7370 -2.3936 0.9190
-6.8777 -19.8236 -2.3936 0.9190
-6.6319 -19.9072 -2.3936 0.9190
-6.2615 -20.0267 -2.3936 0.9190
-6.1375 -20.0651 -2.3936 0.9190
-6.0133 -20.1026 -2.3936 0.9190
-5.6394 -20.2107 -2.3936 0.9190
-5.5143 -20.2453 -2.3936 0.9190
-5.2634 -20.3119 -2.3936 0.9190
-5.1377 -20.3441 -2.3936 0.9190
-5.0118 -20.3754 -2.3936 0.9190
-4.8857 -20.4061 -2.3936 0.9190
-4.6330 -20.4649 -2.3936 0.9190
-4.5063 -20.4932 -2.3936 0.9190
-4.3795 -20.5207 -2.3936 0.9190
-3.9980 -20.5984 -2.3936 0.9190
-3.4873 -20.6910 -2.3936 0.9190
-3.2312 -20.7325 -2.3936 0.9190
-3.1029 -20.7521 -2.3936 0.9190
-2.8460 -20.7889 -2.3936 0.9190
-2.4598 -20.8381 -2.3936 0.9190
-2.2019 -20.8670 -2.3936 0.9190
-2.0728 -20.8802 -2.3936 0.9190
-1.8144 -20.9042 -2.3936 0.9190
-1.6851 -20.9150 -2.3936 0.9190
-1.5557 -20.9250 -2.3936 0.9190
-1.1673 -20.9503 -2.3936 0.9190
-0.9081 -20.9631 -2.3936 0.9190
-0.7784 -20.9683 -2.3936 0.9190
-0.6487 -20.9727 -2.3936 0.9190
-0.2595 -20.9812 -2.3936 0.9190
-0.1298 -20.9824 -2.3936 0.9190
-0.0000 -20.9828 -2.3936 0.9190
0.2595 -20.9812 -2.3936 0.9190
0.3892 -20.9791 -2.3936 0.9190
0.6487 -20.9727 -2.3936 0.9190
0.7784 -20.9683 -2.3936 0.9190
0.9081 -20.9631 -2.3936 0.9190
1.0377 -20.9571 -2.3936 0.9190
1.2968 -20.9427 -2.3936 0.9190
1.8144 -20.9042 -2.3936 0.9190
1.8750 -20.1543 -2.3090 0.9217
1.9999 -20.1459 -2.3095 0.9217
2.1282 -20.1687 -2.3135 0.9216
2.3309 -20.8529 -2.3936 0.9190
2.4598 -20.8381 -2.3936 0.9190
2.5886 -20.8225 -2.3936 0.9190
3.2312 -20.7325 -2.3936 0.9190
3.3593 -20.7121 -2.3936 0.9190
3.6152 -20.6690 -2.3936 0.9190
4.1253 -20.5732 -2.3936 0.9190
4.3129 -20.2086 -2.3572 0.9202
4.4354 -20.1704 -2.3559 0.9202
4.8857 -20.4060 -2.3936 0.9190
5.0118 -20.3754 -2.3936 0.9190
5.1377 -20.3441 -2.3936 0.9190
5.5143 -20.2453 -2.3936 0.9190
5.6393 -20.2107 -2.3936 0.9190
6.1375 -20.0651 -2.3936 0.9190
6.2615 -20.0267 -2.3936 0.9190
6.3852 -19.9876 -2.3936 0.9190
6.6320 -19.9071 -2.3936 0.9190
6.7549 -19.8658 -2.3936 0.9190
7.0001 -19.7807 -2.3936 0.9190
7.4437 -19.4876 -2.3797 0.9194
7.6083 -19.5548 -2.3936 0.9190
7.7291 -19.5074 -2.3936 0.9190
8.0896 -19.3606 -2.3936 0.9190
8.3285 -19.2591 -2.3936 0.9190
8.5660 -19.1546 -2.3936 0.9190
8.6844 -19.1013 -2.3936 0.9190
8.8023 -19.0472 -2.3936 0.9190
9.3870 -18.7660 -2.3936 0.9190
9.6184 -18.6484 -2.3936 0.9190
9.7335 -18.5886 -2.3936 0.9190
10.0767 -18.4048 -2.3936 0.9190
10.1903 -18.3422 -2.3936 0.9190
10.3035 -18.2788 -2.3936 0.9190
10.4164 -18.2147 -2.3936 0.9190
10.6408 -18.0845 -2.3936 0.9190
10.9745 -17.8840 -2.3936 0.9190
11.3044 -17.6773 -2.3936 0.9190
11.5222 -17.5361 -2.3936 0.9190
11.6304 -17.4646 -2.3936 0.9190
11.7382 -17.3923 -2.3936 0.9190
11.8455 -17.3194 -2.3936 0.9190
11.9524 -17.2458 -2.3936 0.9190
12.0588 -17.1715 -2.3936 0.9190
12.2703 -17.0211 -2.3936 0.9190
12.3753 -16.9449 -2.3936 0.9190
12.4799 -16.8680 -2.3936 0.9190
12.5839 -16.7905 -2.3936 0.9190
12.6875 -16.7124 -2.3936 0.9190
12.8932 -16.5542 -2.3936 0.9190
12.9954 -16.4741 -2.3936 0.9190
13.3989 -16.1476 -2.3936 0.9190
13.4984 -16.0645 -2.3936 0.9190
13.5976 -15.9807 -2.3936 0.9190
13.6961 -15.8963 -2.3936 0.9190
14.1810 -15.4653 -2.3936 0.9190
14.3712 -15.2887 -2.3936 0.9190
14.4655 -15.1995 -2.3936 0.9190
14.7450 -14.9285 -2.3936 0.9190
14.8370 -14.8371 -2.3936 0.9190
14.9285 -14.7451 -2.3936 0.9190
15.0194 -14.6524 -2.3936 0.9190
15.1097 -14.5593 -2.3936 0.9190
15.3772 -14.2764 -2.3936 0.9190
15.5526 -14.0852 -2.3936 0.9190
15.6394 -13.9887 -2.3936 0.9190
15.8113 -13.7942 -2.3936 0.9190
15.8963 -13.6962 -2.3936 0.9190
16.0644 -13.4985 -2.3936 0.9190
16.2302 -13.2988 -2.3936 0.9190
16.3121 -13.1982 -2.3936 0.9190
16.3934 -13.0970 -2.3936 0.9190
16.4741 -12.9954 -2.3936 0.9190
16.5541 -12.8933 -2.3936 0.9190
16.7123 -12.6876 -2.3936 0.9190
16.7905 -12.5840 -2.3936 0.9190
16.8680 -12.4799 -2.3936 0.9190
16.9448 -12.3753 -2.3936 0.9190
17.0210 -12.2703 -2.3936 0.9190
17.0966 -12.1648 -2.3936 0.9190
17.2458 -11.9524 -2.3936 0.9190
17.3193 -11.8455 -2.3936 0.9190
17.3923 -11.7382 -2.3936 0.9190
17.4645 -11.6304 -2.3936 0.9190
17.6773 -11.3045 -2.3936 0.9190
