ply
format ascii 1.0
element vertex 1540
property float32 x
property float32 y
property float32 z
property float32 I
end_header
-2.1534 -49.7129 -0.4797 0.8195
-1.2284 -49.6465 -0.4788 0.8198
-0.3076 -49.7536 -0.4797 0.8195
0.3078 -49.7636 -0.4798 0.8195
0.6157 -49.7686 -0.4799 0.8195
0.9236 -49.7736 -0.4800 0.8194
1.1497 -46.4687 -0.4481 0.8303
2.0135 -46.4838 -0.4486 0.8302
1.3891 -28.0544 -0.2708 0.8937
2.7874 -28.0788 -0.2720 0.8933
4.4509 -32.5119 -0.3164 0.8770
4.4938 -30.0542 -0.2930 0.8855
4.7107 -29.0443 -0.2837 0.8890
4.6469 -27.5707 -0.2695 0.8942
5.2672 -29.0540 -0.2847 0.8886
5.4535 -29.0564 -0.2850 0.8885
5.6502 -29.1101 -0.2859 0.8881
5.8378 -29.1134 -0.2863 0.8880
6.7727 -29.0803 -0.2879 0.8874
7.9262 -29.1004 -0.2908 0.8863
7.7277 -27.6950 -0.2772 0.8914
8.3161 -29.1072 -0.2919 0.8860
8.7089 -29.1141 -0.2930 0.8855
9.3058 -29.1299 -0.2948 0.8849
10.3130 -29.1421 -0.2980 0.8837
10.5175 -29.1456 -0.2987 0.8834
9.3571 -24.4967 -0.2528 0.9004
9.5010 -24.4194 -0.2526 0.9005
11.9641 -29.1384 -0.3037 0.8816
12.4067 -29.1838 -0.3057 0.8809
12.6220 -29.1877 -0.3066 0.8806
13.0539 -29.1899 -0.3083 0.8799
13.2729 -29.1937 -0.3092 0.8796
13.4931 -29.1976 -0.3101 0.8793
13.9376 -29.2053 -0.3120 0.8786
14.1619 -29.2093 -0.3130 0.8782
14.3876 -29.2132 -0.3140 0.8779
14.5858 -29.1592 -0.3143 0.8777
15.0736 -29.2252 -0.3170 0.8767
15.3052 -29.2292 -0.3181 0.8764
16.0371 -29.2914 -0.3220 0.8750
16.2165 -29.1891 -0.3219 0.8750
16.7294 -29.2541 -0.3249 0.8739
30.4333 -50.2887 -0.5667 0.7905
30.8644 -50.2963 -0.5689 0.7897
31.2990 -50.3039 -0.5712 0.7890
33.5256 -50.3429 -0.5831 0.7851
34.8994 -50.3552 -0.5907 0.7826
35.8422 -50.3733 -0.5960 0.7809
36.3201 -50.3824 -0.5988 0.7800
37.2894 -50.4010 -0.6045 0.7782
38.2774 -50.4199 -0.6103 0.7763
26.8007 -34.8529 -0.4239 0.8387
24.0017 -28.5643 -0.3597 0.8614
24.2097 -28.4527 -0.3602 0.8612
24.5194 -28.4581 -0.3622 0.8605
25.1490 -28.4691 -0.3662 0.8590
26.8908 -29.6925 -0.3862 0.8519
26.9891 -29.4331 -0.3850 0.8524
30.6117 -29.4964 -0.4098 0.8436
31.0001 -29.5032 -0.4126 0.8427
31.3938 -29.5100 -0.4154 0.8417
30.1766 -28.0163 -0.3970 0.8481
32.6080 -29.5312 -0.4241 0.8386
33.0242 -29.5385 -0.4272 0.8376
33.8748 -29.5533 -0.4334 0.8354
34.3095 -29.5609 -0.4366 0.8343
32.9840 -28.0653 -0.4175 0.8409
33.4852 -28.1366 -0.4217 0.8395
29.3536 -24.3569 -0.3677 0.8585
29.6174 -24.2681 -0.3692 0.8580
37.5456 -29.6174 -0.4610 0.8259
38.5861 -29.6714 -0.4693 0.8231
39.5649 -29.6527 -0.4767 0.8205
42.2621 -31.2678 -0.5068 0.8103
42.2692 -30.8704 -0.5046 0.8111
42.2762 -30.4764 -0.5025 0.8118
39.6059 -28.1809 -0.4686 0.8233
33.0752 -22.9232 -0.3880 0.8513
42.2975 -28.9293 -0.4941 0.8147
42.3045 -28.5517 -0.4921 0.8153
42.3184 -27.8055 -0.4882 0.8166
42.3253 -27.4367 -0.4863 0.8173
42.3388 -26.7077 -0.4826 0.8185
42.3522 -25.9895 -0.4791 0.8197
42.3719 -24.9315 -0.4740 0.8215
42.3784 -24.5837 -0.4723 0.8220
42.7270 -24.0847 -0.4729 0.8218
43.3408 -24.0787 -0.4780 0.8201
44.6093 -24.0663 -0.4887 0.8165
45.9359 -24.0533 -0.4999 0.8127
46.6225 -24.0466 -0.5058 0.8107
47.3253 -24.0397 -0.5118 0.8087
49.5449 -24.0214 -0.5309 0.8023
50.3168 -24.0126 -0.5375 0.8001
51.9207 -23.9941 -0.5514 0.7955
53.6092 -23.9744 -0.5662 0.7906
57.2928 -23.9393 -0.5986 0.7801
58.2808 -23.9298 -0.6074 0.7772
59.2837 -23.9143 -0.6163 0.7744
64.8511 -23.8565 -0.6662 0.7585
66.7931 4.5507 -0.6455 0.7651
62.8182 4.6704 -0.6073 0.7773
67.9314 6.3197 -0.6578 0.7612
64.7554 6.8331 -0.6278 0.7707
64.7625 7.2391 -0.6283 0.7705
64.7981 9.2794 -0.6311 0.7696
64.8413 11.7552 -0.6353 0.7683
64.8559 12.5882 -0.6370 0.7678
20.1734 4.1751 -0.1986 0.9209
28.6290 6.8545 -0.2838 0.8889
27.1710 7.2204 -0.2711 0.8936
27.2133 7.4122 -0.2719 0.8933
25.5684 7.1343 -0.2559 0.8993
24.1790 7.2327 -0.2433 0.9040
21.8769 6.6917 -0.2206 0.9125
20.9786 6.9889 -0.2132 0.9153
20.7910 7.0696 -0.2117 0.9159
20.5837 7.2843 -0.2105 0.9164
18.6729 6.7383 -0.1914 0.9237
18.1715 6.8126 -0.1871 0.9253
18.0874 6.9089 -0.1867 0.9255
17.9479 6.9831 -0.1857 0.9259
17.8098 7.0565 -0.1847 0.9262
17.6504 7.1199 -0.1835 0.9267
17.5625 7.2111 -0.1830 0.9269
17.4749 7.3017 -0.1826 0.9270
17.3368 7.4972 -0.1821 0.9272
17.2856 7.6023 -0.1821 0.9272
16.3230 7.2997 -0.1724 0.9310
17.1831 7.8123 -0.1820 0.9273
16.3273 7.5454 -0.1734 0.9306
17.1766 8.1971 -0.1835 0.9267
14.8468 7.3121 -0.1596 0.9359
14.6257 7.3160 -0.1577 0.9367
15.9778 8.3664 -0.1739 0.9304
15.3155 8.3853 -0.1683 0.9325
13.0801 7.3731 -0.1448 0.9417
14.5137 8.2999 -0.1612 0.9353
14.2696 8.3962 -0.1596 0.9359
11.1543 6.9402 -0.1267 0.9488
11.0190 7.0465 -0.1261 0.9490
10.8742 7.0490 -0.1249 0.9495
10.7320 7.0515 -0.1238 0.9499
10.4156 6.9362 -0.1206 0.9512
10.2058 7.0733 -0.1197 0.9515
10.1297 7.1137 -0.1193 0.9517
9.9791 7.1938 -0.1186 0.9520
9.8276 7.4608 -0.1190 0.9518
9.7838 7.5234 -0.1190 0.9518
9.6650 7.6241 -0.1187 0.9520
9.6083 7.7740 -0.1192 0.9518
9.3845 7.8855 -0.1182 0.9521
9.3948 7.9938 -0.1189 0.9519
9.3822 8.0836 -0.1194 0.9517
9.3359 8.6675 -0.1228 0.9503
9.3398 8.8888 -0.1243 0.9497
9.3417 9.0014 -0.1251 0.9494
9.3437 9.1154 -0.1259 0.9491
9.3478 9.3478 -0.1275 0.9485
9.4590 9.6959 -0.1306 0.9473
9.4633 9.9435 -0.1323 0.9466
9.4043 10.0046 -0.1324 0.9466
9.4700 10.3276 -0.1351 0.9455
9.4794 10.8655 -0.1390 0.9440
9.4819 11.0050 -0.1401 0.9435
9.4359 11.0896 -0.1404 0.9434
9.3265 11.0994 -0.1398 0.9437
9.3897 11.7530 -0.1450 0.9416
9.3924 11.9067 -0.1462 0.9411
9.3951 12.0628 -0.1474 0.9407
9.3979 12.2215 -0.1486 0.9402
9.4007 12.3829 -0.1499 0.9397
9.4095 12.8839 -0.1538 0.9382
9.3928 13.2008 -0.1562 0.9372
9.5265 13.5656 -0.1598 0.9358
9.5298 13.7502 -0.1613 0.9353
9.5398 14.3252 -0.1659 0.9335
9.3927 14.8899 -0.1697 0.9320
4.4132 7.1917 -0.0814 0.9668
4.3604 7.2052 -0.0812 0.9669
4.2748 7.1635 -0.0804 0.9672
4.1909 7.1225 -0.0797 0.9675
4.1085 7.0823 -0.0789 0.9678
3.9202 6.9546 -0.0770 0.9686
3.8616 6.9508 -0.0767 0.9687
3.7596 7.0732 -0.0772 0.9685
3.6492 7.0751 -0.0768 0.9687
3.5269 7.0509 -0.0760 0.9690
3.4821 7.0701 -0.0760 0.9690
3.4322 7.0789 -0.0758 0.9690
3.2727 7.0817 -0.0752 0.9693
3.1146 6.9646 -0.0736 0.9699
2.9567 7.0762 -0.0739 0.9698
2.9146 7.0986 -0.0740 0.9698
2.8725 7.1209 -0.0740 0.9698
2.8303 7.1434 -0.0741 0.9697
2.7881 7.1658 -0.0741 0.9697
2.7458 7.1883 -0.0742 0.9697
2.6609 7.2334 -0.0743 0.9696
2.6075 7.2258 -0.0741 0.9697
2.5638 7.2446 -0.0741 0.9697
2.5069 7.5249 -0.0765 0.9688
2.4717 7.5751 -0.0768 0.9686
2.4362 7.6259 -0.0772 0.9685
2.3853 7.6292 -0.0771 0.9685
2.2137 7.9337 -0.0794 0.9676
2.1528 7.9040 -0.0790 0.9678
2.0981 7.8952 -0.0788 0.9678
2.0640 7.9651 -0.0793 0.9676
2.0733 8.2097 -0.0816 0.9667
1.9690 8.4545 -0.0837 0.9659
1.9142 8.4555 -0.0836 0.9659
1.8050 8.4574 -0.0834 0.9660
1.7505 8.4583 -0.0833 0.9660
1.6963 8.4593 -0.0832 0.9661
1.6421 8.4602 -0.0831 0.9661
1.5341 8.4621 -0.0829 0.9662
1.2093 8.0880 -0.0788 0.9678
1.1014 8.4332 -0.0820 0.9666
1.0482 8.4314 -0.0819 0.9666
0.9951 8.4296 -0.0818 0.9666
0.9533 8.5287 -0.0827 0.9663
0.8881 8.4163 -0.0816 0.9667
0.8356 8.4172 -0.0815 0.9667
0.6875 8.5333 -0.0825 0.9663
0.6345 8.5342 -0.0825 0.9663
0.5815 8.5351 -0.0825 0.9664
0.4756 8.5370 -0.0824 0.9664
0.3699 8.5388 -0.0824 0.9664
0.2642 8.5407 -0.0824 0.9664
0.2113 8.5416 -0.0824 0.9664
0.1585 8.5425 -0.0824 0.9664
0.0000 8.5453 -0.0824 0.9664
-0.3680 8.4953 -0.0820 0.9666
-0.4207 8.4962 -0.0820 0.9665
-0.4734 8.4971 -0.0820 0.9665
-0.4829 7.7984 -0.0753 0.9692
-0.5096 7.4802 -0.0723 0.9705
-0.6292 8.4632 -0.0818 0.9666
-0.6817 8.4615 -0.0818 0.9666
-0.8498 8.5601 -0.0829 0.9662
-0.9034 8.5611 -0.0830 0.9662
-0.4564 3.8664 -0.0375 0.9845
-0.4779 3.8438 -0.0373 0.9846
-0.5001 3.8292 -0.0372 0.9847
-0.5224 3.8156 -0.0371 0.9847
-0.5694 3.8082 -0.0371 0.9847
-0.5938 3.8099 -0.0372 0.9847
-0.6187 3.8150 -0.0373 0.9847
-1.5877 8.4595 -0.0830 0.9662
-1.7195 8.5753 -0.0843 0.9656
-1.7544 8.4770 -0.0835 0.9660
-1.8100 8.4808 -0.0836 0.9659
-1.9294 8.5226 -0.0842 0.9656
-2.0970 8.5255 -0.0846 0.9655
-2.0447 7.5069 -0.0750 0.9694
-2.3802 8.5304 -0.0854 0.9652
-2.5526 8.5334 -0.0859 0.9650
-2.6105 8.5345 -0.0860 0.9649
-2.7271 8.5365 -0.0864 0.9648
-1.5684 4.5205 -0.0461 0.9810
-1.5678 4.2620 -0.0438 0.9820
-1.5705 4.1115 -0.0424 0.9825
-1.5717 4.0396 -0.0418 0.9828
-1.5729 3.9699 -0.0412 0.9831
-1.5741 3.9023 -0.0406 0.9833
-1.5753 3.8366 -0.0400 0.9835
-1.5785 3.6502 -0.0383 0.9842
-1.5796 3.5915 -0.0378 0.9844
-1.5815 3.4786 -0.0368 0.9848
-1.5834 3.3714 -0.0359 0.9852
-1.5843 3.3198 -0.0355 0.9854
-1.5909 3.2302 -0.0347 0.9857
-1.5925 3.1351 -0.0339 0.9860
-1.6084 3.1184 -0.0338 0.9861
-1.6475 3.1464 -0.0342 0.9859
-1.6952 3.1423 -0.0344 0.9858
-1.7083 3.1202 -0.0343 0.9859
-3.9375 7.0873 -0.0782 0.9681
-4.1236 7.2108 -0.0801 0.9673
-2.6621 4.5243 -0.0506 0.9792
-2.6843 4.4356 -0.0500 0.9795
-2.7663 4.4460 -0.0505 0.9793
-2.9101 4.4893 -0.0516 0.9788
-2.9501 4.4899 -0.0518 0.9787
-3.0723 4.4921 -0.0525 0.9785
-3.1978 4.4943 -0.0532 0.9782
-3.2404 4.4950 -0.0534 0.9781
-3.2834 4.4958 -0.0537 0.9780
-3.3706 4.4973 -0.0542 0.9778
-3.5045 4.4996 -0.0550 0.9774
-3.5501 4.5004 -0.0553 0.9773
-3.5961 4.5012 -0.0555 0.9772
-3.6896 4.5029 -0.0561 0.9770
-3.7370 4.5037 -0.0564 0.9769
-3.7693 4.4858 -0.0565 0.9768
-3.7906 4.4550 -0.0564 0.9769
-3.8630 4.4835 -0.0571 0.9766
-3.8881 4.4567 -0.0570 0.9766
-4.0842 4.5097 -0.0587 0.9760
-4.1886 4.5116 -0.0594 0.9757
-4.2417 4.5125 -0.0597 0.9755
-4.2955 4.5134 -0.0601 0.9754
-4.4050 4.5154 -0.0608 0.9751
-4.4608 4.5163 -0.0612 0.9749
-4.5173 4.5173 -0.0616 0.9748
-4.5745 4.5183 -0.0620 0.9746
-4.6325 4.5193 -0.0624 0.9744
-4.6912 4.5203 -0.0628 0.9743
-4.8111 4.5224 -0.0637 0.9739
-4.8750 4.5261 -0.0641 0.9737
-4.8791 4.4739 -0.0638 0.9739
-4.9039 4.3863 -0.0634 0.9740
-4.9226 4.3486 -0.0633 0.9741
-4.9245 4.2429 -0.0627 0.9743
-4.9307 3.8895 -0.0605 0.9752
-4.9112 3.8251 -0.0600 0.9754
-4.8901 3.6650 -0.0589 0.9759
-4.8909 3.6186 -0.0586 0.9760
-4.9932 3.6467 -0.0596 0.9756
-12.1479 8.7573 -0.1444 0.9419
-11.1485 7.9325 -0.1319 0.9467
-12.5087 8.6693 -0.1467 0.9409
-12.6807 8.5583 -0.1475 0.9406
-13.0902 8.7174 -0.1516 0.9390
-13.4577 8.7238 -0.1546 0.9379
-13.4898 8.6266 -0.1544 0.9380
-13.5084 8.5212 -0.1540 0.9381
-13.7591 8.0958 -0.1539 0.9381
-13.8440 7.9169 -0.1538 0.9382
-13.9389 7.8572 -0.1543 0.9380
-13.9990 7.7774 -0.1544 0.9379
-14.0592 7.6974 -0.1545 0.9379
-14.1490 7.5206 -0.1545 0.9379
-14.2596 7.4667 -0.1552 0.9376
-14.3712 7.4123 -0.1559 0.9374
-14.9720 7.3738 -0.1609 0.9354
-15.2062 7.2568 -0.1624 0.9348
-52.2283 24.5294 -0.5563 0.7939
-52.2243 24.1345 -0.5547 0.7944
-52.2203 23.7419 -0.5531 0.7950
-52.2163 23.3514 -0.5515 0.7955
-17.6589 7.5072 -0.1850 0.9261
-52.1895 20.6782 -0.5412 0.7989
-52.1857 20.3042 -0.5399 0.7993
-52.1744 19.1932 -0.5360 0.8006
-52.1632 18.0977 -0.5323 0.8018
-52.1522 17.0166 -0.5289 0.8030
-52.1414 15.9491 -0.5257 0.8040
-52.1236 14.1971 -0.5208 0.8057
-52.1201 13.8504 -0.5199 0.8060
-52.1166 13.5051 -0.5191 0.8062
-52.1131 13.1607 -0.5182 0.8065
-52.1061 12.4755 -0.5166 0.8071
-52.0821 10.1089 -0.5115 0.8088
-52.0714 9.1078 -0.5096 0.8094
-52.0646 8.4444 -0.5085 0.8098
-52.0613 8.1137 -0.5080 0.8100
-52.0512 7.1257 -0.5065 0.8105
-52.0479 6.7977 -0.5061 0.8106
-52.0412 6.1431 -0.5052 0.8109
-52.0379 5.8167 -0.5048 0.8110
-52.0150 3.5438 -0.5026 0.8118
-52.0052 2.5750 -0.5020 0.8120
-52.0019 2.2526 -0.5018 0.8120
-51.9986 1.9303 -0.5017 0.8121
-51.9953 1.6082 -0.5015 0.8121
-51.9921 1.2864 -0.5014 0.8122
-51.9855 0.6429 -0.5012 0.8122
-51.9823 0.3214 -0.5012 0.8123
-46.9106 0.0000 -0.8006 0.8289
-51.9693 -0.9643 -0.8871 0.8123
-51.9628 -1.6073 -0.8873 0.8122
-51.9595 -1.9289 -0.8874 0.8122
-51.9530 -2.5724 -0.8878 0.8121
-51.1952 -3.1701 -0.8754 0.8145
-50.6878 -4.0838 -0.8679 0.8159
-50.5206 -4.3850 -0.8655 0.8164
-47.8918 -5.3533 -0.8225 0.8247
-47.4258 -6.1940 -0.8163 0.8258
-47.1190 -6.7477 -0.8124 0.8266
-46.9666 -7.0226 -0.8105 0.8270
-46.8149 -7.2961 -0.8086 0.8273
-48.2715 -8.7512 -0.8373 0.8218
-47.9622 -9.3093 -0.8339 0.8225
-47.5051 -9.8318 -0.8280 0.8236
-47.3509 -10.4121 -0.8274 0.8237
-47.0486 -10.9575 -0.8245 0.8243
-46.8983 -11.2287 -0.8230 0.8245
-44.7562 -11.0089 -0.7866 0.8316
-44.6133 -11.2668 -0.7853 0.8319
-44.4708 -11.5238 -0.7841 0.8321
-44.2982 -12.0656 -0.7836 0.8322
-44.0156 -12.5755 -0.7813 0.8327
-43.8749 -12.8293 -0.7802 0.8329
-43.4861 -13.3016 -0.7761 0.8337
-43.3159 -13.8377 -0.7761 0.8337
-39.5199 -12.8949 -0.7095 0.8468
-36.5660 -12.9402 -0.6620 0.8563
-36.5705 -13.1968 -0.6635 0.8560
-36.6699 -14.0069 -0.6699 0.8547
-36.6744 -14.2692 -0.6716 0.8543
-36.6790 -14.5328 -0.6733 0.8540
-36.6883 -15.0640 -0.6769 0.8533
-36.7167 -16.6932 -0.6884 0.8510
-36.7264 -17.2489 -0.6925 0.8502
-36.7363 -17.8114 -0.6968 0.8493
-36.6602 -18.3379 -0.6996 0.8488
-36.6652 -18.6248 -0.7019 0.8483
-36.7705 -19.2541 -0.7084 0.8470
-36.7860 -20.1404 -0.7158 0.8455
-36.7912 -20.4400 -0.7183 0.8450
-36.8018 -21.0458 -0.7236 0.8440
-36.8072 -21.3519 -0.7262 0.8435
-36.8180 -21.9712 -0.7318 0.8424
-36.8234 -22.2845 -0.7346 0.8418
-36.8289 -22.6002 -0.7375 0.8412
-36.7546 -23.5041 -0.7446 0.8398
-36.7652 -23.8326 -0.7478 0.8392
-36.8522 -24.2139 -0.7526 0.8383
-36.8580 -24.5454 -0.7558 0.8376
-36.8639 -24.8797 -0.7590 0.8370
-36.8697 -25.2170 -0.7624 0.8364
-36.8817 -25.9004 -0.7692 0.8350
-36.8938 -26.5963 -0.7762 0.8336
-36.9125 -27.6647 -0.7873 0.8315
-36.9252 -28.3942 -0.7950 0.8300
-36.9356 -29.5086 -0.8069 0.8277
-33.2763 -27.6118 -0.7380 0.8411
-32.6586 -27.7885 -0.7319 0.8424
-32.2604 -27.7954 -0.7268 0.8434
-31.8677 -27.8023 -0.7218 0.8444
-31.0981 -27.8157 -0.7121 0.8463
-30.3488 -27.8288 -0.7028 0.8481
-29.9815 -27.8352 -0.6982 0.8490
-29.6188 -27.8415 -0.6938 0.8499
-29.2608 -27.8478 -0.6894 0.8508
-28.0584 -27.7136 -0.6730 0.8540
-27.7325 -27.7325 -0.6694 0.8548
-26.8733 -27.8895 -0.6610 0.8565
-26.5481 -27.8951 -0.6572 0.8572
-26.2265 -27.9007 -0.6535 0.8580
-25.5941 -27.9118 -0.6463 0.8594
-25.2830 -27.9172 -0.6428 0.8601
-24.9753 -27.9226 -0.6394 0.8608
-24.6709 -27.9279 -0.6360 0.8615
-24.3696 -27.9332 -0.6327 0.8622
-24.0715 -27.9384 -0.6294 0.8628
-22.4930 -27.8001 -0.6103 0.8667
-22.2280 -27.8227 -0.6078 0.8672
-22.0688 -27.9765 -0.6082 0.8671
-21.2687 -27.6589 -0.5955 0.8697
-21.0013 -27.6635 -0.5928 0.8703
-20.4738 -27.6727 -0.5875 0.8713
-19.9554 -27.6818 -0.5824 0.8724
-19.6996 -27.6863 -0.5799 0.8729
-19.6148 -27.9311 -0.5825 0.8724
-19.6283 -28.6986 -0.5934 0.8701
-22.1367 -32.7995 -0.6754 0.8536
-22.1446 -33.2529 -0.6819 0.8523
-31.8435 -49.1233 -0.9992 0.7912
-31.4730 -49.2161 -0.9970 0.7916
-30.2142 -49.2368 -0.9859 0.7937
-16.5116 -28.0620 -0.5557 0.8779
-15.8204 -28.4762 -0.5560 0.8778
-15.6474 -28.5797 -0.5561 0.8778
-15.4743 -28.6832 -0.5562 0.8778
-26.1983 -49.2884 -0.9527 0.7999
-25.4286 -49.3020 -0.9468 0.8010
-25.0472 -49.3087 -0.9439 0.8015
-14.1424 -28.7152 -0.5463 0.8798
-13.9242 -28.7190 -0.5447 0.8801
-13.7073 -28.7228 -0.5432 0.8804
-13.0862 -28.7831 -0.5396 0.8812
-12.8736 -28.7868 -0.5382 0.8815
-12.6622 -28.7905 -0.5368 0.8818
-12.4306 -28.7451 -0.5345 0.8822
-10.4061 -24.4777 -0.4539 0.8991
-10.2953 -24.6393 -0.4558 0.8987
-11.6012 -28.7596 -0.5293 0.8833
-10.9894 -28.7702 -0.5256 0.8841
-10.7822 -28.7599 -0.5242 0.8844
-10.5862 -28.7773 -0.5233 0.8846
-10.1864 -28.7843 -0.5211 0.8850
-9.5958 -28.8038 -0.5182 0.8856
-9.3994 -28.8072 -0.5172 0.8858
-9.0060 -28.8048 -0.5151 0.8863
-8.8119 -28.8082 -0.5142 0.8865
-8.6185 -28.8116 -0.5133 0.8866
-7.8149 -27.3532 -0.4855 0.8924
-8.2381 -29.5243 -0.5231 0.8846
-7.8511 -28.8250 -0.5099 0.8873
-7.6609 -28.8283 -0.5091 0.8875
-7.2820 -28.8349 -0.5076 0.8878
-7.0934 -28.8382 -0.5069 0.8880
-6.7199 -28.8538 -0.5056 0.8882
-6.5328 -28.8570 -0.5050 0.8884
-6.3462 -28.8603 -0.5043 0.8885
-6.1581 -28.8546 -0.5036 0.8887
-5.7872 -28.8610 -0.5024 0.8889
-5.4180 -28.8675 -0.5013 0.8891
-4.9679 -27.4029 -0.4753 0.8946
-4.8671 -28.8771 -0.4998 0.8894
-4.5015 -28.8835 -0.4989 0.8896
-4.3106 -28.8293 -0.4975 0.8899
-4.1371 -28.8898 -0.4981 0.8898
-3.7740 -28.8962 -0.4974 0.8900
-3.0557 -28.9582 -0.4970 0.8900
-2.5100 -28.9182 -0.4954 0.8904
-2.3302 -28.9214 -0.4952 0.8904
-1.9709 -28.9277 -0.4949 0.8905
-1.7004 -27.4599 -0.4696 0.8958
-2.1534 -49.7133 -0.8493 0.8195
-1.2284 -49.6470 -0.8476 0.8198
-0.3076 -49.7539 -0.8492 0.8195
0.3078 -49.7639 -0.8493 0.8195
0.6157 -49.7689 -0.8495 0.8195
0.9236 -49.7739 -0.8496 0.8194
1.7254 -46.4787 -0.7938 0.8302
1.5632 -28.0574 -0.4796 0.8937
1.9120 -28.0635 -0.4801 0.8936
2.0867 -28.0665 -0.4803 0.8935
2.2615 -28.0696 -0.4806 0.8935
2.4366 -28.0726 -0.4809 0.8934
2.6119 -28.0757 -0.4812 0.8933
2.7874 -28.0788 -0.4816 0.8933
2.9632 -28.0819 -0.4819 0.8932
5.5713 -49.8422 -0.8560 0.8182
5.8843 -49.8478 -0.8567 0.8181
6.1978 -49.8534 -0.8574 0.8179
2.7356 -20.9460 -0.3605 0.9190
2.9852 -20.8460 -0.3594 0.9192
3.2389 -20.7818 -0.3590 0.9193
3.6209 -20.7017 -0.3587 0.9194
3.7493 -20.6810 -0.3587 0.9194
3.8783 -20.6637 -0.3588 0.9193
4.1401 -20.6468 -0.3594 0.9192
4.2714 -20.6386 -0.3597 0.9191
4.4015 -20.6235 -0.3599 0.9191
4.6577 -20.5741 -0.3600 0.9191
4.7958 -20.5919 -0.3608 0.9189
7.1404 -29.0292 -0.5102 0.8873
7.3465 -29.0903 -0.5121 0.8869
7.5391 -29.0937 -0.5129 0.8867
8.3161 -29.1072 -0.5167 0.8859
9.7063 -29.1354 -0.5241 0.8844
9.9067 -29.1350 -0.5252 0.8842
10.1094 -29.1385 -0.5264 0.8839
10.5175 -29.1456 -0.5288 0.8834
11.0371 -29.4399 -0.5366 0.8818
11.5551 -29.1637 -0.5354 0.8821
11.1676 -27.6845 -0.5095 0.8874
11.9641 -29.1384 -0.5376 0.8816
12.6242 -29.1925 -0.5428 0.8805
12.8260 -29.1629 -0.5437 0.8803
13.0539 -29.1899 -0.5457 0.8799
13.4931 -29.1976 -0.5490 0.8793
14.1619 -29.2093 -0.5540 0.8782
14.3876 -29.2132 -0.5558 0.8779
14.8434 -29.2212 -0.5594 0.8771
15.0736 -29.2252 -0.5612 0.8767
15.3052 -29.2292 -0.5631 0.8763
15.5650 -29.2832 -0.5660 0.8758
15.8003 -29.2873 -0.5679 0.8754
16.4878 -29.2498 -0.5731 0.8743
16.9728 -29.2583 -0.5773 0.8734
17.2180 -29.2626 -0.5795 0.8730
30.4329 -50.2880 -1.0032 0.7905
30.8640 -50.2956 -1.0071 0.7897
31.7365 -50.3108 -1.0152 0.7882
32.1781 -50.3186 -1.0194 0.7875
32.6234 -50.3263 -1.0236 0.7867
33.0723 -50.3342 -1.0279 0.7859
34.3768 -50.2623 -1.0393 0.7838
35.8427 -50.3739 -1.0552 0.7809
36.3206 -50.3831 -1.0600 0.7800
21.6216 -29.6053 -0.6257 0.8636
21.8094 -29.4780 -0.6258 0.8636
21.9973 -29.3506 -0.6260 0.8635
22.5615 -28.9675 -0.6266 0.8634
22.7497 -28.8395 -0.6269 0.8633
23.9812 -29.6394 -0.6507 0.8585
23.9876 -29.2751 -0.6459 0.8595
24.0568 -28.2730 -0.6336 0.8620
24.3551 -28.2674 -0.6368 0.8613
24.6563 -28.2617 -0.6401 0.8607
25.2680 -28.2498 -0.6469 0.8593
26.8908 -29.6924 -0.6837 0.8519
26.9891 -29.4331 -0.6816 0.8523
27.3317 -29.4391 -0.6856 0.8515
26.9429 -27.9616 -0.6626 0.8561
29.1079 -29.4701 -0.7069 0.8473
29.8500 -29.4831 -0.7161 0.8455
31.4011 -29.5168 -0.7355 0.8416
32.1615 -29.4909 -0.7447 0.8398
32.6080 -29.5312 -0.7508 0.8386
33.4464 -29.5459 -0.7617 0.8365
33.8748 -29.5533 -0.7672 0.8354
32.9840 -28.0653 -0.7391 0.8409
33.4852 -28.1366 -0.7465 0.8395
37.5456 -29.6174 -0.8162 0.8259
38.5861 -29.6714 -0.8307 0.8231
39.0473 -29.6436 -0.8367 0.8219
39.4666 -29.5789 -0.8418 0.8209
39.4731 -29.2044 -0.8380 0.8217
39.4796 -28.8331 -0.8344 0.8224
39.6059 -28.1809 -0.8296 0.8233
32.8526 -23.0710 -0.6851 0.8516
42.3051 -28.5521 -0.8711 0.8153
42.3327 -27.0712 -0.8576 0.8179
42.3461 -26.3476 -0.8512 0.8191
42.3528 -25.9898 -0.8481 0.8197
42.7273 -24.0849 -0.8371 0.8218
43.3410 -24.0788 -0.8462 0.8201
43.9683 -24.0727 -0.8555 0.8183
44.6096 -24.0664 -0.8651 0.8165
45.2654 -24.0600 -0.8749 0.8146
45.9362 -24.0534 -0.8850 0.8127
46.6228 -24.0467 -0.8953 0.8107
47.3255 -24.0398 -0.9059 0.8087
49.5458 -24.0219 -0.9397 0.8023
50.3178 -24.0130 -0.9516 0.8001
52.7553 -23.9850 -0.9891 0.7931
53.6086 -23.9741 -1.0023 0.7906
54.4915 -23.9656 -1.0160 0.7881
55.3990 -23.9570 -1.0301 0.7855
56.3321 -23.9481 -1.0447 0.7828
59.2852 -23.9148 -1.0910 0.7743
60.3329 -23.9047 -1.1076 0.7713
61.4130 -23.8943 -1.1247 0.7683
63.3622 2.7446 -1.0824 0.7759
62.8182 4.6704 -1.0751 0.7772
64.4568 5.1932 -1.1037 0.7721
64.4646 5.5953 -1.1044 0.7719
63.4224 6.2961 -1.0878 0.7749
64.7554 6.8331 -1.1113 0.7707
64.7625 7.2391 -1.1122 0.7705
64.7696 7.6457 -1.1131 0.7703
64.7838 8.4611 -1.1151 0.7700
64.7981 9.2794 -1.1172 0.7696
61.0497 9.1282 -1.0535 0.7812
64.8125 10.1010 -1.1195 0.7692
64.8197 10.5131 -1.1207 0.7690
64.8269 10.9262 -1.1220 0.7687
64.8486 12.1712 -1.1261 0.7680
64.8559 12.5882 -1.1276 0.7677
20.1726 4.1750 -0.3516 0.9209
29.9940 6.5955 -0.5242 0.8844
29.2026 6.6110 -0.5110 0.8871
28.6854 7.0558 -0.5042 0.8885
28.5733 7.2160 -0.5030 0.8888
27.2969 7.0735 -0.4813 0.8933
27.2133 7.4122 -0.4814 0.8933
24.0520 7.0329 -0.4277 0.9046
24.1781 7.2324 -0.4307 0.9040
21.8768 6.6917 -0.3904 0.9125
21.5065 6.7241 -0.3846 0.9138
21.1463 6.8998 -0.3796 0.9149
20.9786 6.9889 -0.3774 0.9153
20.6870 7.1772 -0.3737 0.9161
18.6729 6.7383 -0.3388 0.9237
18.3162 6.7379 -0.3331 0.9249
17.9632 6.8615 -0.3282 0.9260
17.6020 7.1004 -0.3239 0.9269
16.2142 7.3717 -0.3040 0.9312
16.2368 7.5035 -0.3053 0.9309
16.2393 7.6269 -0.3062 0.9307
16.2418 7.7510 -0.3071 0.9305
16.2443 7.8759 -0.3081 0.9303
14.8468 7.3121 -0.2825 0.9359
14.6257 7.3160 -0.2791 0.9367
14.5681 7.4002 -0.2789 0.9367
14.4718 7.4641 -0.2779 0.9369
14.5130 7.5994 -0.2796 0.9366
14.5177 7.8321 -0.2815 0.9361
14.5224 8.0682 -0.2835 0.9357
13.0801 7.3731 -0.2563 0.9417
12.9542 7.5148 -0.2556 0.9418
12.9558 7.6232 -0.2566 0.9416
12.9591 7.8425 -0.2585 0.9412
11.6958 7.1772 -0.2342 0.9466
11.1097 6.9124 -0.2233 0.9490
10.9145 6.8850 -0.2202 0.9497
10.6393 6.8968 -0.2164 0.9505
10.4156 6.9362 -0.2136 0.9512
10.3344 6.9748 -0.2128 0.9513
10.2058 7.0733 -0.2119 0.9515
10.1297 7.1137 -0.2113 0.9517
10.0542 7.1538 -0.2106 0.9518
9.9791 7.1938 -0.2100 0.9520
9.6572 7.4261 -0.2079 0.9524
9.5545 7.5370 -0.2077 0.9525
9.4528 7.7455 -0.2086 0.9523
9.4187 7.8154 -0.2089 0.9522
9.3845 7.8855 -0.2092 0.9521
9.3948 7.9938 -0.2105 0.9518
9.3822 8.0836 -0.2114 0.9517
9.3694 8.1742 -0.2122 0.9515
9.3566 8.2654 -0.2131 0.9513
9.3321 8.4516 -0.2149 0.9509
9.3340 8.5589 -0.2161 0.9506
9.3359 8.6675 -0.2174 0.9503
9.3378 8.7775 -0.2187 0.9500
9.3398 8.8888 -0.2201 0.9497
9.3417 9.0014 -0.2214 0.9494
9.3437 9.1154 -0.2228 0.9491
9.3457 9.2308 -0.2242 0.9488
9.3478 9.3478 -0.2256 0.9485
9.3106 9.4265 -0.2262 0.9484
9.2992 9.5321 -0.2273 0.9481
9.3013 9.6530 -0.2288 0.9478
9.3034 9.7754 -0.2303 0.9474
9.3078 10.0255 -0.2335 0.9467
9.3100 10.1531 -0.2351 0.9464
9.3146 10.4137 -0.2385 0.9456
9.3169 10.5469 -0.2402 0.9453
9.3192 10.6820 -0.2419 0.9449
9.3820 11.3066 -0.2508 0.9429
9.3897 11.7530 -0.2567 0.9416
9.3924 11.9067 -0.2588 0.9411
9.3951 12.0628 -0.2610 0.9407
9.4036 12.5470 -0.2676 0.9392
9.4065 12.7140 -0.2699 0.9387
9.3331 13.1169 -0.2748 0.9376
9.3191 13.4462 -0.2792 0.9366
9.3223 13.6302 -0.2818 0.9361
9.3393 14.6044 -0.2959 0.9330
9.3429 14.8110 -0.2989 0.9323
4.4132 7.1917 -0.1440 0.9668
4.0276 7.0429 -0.1385 0.9681
3.7596 7.0732 -0.1367 0.9685
3.6492 7.0751 -0.1359 0.9687
3.5944 7.0761 -0.1355 0.9687
3.4322 7.0789 -0.1343 0.9690
3.3787 7.0798 -0.1339 0.9691
3.2201 7.0826 -0.1328 0.9694
3.1146 6.9646 -0.1302 0.9699
3.0668 6.9731 -0.1300 0.9700
2.9987 7.0538 -0.1308 0.9698
2.8303 7.1434 -0.1311 0.9697
2.7034 7.2109 -0.1314 0.9697
2.5417 7.4751 -0.1348 0.9689
2.5069 7.5249 -0.1354 0.9688
2.4362 7.6259 -0.1366 0.9685
2.3641 7.7288 -0.1379 0.9682
2.3275 7.7810 -0.1386 0.9680
2.2533 7.8870 -0.1400 0.9677
2.0981 7.8952 -0.1394 0.9678
2.0640 7.9651 -0.1404 0.9676
2.0240 8.4536 -0.1484 0.9658
1.9690 8.4545 -0.1482 0.9659
1.9142 8.4555 -0.1480 0.9659
1.8595 8.4564 -0.1478 0.9660
1.8050 8.4574 -0.1476 0.9660
1.5880 8.4612 -0.1469 0.9661
1.4803 8.4630 -0.1466 0.9662
1.4266 8.4640 -0.1465 0.9662
1.2083 7.4502 -0.1288 0.9703
1.2029 7.7182 -0.1333 0.9692
1.2126 8.4677 -0.1460 0.9664
1.0482 8.4314 -0.1450 0.9666
0.9000 8.5296 -0.1464 0.9663
0.7937 8.5314 -0.1462 0.9663
0.7406 8.5324 -0.1462 0.9663
0.5815 8.5351 -0.1460 0.9664
0.3699 8.5388 -0.1459 0.9664
0.3170 8.5397 -0.1458 0.9664
0.2113 8.5416 -0.1458 0.9664
0.1585 8.5425 -0.1458 0.9664
0.0000 8.5453 -0.1458 0.9664
-0.2775 7.4761 -0.1277 0.9705
-0.3680 8.4953 -0.1451 0.9666
-0.4207 8.4962 -0.1452 0.9665
-0.4734 8.4971 -0.1452 0.9665
-0.5096 7.4802 -0.1280 0.9705
-0.6817 8.4615 -0.1449 0.9666
-0.3757 4.0384 -0.0692 0.9839
-0.4061 3.8487 -0.0661 0.9846
-0.4779 3.8438 -0.0661 0.9846
-0.5001 3.8291 -0.0659 0.9847
-0.5223 3.8155 -0.0657 0.9847
-0.5459 3.8118 -0.0657 0.9847
-0.5694 3.8081 -0.0657 0.9847
-0.6443 3.8228 -0.0662 0.9846
-0.7035 3.8805 -0.0673 0.9843
-1.6091 8.5734 -0.1489 0.9657
-1.6642 8.5743 -0.1491 0.9657
-1.7195 8.5753 -0.1493 0.9656
-1.8100 8.4808 -0.1480 0.9659
-1.8657 8.4846 -0.1483 0.9658
-2.0045 8.3720 -0.1469 0.9661
-2.0970 8.5255 -0.1498 0.9655
-2.1533 8.5265 -0.1501 0.9654
-2.0021 7.5341 -0.1330 0.9693
-2.4375 8.5314 -0.1514 0.9651
-2.4949 8.5324 -0.1517 0.9651
-2.6105 8.5345 -0.1523 0.9649
-2.7857 8.5375 -0.1533 0.9647
-2.8205 8.4664 -0.1523 0.9649
-1.6011 4.1150 -0.0754 0.9825
-1.6015 3.8329 -0.0709 0.9835
-1.5891 3.6747 -0.0683 0.9841
-1.5893 3.5539 -0.0664 0.9845
-1.5894 3.4960 -0.0655 0.9848
-1.5896 3.4396 -0.0647 0.9850
-1.5897 3.3847 -0.0638 0.9852
-1.5909 3.2302 -0.0615 0.9857
-1.5917 3.1821 -0.0607 0.9859
-1.5925 3.1351 -0.0600 0.9860
-1.6084 3.1184 -0.0599 0.9861
-1.6475 3.1464 -0.0606 0.9859
-1.6726 3.1468 -0.0608 0.9858
-1.7083 3.1202 -0.0607 0.9859
-3.9375 7.0873 -0.1384 0.9681
-4.0640 7.2098 -0.1413 0.9674
-4.1836 7.2119 -0.1423 0.9672
-2.6632 4.4628 -0.0887 0.9794
-2.7663 4.4460 -0.0894 0.9793
-2.8704 4.4886 -0.0909 0.9789
-2.9101 4.4893 -0.0913 0.9788
-2.9501 4.4899 -0.0917 0.9787
-3.1138 4.4928 -0.0933 0.9784
-3.2404 4.4950 -0.0946 0.9781
-3.3268 4.4965 -0.0955 0.9779
-3.4594 4.4988 -0.0969 0.9776
-3.6426 4.5020 -0.0988 0.9771
-3.7370 4.5037 -0.0999 0.9769
-3.7693 4.4858 -0.1000 0.9768
-3.7906 4.4550 -0.0998 0.9769
-3.8881 4.4567 -0.1009 0.9766
-4.2417 4.5125 -0.1057 0.9755
-4.2955 4.5134 -0.1063 0.9754
-4.3499 4.5144 -0.1070 0.9752
-4.4050 4.5154 -0.1077 0.9751
-4.5173 4.5173 -0.1090 0.9748
-4.6912 4.5203 -0.1112 0.9743
-4.8111 4.5224 -0.1127 0.9739
-4.8750 4.5261 -0.1135 0.9737
-4.9149 4.4511 -0.1132 0.9738
-4.9039 4.3863 -0.1123 0.9740
-4.9236 4.2955 -0.1115 0.9742
-4.9245 4.2429 -0.1109 0.9743
-4.9254 4.1909 -0.1104 0.9745
-4.9263 4.1394 -0.1098 0.9746
-4.9281 4.0380 -0.1087 0.9748
-4.9289 3.9880 -0.1082 0.9750
-4.9307 3.8895 -0.1072 0.9752
-4.9179 3.7817 -0.1059 0.9755
-4.8909 3.6186 -0.1038 0.9760
-4.9932 3.6467 -0.1055 0.9756
-10.8844 7.7446 -0.2280 0.9480
-12.5272 8.4547 -0.2579 0.9413
-12.5305 8.2332 -0.2559 0.9418
-12.5321 8.1238 -0.2549 0.9420
-12.5337 8.0152 -0.2539 0.9422
-12.6708 7.7754 -0.2537 0.9423
-13.5381 8.1929 -0.2701 0.9387
-13.5841 8.1063 -0.2700 0.9387
-13.7912 7.7740 -0.2702 0.9386
-13.9388 7.6315 -0.2712 0.9384
-14.1490 7.5206 -0.2735 0.9379
-14.2596 7.4667 -0.2747 0.9376
-14.3075 7.3794 -0.2748 0.9376
-14.8337 7.1920 -0.2814 0.9362
-15.0428 7.1789 -0.2845 0.9355
-15.4311 7.2473 -0.2910 0.9341
-52.2243 24.1345 -0.9819 0.7944
-52.2203 23.7418 -0.9790 0.7949
-17.6589 7.5072 -0.3275 0.9261
-52.1895 20.6782 -0.9581 0.7989
-52.1819 19.9321 -0.9534 0.7997
-52.1706 18.8263 -0.9466 0.8010
-52.1632 18.0977 -0.9423 0.8018
-52.1595 17.7358 -0.9403 0.8022
-52.1559 17.3754 -0.9382 0.8026
-52.1450 16.3035 -0.9324 0.8037
-52.1414 15.9491 -0.9306 0.8040
-52.1236 14.1971 -0.9220 0.8056
-52.1096 12.8176 -0.9159 0.8068
-52.1027 12.1345 -0.9130 0.8073
-52.0957 11.4555 -0.9104 0.8078
-52.0923 11.1175 -0.9091 0.8081
-52.0889 10.7804 -0.9078 0.8083
-52.0748 9.4407 -0.9033 0.8092
-52.0714 9.1079 -0.9022 0.8094
-52.0680 8.7757 -0.9012 0.8096
-52.0579 7.7838 -0.8984 0.8101
-52.0546 7.4545 -0.8975 0.8103
-52.0446 6.4702 -0.8951 0.8107
-52.0346 5.4907 -0.8930 0.8111
-52.0216 4.1913 -0.8907 0.8116
-52.0183 3.8674 -0.8903 0.8117
-52.0085 2.8976 -0.8890 0.8119
-52.0052 2.5750 -0.8887 0.8120
-51.9921 1.2864 -0.8876 0.8122
-51.9888 0.9646 -0.8874 0.8122
-51.9855 0.6429 -0.8873 0.8122
-46.9082 0.0000 -1.1490 0.8289
-51.9724 -0.6429 -1.2732 0.8122
-51.9660 -1.2858 -1.2733 0.8122
-51.9628 -1.6073 -1.2734 0.8122
-51.9562 -2.2506 -1.2739 0.8121
-51.3662 -2.8619 -1.2602 0.8140
-50.8559 -3.7810 -1.2491 0.8154
-50.6878 -4.0838 -1.2456 0.8159
-50.5206 -4.3850 -1.2421 0.8164
-48.3651 -4.4995 -1.1898 0.8234
-48.2065 -4.7856 -1.1866 0.8238
-47.8918 -5.3533 -1.1804 0.8246
-47.7357 -5.6349 -1.1774 0.8250
-47.5804 -5.9152 -1.1744 0.8254
-47.4258 -6.1940 -1.1716 0.8258
-47.1189 -6.7477 -1.1659 0.8266
-46.9666 -7.0225 -1.1632 0.8269
-47.5687 -7.7152 -1.1804 0.8246
-48.3521 -8.1495 -1.2011 0.8219
-47.9622 -9.3093 -1.1968 0.8224
-47.8085 -9.5866 -1.1944 0.8228
-47.5051 -9.8317 -1.1883 0.8236
-47.3509 -10.4121 -1.1876 0.8237
-47.1995 -10.6853 -1.1854 0.8240
-46.8983 -11.2287 -1.1812 0.8245
-44.1567 -12.3209 -1.1229 0.8324
-43.3159 -13.8377 -1.1138 0.8336
-39.5199 -12.8949 -1.0183 0.8468
-38.8795 -12.9525 -1.0038 0.8488
-38.0818 -12.9489 -0.9853 0.8513
-36.5660 -12.9402 -0.9501 0.8562
-36.5705 -13.1968 -0.9523 0.8559
-36.6790 -14.5328 -0.9664 0.8540
-36.6883 -15.0640 -0.9715 0.8533
-36.7119 -16.4178 -0.9851 0.8514
-36.7313 -17.5293 -0.9969 0.8497
-36.6644 -18.0574 -1.0011 0.8491
-36.6602 -18.3379 -1.0041 0.8487
-32.6670 -16.8488 -0.9003 0.8632
-36.7757 -19.5475 -1.0202 0.8465
-36.7860 -20.1404 -1.0273 0.8455
-36.7965 -20.7418 -1.0347 0.8445
-36.8072 -21.3519 -1.0423 0.8434
-36.8125 -21.6604 -1.0462 0.8429
-36.8289 -22.6002 -1.0584 0.8412
-36.8345 -22.9184 -1.0626 0.8406
-36.7547 -23.1852 -1.0645 0.8404
-36.8580 -24.5454 -1.0847 0.8376
-36.8639 -24.8797 -1.0894 0.8370
-36.8757 -25.5572 -1.0990 0.8357
-36.8817 -25.9004 -1.1039 0.8350
-36.8938 -26.5963 -1.1141 0.8336
-36.9188 -28.0277 -1.1354 0.8307
-36.9252 -28.3942 -1.1410 0.8300
-36.8361 -28.6899 -1.1437 0.8296
-36.9356 -29.5086 -1.1580 0.8277
-36.9490 -30.2755 -1.1701 0.8260
-33.2763 -27.6118 -1.0592 0.8411
-32.6586 -27.7885 -1.0504 0.8423
-32.2604 -27.7954 -1.0431 0.8433
-31.8677 -27.8023 -1.0359 0.8443
-31.0981 -27.8157 -1.0220 0.8462
-30.3488 -27.8288 -1.0086 0.8481
-29.9815 -27.8352 -1.0021 0.8490
-29.6188 -27.8415 -0.9957 0.8499
-29.2608 -27.8478 -0.9895 0.8508
-28.9071 -27.8539 -0.9833 0.8516
-27.3741 -27.7149 -0.9542 0.8557
-26.8733 -27.8895 -0.9487 0.8564
-26.2265 -27.9007 -0.9380 0.8579
-25.9086 -27.9063 -0.9327 0.8587
-25.2830 -27.9172 -0.9226 0.8601
-24.9753 -27.9226 -0.9176 0.8608
-24.0715 -27.9384 -0.9033 0.8628
-22.4930 -27.8001 -0.8759 0.8667
-22.0585 -28.3218 -0.8793 0.8662
-21.2687 -27.6589 -0.8546 0.8697
-20.4738 -27.6727 -0.8432 0.8713
-19.9554 -27.6818 -0.8359 0.8724
-19.6299 -28.7009 -0.8517 0.8701
-22.1367 -32.7995 -0.9693 0.8536
-22.1446 -33.2529 -0.9786 0.8523
-22.1527 -33.7151 -0.9882 0.8509
-31.8436 -49.1234 -1.4340 0.7912
-31.0499 -49.2224 -1.4255 0.7923
-16.5914 -27.4161 -0.7850 0.8797
-16.1811 -27.5003 -0.7816 0.8801
-15.8427 -27.7036 -0.7817 0.8801
-15.3348 -28.0088 -0.7822 0.8801
-15.1654 -28.1106 -0.7824 0.8800
-14.2639 -27.2406 -0.7532 0.8842
-25.4288 -49.3024 -1.3588 0.8009
-25.0474 -49.3091 -1.3547 0.8015
-14.3618 -28.7114 -0.7864 0.8795
-12.8736 -28.7868 -0.7724 0.8815
-12.6622 -28.7905 -0.7704 0.8818
-11.6012 -28.7596 -0.7596 0.8833
-10.7822 -28.7599 -0.7523 0.8844
-10.3858 -28.7808 -0.7495 0.8848
-9.9877 -28.7877 -0.7464 0.8852
-9.4009 -28.8118 -0.7424 0.8858
-9.2014 -28.8032 -0.7407 0.8860
-8.4257 -28.8150 -0.7354 0.8868
-8.2381 -29.5243 -0.7508 0.8846
-7.8511 -28.8250 -0.7318 0.8873
-7.6609 -28.8283 -0.7307 0.8875
-6.9058 -28.8433 -0.7265 0.8881
-6.7210 -28.8582 -0.7258 0.8882
-6.3472 -28.8648 -0.7239 0.8885
-6.1584 -28.8560 -0.7227 0.8886
-5.7872 -28.8610 -0.7210 0.8889
-5.6024 -28.8643 -0.7202 0.8890
-5.4180 -28.8675 -0.7195 0.8891
-5.0503 -28.8739 -0.7180 0.8893
-4.6841 -28.8803 -0.7167 0.8895
-4.5015 -28.8835 -0.7160 0.8896
-4.3106 -28.8293 -0.7140 0.8899
-4.1371 -28.8898 -0.7149 0.8898
-3.9554 -28.8930 -0.7143 0.8899
-3.7740 -28.8962 -0.7138 0.8899
-3.5858 -28.8434 -0.7119 0.8902
-3.4176 -28.9519 -0.7141 0.8899
-3.2365 -28.9550 -0.7137 0.8900
-2.5100 -28.9182 -0.7110 0.8903
-1.7003 -27.4599 -0.6739 0.8958
-1.6699 -29.9712 -0.7353 0.8868
-2.4613 -49.7081 -1.2191 0.8194
-2.1534 -49.7138 -1.2189 0.8195
-1.2284 -49.6474 -1.2165 0.8198
-0.3076 -49.7543 -1.2187 0.8195
0.0001 -49.7593 -1.2188 0.8195
0.9236 -49.7743 -1.2194 0.8194
1.1497 -46.4687 -1.1386 0.8303
1.4375 -46.4737 -1.1389 0.8302
1.7254 -46.4788 -1.1393 0.8302
2.0135 -46.4838 -1.1397 0.8301
1.3891 -28.0544 -0.6880 0.8937
1.5632 -28.0574 -0.6883 0.8937
1.7375 -28.0604 -0.6887 0.8936
1.8898 -20.3137 -0.4997 0.9216
2.0160 -20.3079 -0.4999 0.9216
2.2694 -20.3030 -0.5004 0.9215
2.3963 -20.2997 -0.5007 0.9215
2.5234 -20.2979 -0.5010 0.9214
2.6506 -20.2950 -0.5013 0.9214
2.7783 -20.2946 -0.5018 0.9213
3.0345 -20.2946 -0.5026 0.9212
3.2915 -20.2942 -0.5036 0.9210
3.4204 -20.2937 -0.5041 0.9210
4.1994 -20.2907 -0.5076 0.9204
4.3303 -20.2902 -0.5082 0.9203
4.5934 -20.2900 -0.5096 0.9201
7.1404 -29.0292 -0.7323 0.8873
7.5391 -29.0937 -0.7362 0.8867
7.9262 -29.1004 -0.7388 0.8863
7.7277 -27.6950 -0.7043 0.8913
8.5121 -29.1106 -0.7429 0.8857
8.7089 -29.1141 -0.7444 0.8855
9.1095 -29.1357 -0.7477 0.8850
9.5089 -29.1427 -0.7509 0.8846
9.7063 -29.1354 -0.7522 0.8844
10.5175 -29.1456 -0.7590 0.8834
11.0371 -29.4399 -0.7701 0.8818
11.5551 -29.1637 -0.7684 0.8820
11.9641 -29.1384 -0.7716 0.8816
12.1967 -29.1898 -0.7749 0.8811
12.8260 -29.1629 -0.7803 0.8803
9.2871 -20.7670 -0.5572 0.9130
9.3560 -20.2453 -0.5463 0.9146
9.3850 -19.9826 -0.5408 0.9155
9.4477 -19.7970 -0.5373 0.9160
9.5931 -19.7859 -0.5386 0.9158
9.9206 -19.8328 -0.5432 0.9151
15.3052 -29.2292 -0.8082 0.8763
15.5650 -29.2832 -0.8123 0.8757
16.0371 -29.2914 -0.8180 0.8749
16.2165 -29.1891 -0.8179 0.8749
16.7294 -29.2541 -0.8255 0.8739
16.9728 -29.2583 -0.8285 0.8734
17.1108 -29.0803 -0.8265 0.8737
30.0047 -50.2798 -1.4342 0.7911
30.4325 -50.2873 -1.4398 0.7904
31.7361 -50.3101 -1.4570 0.7882
33.0719 -50.3335 -1.4752 0.7859
33.5246 -50.3414 -1.4815 0.7851
34.3772 -50.2629 -1.4916 0.7838
35.8431 -50.3745 -1.5144 0.7808
21.2663 -29.1187 -0.8832 0.8657
21.4512 -28.9938 -0.8834 0.8656
21.8214 -28.7437 -0.8840 0.8655
22.1920 -28.4931 -0.8846 0.8654
26.8230 -33.5741 -1.0526 0.8420
23.9796 -29.6373 -0.9338 0.8585
23.9860 -29.2731 -0.9270 0.8595
23.7107 -28.5749 -0.9095 0.8619
23.7228 -27.8804 -0.8967 0.8637
24.1600 -27.6928 -0.9002 0.8633
24.4680 -27.6982 -0.9053 0.8625
24.7795 -27.7036 -0.9104 0.8618
25.0946 -27.7091 -0.9157 0.8611
26.9891 -29.4331 -0.9782 0.8523
28.0291 -29.4513 -0.9959 0.8499
26.9429 -27.9616 -0.9512 0.8561
28.3576 -28.0090 -0.9763 0.8526
30.2283 -29.4897 -1.0344 0.8445
30.1766 -28.0163 -1.0086 0.8481
33.4464 -29.5459 -1.0931 0.8365
33.8748 -29.5533 -1.1012 0.8354
34.3095 -29.5609 -1.1093 0.8343
33.4852 -28.1366 -1.0713 0.8395
29.4040 -24.3987 -0.9359 0.8582
36.5846 -29.6006 -1.1527 0.8284
37.0613 -29.6090 -1.1620 0.8271
37.5456 -29.6174 -1.1714 0.8258
38.0380 -29.6260 -1.1810 0.8246
37.1088 -28.1720 -1.1412 0.8299
42.2630 -31.2685 -1.2878 0.8103
39.1139 -28.1968 -1.1811 0.8245
29.4795 -19.8959 -0.8712 0.8674
30.5617 -19.8112 -0.8921 0.8644
42.3333 -27.0716 -1.2308 0.8179
42.3467 -26.3480 -1.2217 0.8191
42.3534 -25.9902 -1.2172 0.8197
42.3665 -25.2823 -1.2085 0.8209
42.3731 -24.9321 -1.2043 0.8214
43.3413 -24.0790 -1.2145 0.8201
45.2656 -24.0602 -1.2557 0.8146
46.6230 -24.0469 -1.2850 0.8107
47.3258 -24.0400 -1.3002 0.8086
48.7935 -24.0310 -1.3323 0.8044
51.1105 -24.0044 -1.3831 0.7978
54.4908 -23.9654 -1.4581 0.7881
55.3983 -23.9567 -1.4784 0.7855
57.2913 -23.9386 -1.5209 0.7800
58.2793 -23.9292 -1.5432 0.7772
59.2866 -23.9154 -1.5659 0.7743
62.5285 -23.8842 -1.6396 0.7650
63.3622 2.7446 -1.5535 0.7759
66.4312 4.5261 -1.6310 0.7661
62.8182 4.6704 -1.5430 0.7772
63.8701 5.1460 -1.5696 0.7738
63.8856 5.9433 -1.5716 0.7736
63.5224 6.3060 -1.5635 0.7746
64.7554 6.8331 -1.5950 0.7706
64.7696 7.6457 -1.5975 0.7703
64.7838 8.4611 -1.6004 0.7700
64.7910 8.8698 -1.6019 0.7698
64.7981 9.2794 -1.6034 0.7696
60.9512 9.1135 -1.5096 0.7815
64.8125 10.1010 -1.6067 0.7692
64.8269 10.9262 -1.6103 0.7687
64.8559 12.5882 -1.6183 0.7677
20.2149 4.0535 -0.5050 0.9208
20.1718 4.1748 -0.5046 0.9209
29.9940 6.5955 -0.7523 0.8844
27.2032 6.8700 -0.6873 0.8938
24.0464 6.7096 -0.6115 0.9049
23.9260 7.1570 -0.6117 0.9049
21.3134 6.8087 -0.5481 0.9144
18.9775 6.8482 -0.4942 0.9224
18.7865 6.9109 -0.4903 0.9230
17.9479 6.9831 -0.4717 0.9258
17.8098 7.0565 -0.4692 0.9262
17.6504 7.1199 -0.4662 0.9267
16.4708 7.3659 -0.4420 0.9304
16.2137 7.3715 -0.4363 0.9312
16.2368 7.5035 -0.4381 0.9309
14.8084 7.0670 -0.4019 0.9365
14.5678 7.4000 -0.4002 0.9367
14.4717 7.4641 -0.3989 0.9369
14.5130 7.5994 -0.4013 0.9366
14.5176 7.8321 -0.4041 0.9361
14.5200 7.9497 -0.4055 0.9359
14.5224 8.0681 -0.4069 0.9357
12.9870 7.4268 -0.3665 0.9419
12.9947 7.6461 -0.3693 0.9415
10.4677 6.8779 -0.3068 0.9511
10.3573 6.8974 -0.3048 0.9514
10.2653 6.9281 -0.3034 0.9517
10.1890 6.9687 -0.3024 0.9518
10.1131 7.0090 -0.3014 0.9520
10.0378 7.0491 -0.3004 0.9521
9.8291 7.1784 -0.2981 0.9525
9.7763 7.2331 -0.2979 0.9525
9.6711 7.3420 -0.2974 0.9526
9.4482 7.6445 -0.2977 0.9525
9.4143 7.7139 -0.2981 0.9525
9.3803 7.7836 -0.2986 0.9524
9.2796 8.0958 -0.3016 0.9519
9.2419 8.3698 -0.3054 0.9513
9.2322 8.4656 -0.3068 0.9511
9.2458 9.2458 -0.3203 0.9490
9.2499 9.4816 -0.3245 0.9484
9.2563 9.8472 -0.3310 0.9474
9.3629 10.2107 -0.3393 0.9461
9.3721 10.7426 -0.3492 0.9446
9.3745 10.8804 -0.3518 0.9442
9.3820 11.3067 -0.3599 0.9429
9.3845 11.4531 -0.3627 0.9425
9.3898 11.7531 -0.3685 0.9416
9.3925 11.9067 -0.3715 0.9411
9.3952 12.0628 -0.3745 0.9407
9.4095 12.8839 -0.3908 0.9382
9.4125 13.0568 -0.3943 0.9376
9.4156 13.2329 -0.3978 0.9371
9.4187 13.4121 -0.4014 0.9365
9.4251 13.7805 -0.4090 0.9354
9.4285 13.9700 -0.4128 0.9348
9.4353 14.3599 -0.4209 0.9336
9.4388 14.5607 -0.4250 0.9329
9.4423 14.7654 -0.4293 0.9323
4.3604 7.2052 -0.2063 0.9669
4.1909 7.1225 -0.2024 0.9675
3.8590 6.9460 -0.1946 0.9687
3.6785 6.9206 -0.1920 0.9691
3.6195 6.9123 -0.1911 0.9693
3.5609 6.9041 -0.1903 0.9694
3.5030 6.8961 -0.1895 0.9695
3.4539 6.9048 -0.1891 0.9696
3.4049 6.9134 -0.1888 0.9696
3.3561 6.9220 -0.1884 0.9697
3.3075 6.9306 -0.1881 0.9697
3.2107 6.9477 -0.1875 0.9698
3.1626 6.9562 -0.1872 0.9699
3.0668 6.9731 -0.1866 0.9700
3.0407 7.0315 -0.1877 0.9698
2.9146 7.0986 -0.1880 0.9698
2.8725 7.1209 -0.1881 0.9697
2.8303 7.1434 -0.1882 0.9697
2.6609 7.2334 -0.1888 0.9696
2.6075 7.2258 -0.1882 0.9697
2.5638 7.2446 -0.1882 0.9697
2.5268 7.2830 -0.1888 0.9696
2.4895 7.3215 -0.1894 0.9695
2.4143 7.3994 -0.1907 0.9693
2.3764 7.4387 -0.1913 0.9692
2.3382 7.4783 -0.1919 0.9691
2.2615 7.5602 -0.1933 0.9689
2.2297 7.6254 -0.1946 0.9687
2.1975 7.6914 -0.1959 0.9685
2.1317 7.8263 -0.1987 0.9681
2.0733 8.2097 -0.2074 0.9667
1.9142 8.4555 -0.2124 0.9659
1.8050 8.4574 -0.2118 0.9660
1.7505 8.4583 -0.2116 0.9660
1.6963 8.4593 -0.2113 0.9661
1.6421 8.4602 -0.2111 0.9661
1.5880 8.4612 -0.2109 0.9661
1.5341 8.4621 -0.2107 0.9662
1.1386 7.6149 -0.1886 0.9697
1.0870 8.3230 -0.2056 0.9670
1.0482 8.4314 -0.2081 0.9666
0.9000 8.5296 -0.2101 0.9663
0.8468 8.5305 -0.2100 0.9663
0.7938 8.5330 -0.2099 0.9663
0.7406 8.5324 -0.2098 0.9663
0.6875 8.5333 -0.2097 0.9663
0.6345 8.5342 -0.2096 0.9663
0.5815 8.5351 -0.2096 0.9663
0.4227 8.5379 -0.2094 0.9664
0.3170 8.5397 -0.2093 0.9664
0.1585 8.5425 -0.2093 0.9664
0.1057 8.5434 -0.2093 0.9664
0.0000 8.5453 -0.2093 0.9664
-0.1443 7.7766 -0.1905 0.9694
-0.2375 7.6799 -0.1882 0.9697
-0.2775 7.4761 -0.1833 0.9705
-0.4281 7.6833 -0.1885 0.9697
-0.4755 7.6788 -0.1885 0.9697
-0.6175 7.6640 -0.1883 0.9697
-0.7343 8.4597 -0.2080 0.9666
-0.3757 4.0384 -0.0993 0.9839
-0.3820 3.8482 -0.0947 0.9846
-0.4061 3.8486 -0.0948 0.9846
-0.4302 3.8491 -0.0949 0.9846
-0.4544 3.8495 -0.0949 0.9846
-0.4778 3.8436 -0.0949 0.9846
-0.5001 3.8290 -0.0946 0.9847
-0.5937 3.8096 -0.0944 0.9847
-0.6187 3.8147 -0.0947 0.9847
-0.6443 3.8226 -0.0950 0.9846
-0.6722 3.8429 -0.0956 0.9845
-1.6091 8.5734 -0.2137 0.9657
-1.6642 8.5743 -0.2139 0.9657
-1.7195 8.5753 -0.2142 0.9656
-1.7544 8.4770 -0.2120 0.9660
-1.8664 8.0138 -0.2015 0.9676
-1.8723 7.6119 -0.1920 0.9691
-1.9164 7.5883 -0.1917 0.9692
-1.9665 7.5889 -0.1920 0.9691
-2.0021 7.5341 -0.1910 0.9693
-2.5526 8.5334 -0.2182 0.9650
-2.6687 8.5355 -0.2191 0.9649
-2.7857 8.5375 -0.2200 0.9647
-2.8205 8.4664 -0.2186 0.9649
-2.8404 8.3536 -0.2161 0.9653
-1.5684 4.5205 -0.1172 0.9810
-1.5698 4.4360 -0.1153 0.9813
-1.5746 4.2803 -0.1117 0.9819
-1.6001 4.2681 -0.1117 0.9819
-1.6169 4.2330 -0.1110 0.9820
-1.6182 4.1590 -0.1093 0.9823
-1.6206 4.0176 -0.1061 0.9828
-1.6230 3.8842 -0.1031 0.9833
-1.6241 3.8203 -0.1017 0.9835
-1.6252 3.7581 -0.1003 0.9838
-1.6262 3.6976 -0.0989 0.9840
-1.6273 3.6387 -0.0976 0.9842
-1.6292 3.5255 -0.0951 0.9846
-1.6302 3.4710 -0.0939 0.9848
-1.5843 3.3198 -0.0901 0.9854
-1.5970 3.2939 -0.0897 0.9855
-1.5917 3.1821 -0.0872 0.9859
-1.5925 3.1351 -0.0861 0.9860
-1.6084 3.1184 -0.0860 0.9861
-1.6475 3.1464 -0.0870 0.9859
-1.6726 3.1468 -0.0873 0.9858
-3.9375 7.0873 -0.1986 0.9681
-3.9908 7.0798 -0.1991 0.9680
-2.6621 4.5243 -0.1286 0.9792
-2.6632 4.4628 -0.1273 0.9794
-2.6843 4.4356 -0.1270 0.9795
-2.8310 4.4879 -0.1300 0.9790
-3.1556 4.4935 -0.1345 0.9783
-3.1978 4.4943 -0.1351 0.9782
-3.2404 4.4950 -0.1357 0.9781
-3.3268 4.4965 -0.1370 0.9779
-3.3706 4.4973 -0.1377 0.9778
-3.4148 4.4981 -0.1383 0.9777
-3.4594 4.4988 -0.1390 0.9775
-3.8630 4.4835 -0.1450 0.9766
-3.8881 4.4567 -0.1449 0.9766
-4.0842 4.5097 -0.1490 0.9759
-4.2417 4.5125 -0.1517 0.9755
-4.3499 4.5144 -0.1536 0.9752
-4.4050 4.5154 -0.1545 0.9751
-4.4608 4.5163 -0.1555 0.9749
-4.6325 4.5193 -0.1585 0.9744
-4.6912 4.5203 -0.1596 0.9743
-4.8111 4.5224 -0.1617 0.9739
-4.8750 4.5261 -0.1629 0.9737
-4.9720 4.5029 -0.1643 0.9735
-4.9272 4.0884 -0.1568 0.9747
-4.9289 3.9880 -0.1553 0.9750
-4.9307 3.8895 -0.1538 0.9752
-4.9112 3.8251 -0.1525 0.9754
-4.8893 3.7118 -0.1504 0.9757
-4.8909 3.6186 -0.1490 0.9760
-4.9932 3.6467 -0.1515 0.9756
-10.8114 7.7938 -0.3265 0.9481
-10.8842 7.7445 -0.3272 0.9480
-11.1812 7.7493 -0.3332 0.9470
-12.5669 8.3689 -0.3698 0.9414
-12.5734 7.9314 -0.3641 0.9423
-12.5369 7.8004 -0.3617 0.9426
-12.6705 7.7753 -0.3641 0.9423
-13.5381 8.1929 -0.3876 0.9386
-13.6760 7.9335 -0.3873 0.9387
-13.7219 7.8471 -0.3872 0.9387
-13.7912 7.7740 -0.3878 0.9386
-13.9388 7.6315 -0.3893 0.9384
-14.0129 7.5598 -0.3900 0.9383
-14.1490 7.5206 -0.3925 0.9379
-14.2596 7.4667 -0.3943 0.9376
-14.4838 7.3573 -0.3979 0.9371
-14.5542 7.2802 -0.3986 0.9370
-14.7314 7.2553 -0.4022 0.9364
-15.2062 7.2568 -0.4127 0.9348
-52.2283 24.5294 -1.4134 0.7938
-52.2243 24.1345 -1.4092 0.7944
-52.2203 23.7418 -1.4051 0.7949
-17.6166 7.6182 -0.4701 0.9261
-17.7363 7.5401 -0.4721 0.9258
-52.2007 21.8116 -1.3858 0.7974
-52.1968 21.4318 -1.3821 0.7979
-52.1929 21.0539 -1.3786 0.7984
-52.1744 19.1932 -1.3617 0.8006
-52.1559 17.3754 -1.3466 0.8025
-52.1522 17.0166 -1.3437 0.8029
-52.1486 16.6593 -1.3410 0.8033
-52.1450 16.3035 -1.3383 0.8036
-52.1378 15.5960 -1.3330 0.8043
-52.1201 13.8504 -1.3210 0.8059
-52.1131 13.1607 -1.3166 0.8065
-52.1061 12.4755 -1.3124 0.8070
-52.0992 11.7945 -1.3085 0.8076
-52.0957 11.4555 -1.3066 0.8078
-52.0889 10.7804 -1.3030 0.8083
-52.0821 10.1089 -1.2996 0.8087
-52.0782 9.7743 -1.2979 0.8090
-52.0680 8.7757 -1.2934 0.8096
-52.0646 8.4444 -1.2920 0.8097
-52.0579 7.7838 -1.2893 0.8101
-52.0546 7.4545 -1.2881 0.8103
-52.0512 7.1257 -1.2869 0.8104
-52.0479 6.7977 -1.2857 0.8106
-52.0313 5.1653 -1.2808 0.8112
-52.0216 4.1913 -1.2784 0.8115
-52.0085 2.8976 -1.2759 0.8119
-51.9888 0.9646 -1.2737 0.8122
-51.9855 0.6430 -1.2735 0.8122
-51.9823 0.3214 -1.2733 0.8122
-46.8352 -0.2896 -1.4953 0.8291
-51.9661 -1.2858 -1.6595 0.8122
-51.9628 -1.6073 -1.6597 0.8122
-51.9595 -1.9289 -1.6600 0.8121
-49.5006 -2.4510 -1.5823 0.8201
-49.1715 -3.0448 -1.5728 0.8211
-49.0084 -3.3390 -1.5682 0.8215
-48.8462 -3.6316 -1.5637 0.8220
-48.5246 -4.2118 -1.5550 0.8229
-48.0488 -5.0702 -1.5425 0.8242
-47.8918 -5.3533 -1.5385 0.8246
-47.7357 -5.6349 -1.5346 0.8250
-47.5804 -5.9152 -1.5307 0.8254
-47.4258 -6.1940 -1.5269 0.8258
-47.2720 -6.4715 -1.5233 0.8262
-47.1189 -6.7477 -1.5196 0.8265
-46.9666 -7.0226 -1.5161 0.8269
-47.5687 -7.7152 -1.5385 0.8246
-48.1194 -8.7236 -1.5613 0.8222
-47.9649 -9.0023 -1.5580 0.8226
-47.5051 -9.8318 -1.5488 0.8235
-47.2016 -10.3793 -1.5429 0.8241
-46.9003 -10.9229 -1.5374 0.8247
-46.7505 -11.1933 -1.5347 0.8250
-44.6133 -11.2668 -1.4690 0.8318
-44.4708 -11.5238 -1.4666 0.8321
-44.1567 -12.3209 -1.4636 0.8324
-43.8749 -12.8293 -1.4594 0.8328
-43.7346 -13.0824 -1.4574 0.8330
-43.3469 -13.5527 -1.4499 0.8338
-43.3159 -13.8377 -1.4517 0.8336
-39.5199 -12.8949 -1.3272 0.8467
-36.3263 -12.6032 -1.2276 0.8574
-36.5660 -12.9402 -1.2383 0.8562
-36.6653 -13.7459 -1.2501 0.8550
-36.6699 -14.0069 -1.2532 0.8546
-36.6837 -14.7977 -1.2628 0.8536
-36.6883 -15.0640 -1.2662 0.8532
-36.6930 -15.3318 -1.2696 0.8529
-36.6977 -15.6011 -1.2731 0.8525
-36.7072 -16.1440 -1.2802 0.8517
-36.7119 -16.4178 -1.2839 0.8513
-36.7167 -16.6932 -1.2877 0.8509
-36.7216 -16.9702 -1.2915 0.8505
-36.7264 -17.2489 -1.2954 0.8501
-36.7313 -17.5293 -1.2994 0.8497
-36.7363 -17.8114 -1.3034 0.8493
-36.6644 -18.0574 -1.3048 0.8491
-36.6652 -18.6248 -1.3129 0.8482
-32.6657 -16.8481 -1.1734 0.8632
-36.7705 -19.2541 -1.3251 0.8470
-36.7808 -19.8429 -1.3342 0.8460
-36.7860 -20.1404 -1.3389 0.8455
-36.7912 -20.4400 -1.3437 0.8450
-36.7965 -20.7418 -1.3485 0.8445
-36.8072 -21.3520 -1.3585 0.8434
-36.8180 -21.9712 -1.3688 0.8423
-36.8345 -22.9184 -1.3850 0.8406
-36.7547 -23.1852 -1.3874 0.8404
-36.7546 -23.5041 -1.3928 0.8398
-36.8522 -24.2139 -1.4078 0.8382
-36.8757 -25.5572 -1.4324 0.8356
-36.8817 -25.9004 -1.4388 0.8350
-36.8877 -26.2468 -1.4453 0.8343
-36.9000 -26.9491 -1.4588 0.8329
-36.9062 -27.3052 -1.4657 0.8322
-36.9125 -27.6647 -1.4727 0.8314
-36.8361 -28.6899 -1.4906 0.8296
-36.9291 -29.1310 -1.5016 0.8284
-36.9356 -29.5086 -1.5093 0.8276
-36.9423 -29.8901 -1.5171 0.8268
-32.9372 -27.6762 -1.3734 0.8418
-32.6586 -27.7885 -1.3690 0.8423
-32.2604 -27.7954 -1.3595 0.8433
-31.8676 -27.8023 -1.3502 0.8443
-31.4803 -27.8090 -1.3410 0.8453
-30.7210 -27.8223 -1.3232 0.8472
-30.3488 -27.8288 -1.3146 0.8481
-29.9815 -27.8352 -1.3061 0.8490
-29.2608 -27.8478 -1.2896 0.8507
-28.9071 -27.8539 -1.2816 0.8516
-27.7325 -27.7325 -1.2521 0.8547
-27.1388 -27.8186 -1.2408 0.8560
-26.5481 -27.8951 -1.2294 0.8572
-25.2830 -27.9172 -1.2025 0.8601
-24.9753 -27.9226 -1.1960 0.8608
-24.6709 -27.9279 -1.1897 0.8615
-24.3696 -27.9332 -1.1835 0.8621
-23.4844 -27.9486 -1.1654 0.8641
-22.7749 -27.7951 -1.1472 0.8661
-22.0688 -27.9765 -1.1375 0.8671
-22.0585 -28.3218 -1.1461 0.8662
-19.6246 -28.3158 -1.0999 0.8712
-19.6314 -28.7031 -1.1102 0.8701
-22.1367 -32.7995 -1.2633 0.8535
-22.1446 -33.2529 -1.2755 0.8522
-22.1527 -33.7151 -1.2879 0.8509
-31.8437 -49.1236 -1.8690 0.7911
-31.0495 -49.2218 -1.8580 0.7922
-16.1652 -27.4732 -1.0177 0.8802
-15.9962 -27.5748 -1.0177 0.8802
-15.8272 -27.6764 -1.0179 0.8802
-15.4889 -27.8796 -1.0182 0.8802
-15.3198 -27.9812 -1.0184 0.8801
-14.2639 -27.2406 -0.9817 0.8842
-13.8592 -27.2836 -0.9770 0.8847
-13.2280 -27.2831 -0.9680 0.8857
-13.7073 -28.7228 -1.0161 0.8804
-12.2091 -27.3009 -0.9548 0.8872
-12.6406 -28.7414 -1.0024 0.8819
-11.6012 -28.7596 -0.9900 0.8833
-11.3964 -28.7631 -0.9877 0.8835
-11.1924 -28.7667 -0.9855 0.8838
-10.1864 -28.7843 -0.9748 0.8850
-9.9885 -28.7899 -0.9729 0.8852
-9.5988 -28.8129 -0.9696 0.8856
-9.4024 -28.8163 -0.9677 0.8858
-8.2429 -27.5560 -0.9183 0.8913
-7.7939 -27.2794 -0.9058 0.8927
-7.6609 -28.8283 -0.9523 0.8875
-7.2820 -28.8349 -0.9495 0.8878
-6.5348 -28.8660 -0.9449 0.8883
-5.6024 -28.8643 -0.9387 0.8890
-5.4180 -28.8675 -0.9377 0.8891
-4.2733 -27.4194 -0.8859 0.8949
-4.1002 -27.4224 -0.8852 0.8950
-3.9274 -27.4254 -0.8845 0.8950
-3.7549 -27.4285 -0.8838 0.8951
-3.5827 -27.4315 -0.8832 0.8952
-3.4106 -27.4345 -0.8826 0.8953
-3.2388 -27.4375 -0.8820 0.8953
-2.8959 -27.4435 -0.8810 0.8954
-2.7247 -27.4464 -0.8805 0.8955
-2.0415 -27.4584 -0.8790 0.8957
-1.8710 -27.4613 -0.8787 0.8957
-1.7004 -27.4599 -0.8783 0.8957
-1.6698 -29.9712 -0.9583 0.8868
-2.4613 -49.7086 -1.5889 0.8194
-1.8458 -49.7200 -1.5884 0.8195
-1.5357 -49.6512 -1.5859 0.8197
