ply
format ascii 1.0
element vertex 1537
property float32 x
property float32 y
property float32 z
property float32 I
end_header
9.3951 12.0628 -0.2610 0.9407
9.3979 12.2215 -0.2631 0.9402
9.4007 12.3829 -0.2653 0.9397
9.4125 13.0568 -0.2747 0.9376
9.3191 13.4462 -0.2792 0.9366
9.3256 13.8175 -0.2845 0.9355
9.3358 14.4018 -0.2929 0.9336
9.3429 14.8110 -0.2989 0.9323
4.8883 7.8565 -0.1579 0.9637
4.3604 7.2052 -0.1437 0.9669
4.2748 7.1635 -0.1424 0.9672
4.1909 7.1225 -0.1410 0.9675
4.1085 7.0823 -0.1397 0.9678
3.8154 7.0722 -0.1371 0.9684
3.5944 7.0761 -0.1355 0.9687
3.4821 7.0701 -0.1345 0.9690
3.4322 7.0789 -0.1343 0.9690
3.3255 7.0808 -0.1335 0.9692
3.2727 7.0817 -0.1331 0.9693
2.9567 7.0762 -0.1309 0.9698
2.8725 7.1209 -0.1310 0.9697
2.8303 7.1434 -0.1311 0.9697
2.7881 7.1658 -0.1312 0.9697
2.7034 7.2109 -0.1314 0.9697
2.6609 7.2334 -0.1315 0.9696
2.6075 7.2258 -0.1311 0.9697
2.5638 7.2446 -0.1312 0.9697
2.5268 7.2830 -0.1316 0.9696
2.5417 7.4751 -0.1348 0.9689
2.5069 7.5249 -0.1354 0.9688
2.4717 7.5751 -0.1360 0.9686
2.4362 7.6259 -0.1366 0.9685
2.3853 7.6292 -0.1364 0.9685
2.3275 7.7810 -0.1386 0.9680
2.2906 7.8337 -0.1393 0.9679
2.2533 7.8870 -0.1400 0.9677
2.0640 7.9651 -0.1404 0.9676
2.0733 8.2097 -0.1445 0.9667
2.0537 8.3492 -0.1467 0.9662
1.9690 8.4545 -0.1482 0.9659
1.9142 8.4555 -0.1480 0.9659
1.8595 8.4564 -0.1478 0.9660
1.8050 8.4574 -0.1476 0.9660
1.7506 8.4583 -0.1474 0.9660
1.6421 8.4602 -0.1471 0.9661
1.5880 8.4612 -0.1469 0.9661
1.4266 8.4640 -0.1465 0.9662
1.2083 7.4502 -0.1288 0.9703
1.2029 7.7182 -0.1333 0.9692
1.2433 8.3153 -0.1435 0.9669
1.0482 8.4314 -0.1450 0.9666
0.9951 8.4296 -0.1449 0.9666
0.8468 8.5305 -0.1463 0.9663
0.7406 8.5324 -0.1462 0.9663
0.6875 8.5333 -0.1461 0.9663
0.4756 8.5370 -0.1459 0.9664
0.3170 8.5397 -0.1458 0.9664
0.2113 8.5416 -0.1458 0.9664
-0.0522 8.4486 -0.1442 0.9668
-0.1045 8.4522 -0.1443 0.9667
-0.2101 8.4926 -0.1450 0.9666
-0.2583 8.3517 -0.1426 0.9671
-0.4734 8.4971 -0.1452 0.9665
-0.5096 7.4802 -0.1280 0.9705
-0.6817 8.4615 -0.1449 0.9666
-0.3757 4.0384 -0.0692 0.9839
-0.3820 3.8483 -0.0660 0.9846
-0.4061 3.8487 -0.0661 0.9846
-0.4303 3.8492 -0.0661 0.9846
-0.4544 3.8496 -0.0662 0.9846
-0.5001 3.8291 -0.0659 0.9847
-0.5694 3.8081 -0.0657 0.9847
-0.5937 3.8097 -0.0658 0.9847
-0.6187 3.8148 -0.0660 0.9847
-0.6443 3.8228 -0.0662 0.9846
-0.6722 3.8431 -0.0666 0.9845
-0.7035 3.8805 -0.0673 0.9843
-1.6091 8.5734 -0.1489 0.9657
-1.6642 8.5743 -0.1491 0.9657
-1.7195 8.5753 -0.1493 0.9656
-1.7544 8.4770 -0.1477 0.9660
-1.8100 8.4808 -0.1480 0.9659
-1.8657 8.4846 -0.1483 0.9658
-1.9851 8.5235 -0.1494 0.9656
-2.5526 8.5334 -0.1520 0.9650
-2.6105 8.5345 -0.1523 0.9649
-2.6687 8.5355 -0.1526 0.9649
-2.7271 8.5365 -0.1529 0.9648
-1.5684 4.5205 -0.0817 0.9810
-1.5698 4.4360 -0.0803 0.9814
-1.5665 4.3409 -0.0788 0.9817
-1.5746 4.2803 -0.0778 0.9819
-1.6001 4.2681 -0.0778 0.9819
-1.6011 4.1150 -0.0754 0.9825
-1.6013 3.9696 -0.0731 0.9830
-1.6015 3.8329 -0.0709 0.9835
-1.6016 3.7675 -0.0699 0.9838
-1.5891 3.6747 -0.0683 0.9841
-1.5892 3.6135 -0.0674 0.9843
-1.5893 3.5539 -0.0664 0.9845
-1.5896 3.4396 -0.0647 0.9850
-1.5843 3.3198 -0.0628 0.9854
-1.5909 3.2302 -0.0615 0.9857
-1.5917 3.1821 -0.0607 0.9859
-1.5925 3.1351 -0.0600 0.9860
-1.6475 3.1464 -0.0606 0.9859
-1.6726 3.1468 -0.0608 0.9858
-1.6952 3.1423 -0.0609 0.9858
-1.7083 3.1202 -0.0607 0.9859
-4.1236 7.2108 -0.1418 0.9673
-2.8704 4.4886 -0.0909 0.9789
-2.9101 4.4893 -0.0913 0.9788
-2.9501 4.4899 -0.0917 0.9787
-2.9905 4.4906 -0.0921 0.9786
-3.0723 4.4921 -0.0929 0.9785
-3.1138 4.4928 -0.0933 0.9784
-3.1978 4.4943 -0.0941 0.9782
-3.2404 4.4950 -0.0946 0.9781
-3.3268 4.4965 -0.0955 0.9779
-3.3706 4.4973 -0.0959 0.9778
-3.4594 4.4988 -0.0969 0.9776
-3.5045 4.4996 -0.0973 0.9774
-3.5501 4.5004 -0.0978 0.9773
-3.5961 4.5012 -0.0983 0.9772
-3.6426 4.5020 -0.0988 0.9771
-3.6896 4.5029 -0.0994 0.9770
-3.7370 4.5037 -0.0999 0.9769
-3.7906 4.4550 -0.0998 0.9769
-3.8630 4.4835 -0.1010 0.9766
-3.8881 4.4567 -0.1009 0.9766
-3.9822 4.5080 -0.1027 0.9762
-4.1886 4.5116 -0.1051 0.9757
-4.2955 4.5134 -0.1063 0.9754
-4.3499 4.5144 -0.1070 0.9752
-4.4050 4.5154 -0.1077 0.9751
-4.4608 4.5163 -0.1083 0.9749
-4.5173 4.5173 -0.1090 0.9748
-4.6912 4.5203 -0.1112 0.9743
-4.8750 4.5261 -0.1135 0.9737
-4.9039 4.3863 -0.1123 0.9740
-4.9236 4.2955 -0.1115 0.9742
-4.9254 4.1909 -0.1104 0.9745
-4.9272 4.0884 -0.1093 0.9747
-4.9281 4.0380 -0.1087 0.9748
-4.9289 3.9880 -0.1082 0.9750
-4.9298 3.9385 -0.1077 0.9751
-4.9112 3.8251 -0.1062 0.9754
-4.9179 3.7817 -0.1059 0.9755
-4.8893 3.7118 -0.1048 0.9757
-4.8901 3.6650 -0.1043 0.9758
-10.8114 7.7938 -0.2275 0.9481
-10.9380 7.6813 -0.2281 0.9479
-11.1815 7.7495 -0.2322 0.9470
-12.5288 8.3435 -0.2569 0.9416
-12.5321 8.1238 -0.2549 0.9420
-12.5369 7.8004 -0.2520 0.9426
-12.6708 7.7754 -0.2537 0.9423
-13.6301 8.0199 -0.2699 0.9387
-13.7219 7.8471 -0.2698 0.9387
-13.7912 7.7740 -0.2702 0.9386
-13.8649 7.7029 -0.2707 0.9385
-13.9388 7.6315 -0.2712 0.9384
-14.1490 7.5206 -0.2735 0.9379
-14.2596 7.4667 -0.2747 0.9376
-14.3075 7.3794 -0.2748 0.9376
-14.4847 7.2454 -0.2764 0.9373
-14.6542 7.2172 -0.2788 0.9367
-52.2243 24.1345 -0.9819 0.7944
-17.6589 7.5072 -0.3275 0.9261
-52.2007 21.8115 -0.9656 0.7975
-52.1929 21.0539 -0.9605 0.7984
-52.1895 20.6782 -0.9581 0.7989
-52.1857 20.3042 -0.9557 0.7993
-52.1819 19.9321 -0.9534 0.7997
-52.1744 19.1932 -0.9488 0.8006
-52.1706 18.8263 -0.9466 0.8010
-52.1559 17.3754 -0.9382 0.8026
-52.1522 17.0166 -0.9363 0.8029
-52.1486 16.6593 -0.9343 0.8033
-52.1414 15.9491 -0.9306 0.8040
-52.1378 15.5960 -0.9288 0.8044
-52.1236 14.1971 -0.9220 0.8056
-52.1201 13.8504 -0.9204 0.8059
-52.1166 13.5051 -0.9189 0.8062
-52.1131 13.1607 -0.9173 0.8065
-52.1096 12.8176 -0.9159 0.8068
-52.1061 12.4755 -0.9144 0.8071
-52.0923 11.1175 -0.9091 0.8081
-52.0855 10.4442 -0.9066 0.8085
-52.0821 10.1089 -0.9055 0.8088
-52.0748 9.4407 -0.9033 0.8092
-52.0714 9.1079 -0.9022 0.8094
-52.0680 8.7757 -0.9012 0.8096
-52.0579 7.7838 -0.8984 0.8101
-52.0546 7.4545 -0.8975 0.8103
-52.0446 6.4702 -0.8951 0.8107
-52.0412 6.1432 -0.8944 0.8109
-52.0379 5.8167 -0.8937 0.8110
-52.0346 5.4907 -0.8930 0.8111
-52.0313 5.1653 -0.8924 0.8113
-52.0280 4.8402 -0.8918 0.8114
-52.0249 4.5155 -0.8913 0.8115
-52.0216 4.1913 -0.8907 0.8116
-52.0183 3.8674 -0.8903 0.8117
-52.0150 3.5438 -0.8898 0.8117
-52.0117 3.2206 -0.8894 0.8118
-52.0052 2.5750 -0.8887 0.8120
-52.0019 2.2526 -0.8884 0.8120
-51.9953 1.6082 -0.8878 0.8121
-51.9921 1.2864 -0.8876 0.8122
-51.9888 0.9646 -0.8874 0.8122
-51.9823 0.3214 -0.8872 0.8122
-51.9724 -0.6429 -1.2732 0.8122
-51.9693 -0.9643 -1.2732 0.8122
-51.9628 -1.6073 -1.2734 0.8122
-51.9562 -2.2506 -1.2739 0.8121
-51.9530 -2.5724 -1.2741 0.8121
-51.1951 -3.1701 -1.2564 0.8145
-51.0250 -3.4764 -1.2527 0.8149
-50.6878 -4.0838 -1.2456 0.8159
-50.5206 -4.3850 -1.2421 0.8164
-48.2065 -4.7856 -1.1866 0.8238
-47.8918 -5.3533 -1.1804 0.8246
-47.1189 -6.7477 -1.1659 0.8266
-46.9666 -7.0225 -1.1632 0.8269
-48.3521 -8.1495 -1.2011 0.8219
-48.2745 -8.4437 -1.2004 0.8219
-48.2715 -8.7512 -1.2017 0.8218
-47.0486 -10.9575 -1.1833 0.8242
-46.8983 -11.2287 -1.1812 0.8245
-44.7562 -11.0089 -1.1290 0.8316
-44.4708 -11.5238 -1.1253 0.8321
-44.0156 -12.5755 -1.1213 0.8326
-43.8749 -12.8293 -1.1197 0.8328
-43.7346 -13.0824 -1.1182 0.8331
-43.4861 -13.3016 -1.1139 0.8336
-39.5199 -12.8949 -1.0183 0.8468
-38.8795 -12.9525 -1.0038 0.8488
-36.6653 -13.7460 -0.9592 0.8550
-36.6699 -14.0069 -0.9615 0.8547
-36.6790 -14.5328 -0.9664 0.8540
-36.6837 -14.7977 -0.9689 0.8536
-36.6883 -15.0640 -0.9715 0.8533
-36.6930 -15.3318 -0.9741 0.8529
-36.6977 -15.6010 -0.9768 0.8525
-36.7024 -15.8718 -0.9795 0.8521
-36.7216 -16.9702 -0.9909 0.8506
-36.7313 -17.5293 -0.9969 0.8497
-36.7363 -17.8114 -1.0000 0.8493
-36.6602 -18.3379 -1.0041 0.8487
-36.6652 -18.6248 -1.0073 0.8483
-36.7705 -19.2541 -1.0167 0.8470
-36.7757 -19.5475 -1.0202 0.8465
-36.7912 -20.4400 -1.0309 0.8450
-36.8125 -21.6604 -1.0462 0.8429
-36.8180 -21.9712 -1.0502 0.8424
-36.8234 -22.2845 -1.0543 0.8418
-36.8522 -24.2139 -1.0801 0.8383
-36.8697 -25.2170 -1.0942 0.8363
-36.8757 -25.5572 -1.0990 0.8357
-36.8938 -26.5963 -1.1141 0.8336
-36.9252 -28.3942 -1.1410 0.8300
-36.9291 -29.1310 -1.1521 0.8284
-36.9356 -29.5086 -1.1580 0.8277
-36.9423 -29.8901 -1.1640 0.8268
-33.2763 -27.6118 -1.0592 0.8411
-32.2604 -27.7954 -1.0431 0.8433
-31.8677 -27.8023 -1.0359 0.8443
-31.4803 -27.8090 -1.0289 0.8453
-31.0981 -27.8157 -1.0220 0.8462
-30.7210 -27.8223 -1.0152 0.8472
-30.3488 -27.8288 -1.0086 0.8481
-29.9815 -27.8352 -1.0021 0.8490
-29.6188 -27.8415 -0.9957 0.8499
-28.3908 -27.6971 -0.9715 0.8533
-27.7325 -27.7325 -0.9607 0.8548
-27.3741 -27.7149 -0.9542 0.8557
-27.1388 -27.8186 -0.9520 0.8560
-26.8733 -27.8895 -0.9487 0.8564
-26.5481 -27.8951 -0.9433 0.8572
-26.2265 -27.9007 -0.9380 0.8579
-25.9086 -27.9063 -0.9327 0.8587
-25.2830 -27.9172 -0.9226 0.8601
-24.3696 -27.9332 -0.9080 0.8622
-24.0715 -27.9384 -0.9033 0.8628
-22.7749 -27.7951 -0.8802 0.8661
-22.0585 -28.3218 -0.8793 0.8662
-20.7364 -27.6682 -0.8469 0.8708
-19.9554 -27.6818 -0.8359 0.8724
-19.6164 -27.9333 -0.8361 0.8723
-19.6299 -28.7009 -0.8517 0.8701
-22.1446 -33.2529 -0.9786 0.8523
-22.1527 -33.7151 -0.9882 0.8509
-31.8436 -49.1234 -1.4340 0.7912
-31.4726 -49.2154 -1.4309 0.7916
-31.0499 -49.2224 -1.4255 0.7923
-30.2138 -49.2362 -1.4150 0.7936
-16.5914 -27.4161 -0.7850 0.8797
-16.3502 -27.3987 -0.7815 0.8801
-16.1811 -27.5003 -0.7816 0.8801
-16.0119 -27.6019 -0.7816 0.8801
-15.8427 -27.7036 -0.7817 0.8801
-15.6735 -27.8053 -0.7818 0.8801
-15.5042 -27.9070 -0.7820 0.8801
-26.1986 -49.2888 -1.3673 0.7998
-25.4288 -49.3024 -1.3588 0.8009
-14.1424 -28.7152 -0.7841 0.8798
-13.2998 -28.7794 -0.7766 0.8809
-13.0862 -28.7831 -0.7745 0.8812
-12.8736 -28.7868 -0.7724 0.8815
-12.6622 -28.7905 -0.7704 0.8818
-12.4306 -28.7451 -0.7671 0.8822
-10.4056 -24.4768 -0.6515 0.8990
-11.7836 -28.6989 -0.7599 0.8833
-10.7822 -28.7599 -0.7523 0.8844
-10.5862 -28.7773 -0.7511 0.8845
-10.1864 -28.7843 -0.7479 0.8850
-9.9877 -28.7877 -0.7464 0.8852
-9.4009 -28.8118 -0.7424 0.8858
-9.0060 -28.8048 -0.7393 0.8863
-8.8119 -28.8082 -0.7379 0.8864
-7.2820 -28.8349 -0.7285 0.8878
-5.9724 -28.8578 -0.7218 0.8888
-5.6024 -28.8643 -0.7202 0.8890
-5.4180 -28.8675 -0.7195 0.8891
-4.9679 -27.4029 -0.6822 0.8946
-4.5015 -28.8835 -0.7160 0.8896
-3.9554 -28.8930 -0.7143 0.8899
-3.7740 -28.8962 -0.7138 0.8899
-3.5858 -28.8434 -0.7119 0.8902
-3.4176 -28.9519 -0.7141 0.8899
-3.2365 -28.9550 -0.7137 0.8900
-2.5100 -28.9182 -0.7110 0.8903
-2.1505 -28.9245 -0.7105 0.8904
-1.6699 -29.9712 -0.7353 0.8868
-1.5357 -49.6508 -1.2168 0.8197
0.9236 -49.7743 -1.2194 0.8194
1.7254 -46.4788 -1.1393 0.8302
1.3891 -28.0544 -0.6880 0.8937
1.7375 -28.0604 -0.6887 0.8936
1.4304 -20.9942 -0.5154 0.9193
1.8898 -20.3137 -0.4997 0.9216
2.0160 -20.3079 -0.4999 0.9216
2.1426 -20.3048 -0.5001 0.9216
2.2694 -20.3030 -0.5004 0.9215
2.3963 -20.2997 -0.5007 0.9215
2.6506 -20.2950 -0.5013 0.9214
2.9063 -20.2946 -0.5022 0.9212
3.1629 -20.2947 -0.5031 0.9211
3.9386 -20.2918 -0.5063 0.9206
4.4616 -20.2899 -0.5089 0.9202
4.5934 -20.2900 -0.5096 0.9201
7.7323 -29.0970 -0.7375 0.8865
7.7277 -27.6950 -0.7043 0.8913
8.3161 -29.1072 -0.7415 0.8859
8.5121 -29.1106 -0.7429 0.8857
8.7089 -29.1141 -0.7444 0.8855
10.3130 -29.1421 -0.7572 0.8837
10.5175 -29.1456 -0.7590 0.8834
11.0371 -29.4399 -0.7701 0.8818
10.5734 -27.6809 -0.7259 0.8882
11.5551 -29.1637 -0.7684 0.8820
11.9641 -29.1384 -0.7716 0.8816
12.1967 -29.1898 -0.7749 0.8811
12.4109 -29.1936 -0.7770 0.8808
12.6263 -29.1974 -0.7792 0.8805
12.8260 -29.1629 -0.7803 0.8803
9.2871 -20.7670 -0.5572 0.9130
9.3850 -19.9826 -0.5408 0.9155
9.5931 -19.7859 -0.5386 0.9158
9.7527 -19.8022 -0.5407 0.9155
16.0371 -29.2914 -0.8180 0.8749
16.7294 -29.2541 -0.8255 0.8739
16.9728 -29.2583 -0.8285 0.8734
30.0047 -50.2798 -1.4342 0.7911
30.4325 -50.2873 -1.4398 0.7904
31.2981 -50.3024 -1.4512 0.7890
31.7361 -50.3101 -1.4570 0.7882
32.1777 -50.3179 -1.4630 0.7874
32.6229 -50.3256 -1.4691 0.7867
33.0719 -50.3335 -1.4752 0.7859
33.5246 -50.3414 -1.4815 0.7851
33.9729 -50.3370 -1.4875 0.7843
35.8431 -50.3745 -1.5144 0.7808
36.3210 -50.3837 -1.5214 0.7800
21.2663 -29.1187 -0.8832 0.8657
21.4512 -28.9938 -0.8834 0.8656
21.6362 -28.8688 -0.8837 0.8656
21.8214 -28.7437 -0.8840 0.8655
22.0066 -28.6185 -0.8843 0.8655
22.1920 -28.4931 -0.8846 0.8654
22.3775 -28.3677 -0.8850 0.8654
23.9860 -29.2731 -0.9270 0.8595
23.7107 -28.5749 -0.9095 0.8619
23.7168 -28.2252 -0.9030 0.8629
23.7228 -27.8804 -0.8967 0.8637
23.8554 -27.6875 -0.8952 0.8640
24.4680 -27.6982 -0.9053 0.8625
29.1079 -29.4701 -1.0146 0.8473
28.3576 -28.0090 -0.9763 0.8526
29.0900 -28.0301 -0.9895 0.8508
30.1766 -28.0163 -1.0086 0.8481
33.0242 -29.5385 -1.0853 0.8375
33.4464 -29.5459 -1.0931 0.8365
34.3095 -29.5609 -1.1093 0.8343
32.9840 -28.0653 -1.0608 0.8409
33.4852 -28.1366 -1.0713 0.8395
29.4040 -24.3987 -0.9359 0.8582
29.6124 -24.2640 -0.9378 0.8580
36.5846 -29.6006 -1.1527 0.8284
37.5456 -29.6174 -1.1714 0.8258
37.1088 -28.1720 -1.1412 0.8299
42.2630 -31.2685 -1.2878 0.8103
39.1139 -28.1968 -1.1811 0.8245
29.3336 -20.5998 -0.8780 0.8664
29.3269 -20.3254 -0.8740 0.8670
29.4795 -19.8959 -0.8712 0.8674
29.8738 -19.8943 -0.8792 0.8662
30.2202 -19.8563 -0.8857 0.8653
30.5617 -19.8112 -0.8921 0.8644
42.3333 -27.0716 -1.2308 0.8179
42.3400 -26.7084 -1.2262 0.8185
42.3534 -25.9902 -1.2172 0.8197
42.3600 -25.6350 -1.2128 0.8203
42.3665 -25.2823 -1.2085 0.8209
42.3731 -24.9321 -1.2043 0.8214
42.3795 -24.5844 -1.2001 0.8220
42.7275 -24.0850 -1.2014 0.8218
43.3413 -24.0790 -1.2145 0.8201
44.6098 -24.0666 -1.2416 0.8164
45.2656 -24.0602 -1.2557 0.8146
45.9365 -24.0536 -1.2701 0.8126
48.7935 -24.0310 -1.3323 0.8044
49.5467 -24.0223 -1.3488 0.8023
50.3187 -24.0135 -1.3657 0.8000
51.1105 -24.0044 -1.3831 0.7978
51.9227 -23.9951 -1.4011 0.7954
53.6079 -23.9738 -1.4384 0.7906
54.4908 -23.9654 -1.4581 0.7881
55.3983 -23.9567 -1.4784 0.7855
56.3314 -23.9478 -1.4993 0.7828
57.2913 -23.9386 -1.5209 0.7800
58.2793 -23.9292 -1.5432 0.7772
60.3345 -23.9054 -1.5897 0.7713
61.4145 -23.8949 -1.6142 0.7682
62.5285 -23.8842 -1.6396 0.7650
63.6782 -23.8731 -1.6658 0.7618
64.8544 -23.8577 -1.6927 0.7584
63.3622 2.7446 -1.5535 0.7759
63.8701 5.1460 -1.5696 0.7738
63.8778 5.5444 -1.5706 0.7737
63.8856 5.9433 -1.5716 0.7736
63.5224 6.3060 -1.5635 0.7746
64.7625 7.2391 -1.5962 0.7705
64.7838 8.4611 -1.6004 0.7700
64.7910 8.8698 -1.6019 0.7698
64.7981 9.2794 -1.6034 0.7696
60.9512 9.1135 -1.5096 0.7815
64.8197 10.5131 -1.6085 0.7689
64.8269 10.9262 -1.6103 0.7687
64.8413 11.7552 -1.6142 0.7682
64.8486 12.1712 -1.6162 0.7680
64.8559 12.5882 -1.6183 0.7677
20.2149 4.0535 -0.5050 0.9208
28.9951 6.7529 -0.7292 0.8877
25.5595 6.6233 -0.6467 0.8997
25.4953 6.7751 -0.6462 0.8998
24.0464 6.7096 -0.6115 0.9049
23.9233 6.9953 -0.6105 0.9051
23.9260 7.1570 -0.6117 0.9049
20.9786 6.9889 -0.5416 0.9153
20.8314 7.2273 -0.5401 0.9156
18.9775 6.8482 -0.4942 0.9224
18.7865 6.9109 -0.4903 0.9230
18.0874 6.9089 -0.4743 0.9255
17.9479 6.9831 -0.4717 0.9258
17.8098 7.0565 -0.4692 0.9262
17.6975 7.2665 -0.4686 0.9263
17.5588 7.4646 -0.4674 0.9265
16.3188 7.0570 -0.4355 0.9313
16.4708 7.3659 -0.4420 0.9304
16.2137 7.3715 -0.4363 0.9312
16.2368 7.5035 -0.4381 0.9309
16.2393 7.6269 -0.4395 0.9307
14.8084 7.0670 -0.4019 0.9365
14.8063 7.1787 -0.4031 0.9363
14.6257 7.3160 -0.4006 0.9367
14.4717 7.4641 -0.3989 0.9369
14.5176 7.8321 -0.4041 0.9361
14.5200 7.9497 -0.4055 0.9359
13.0801 7.3731 -0.3678 0.9417
12.9947 7.6461 -0.3693 0.9415
12.9963 7.7556 -0.3707 0.9412
11.2070 6.8772 -0.3221 0.9487
11.0082 6.8492 -0.3176 0.9494
10.6931 6.8381 -0.3109 0.9505
10.4677 6.8779 -0.3068 0.9511
10.0378 7.0491 -0.3004 0.9521
9.8885 7.1285 -0.2986 0.9524
9.8291 7.1784 -0.2981 0.9525
9.7763 7.2331 -0.2979 0.9525
9.6186 7.3963 -0.2972 0.9526
9.5662 7.4506 -0.2970 0.9526
9.5156 7.5063 -0.2969 0.9527
9.4819 7.5753 -0.2973 0.9526
9.4482 7.6445 -0.2977 0.9525
9.3803 7.7836 -0.2986 0.9524
9.3463 7.8534 -0.2990 0.9523
9.3121 7.9235 -0.2995 0.9523
9.2920 8.0060 -0.3004 0.9521
9.2322 8.4656 -0.3068 0.9511
9.2398 8.9032 -0.3143 0.9500
9.2418 9.0160 -0.3163 0.9497
9.2520 9.6018 -0.3266 0.9480
9.2563 9.8472 -0.3310 0.9474
9.3629 10.2107 -0.3393 0.9461
9.3651 10.3408 -0.3417 0.9457
9.3721 10.7426 -0.3492 0.9446
9.3770 11.0204 -0.3544 0.9437
9.3820 11.3067 -0.3599 0.9429
9.3845 11.4531 -0.3627 0.9425
9.3871 11.6019 -0.3656 0.9420
9.3925 11.9067 -0.3715 0.9411
9.3952 12.0628 -0.3745 0.9407
9.4008 12.3829 -0.3808 0.9397
9.4095 12.8839 -0.3908 0.9382
9.4125 13.0568 -0.3943 0.9376
9.4187 13.4121 -0.4014 0.9365
9.4219 13.5946 -0.4052 0.9360
9.4251 13.7805 -0.4090 0.9354
9.4388 14.5607 -0.4250 0.9329
9.4423 14.7654 -0.4293 0.9323
4.6960 7.4443 -0.2156 0.9654
4.5353 7.2892 -0.2103 0.9662
4.3604 7.2052 -0.2063 0.9669
4.2748 7.1635 -0.2043 0.9672
3.7381 6.9290 -0.1928 0.9690
3.6785 6.9206 -0.1920 0.9691
3.5609 6.9041 -0.1903 0.9694
3.4539 6.9048 -0.1891 0.9696
3.3075 6.9306 -0.1881 0.9697
3.1626 6.9562 -0.1872 0.9699
2.9567 7.0762 -0.1879 0.9698
2.9146 7.0986 -0.1880 0.9698
2.8725 7.1209 -0.1881 0.9697
2.7881 7.1658 -0.1883 0.9697
2.7458 7.1883 -0.1885 0.9697
2.7034 7.2109 -0.1886 0.9697
2.6075 7.2258 -0.1882 0.9697
2.4895 7.3215 -0.1894 0.9695
2.2297 7.6254 -0.1946 0.9687
2.1975 7.6914 -0.1959 0.9685
2.1317 7.8263 -0.1987 0.9681
2.0640 7.9651 -0.2016 0.9676
2.0240 8.4536 -0.2129 0.9658
1.8595 8.4564 -0.2121 0.9659
1.8050 8.4574 -0.2118 0.9660
1.6421 8.4602 -0.2111 0.9661
1.5880 8.4612 -0.2109 0.9661
1.1864 7.6124 -0.1887 0.9696
1.1386 7.6149 -0.1886 0.9697
1.0909 7.6177 -0.1885 0.9697
1.0780 7.8745 -0.1947 0.9687
0.9951 8.4296 -0.2079 0.9666
0.9000 8.5296 -0.2101 0.9663
0.6875 8.5333 -0.2097 0.9663
0.5286 8.5361 -0.2095 0.9664
0.4756 8.5370 -0.2094 0.9664
0.4227 8.5379 -0.2094 0.9664
0.3170 8.5397 -0.2093 0.9664
0.2642 8.5407 -0.2093 0.9664
0.2113 8.5416 -0.2093 0.9664
0.1585 8.5425 -0.2093 0.9664
0.1057 8.5434 -0.2093 0.9664
0.0000 8.5453 -0.2093 0.9664
-0.0523 8.4486 -0.2070 0.9668
-0.1045 8.4522 -0.2071 0.9667
-0.3328 7.6838 -0.1884 0.9697
-0.5702 7.6690 -0.1884 0.9697
-0.6175 7.6640 -0.1883 0.9697
-0.3820 3.8482 -0.0947 0.9846
-0.4061 3.8486 -0.0948 0.9846
-0.4302 3.8491 -0.0949 0.9846
-0.4544 3.8495 -0.0949 0.9846
-0.5223 3.8154 -0.0943 0.9847
-0.7034 3.8801 -0.0966 0.9843
-1.6091 8.5734 -0.2137 0.9657
-1.6642 8.5743 -0.2139 0.9657
-1.7195 8.5753 -0.2142 0.9656
-1.7544 8.4770 -0.2120 0.9660
-1.8100 8.4808 -0.2124 0.9659
-1.8598 8.4576 -0.2121 0.9659
-1.8632 8.2300 -0.2067 0.9668
-1.8664 8.0138 -0.2015 0.9676
-1.8694 7.8079 -0.1967 0.9684
-1.8723 7.6119 -0.1920 0.9691
-1.9164 7.5883 -0.1917 0.9692
-1.9665 7.5889 -0.1920 0.9691
-2.0447 7.5069 -0.1906 0.9693
-2.4949 8.5324 -0.2178 0.9651
-2.5526 8.5334 -0.2182 0.9650
-2.7271 8.5365 -0.2195 0.9648
-2.7857 8.5375 -0.2200 0.9647
-2.8205 8.4664 -0.2186 0.9649
-2.8404 8.3536 -0.2161 0.9653
-1.5698 4.4360 -0.1153 0.9813
-1.5665 4.3409 -0.1130 0.9817
-1.6001 4.2681 -0.1117 0.9819
-1.6169 4.2330 -0.1110 0.9820
-1.6182 4.1590 -0.1093 0.9823
-1.6194 4.0873 -0.1077 0.9826
-1.6218 3.9500 -0.1046 0.9831
-1.6230 3.8842 -0.1031 0.9833
-1.6273 3.6387 -0.0976 0.9842
-1.5917 3.1821 -0.0872 0.9859
-1.5925 3.1351 -0.0861 0.9860
-1.6475 3.1464 -0.0870 0.9859
-1.7083 3.1202 -0.0871 0.9859
-3.9375 7.0873 -0.1986 0.9681
-4.0444 7.0722 -0.1996 0.9679
-4.0982 7.0647 -0.2001 0.9678
-2.6621 4.5243 -0.1286 0.9792
-2.7393 4.4639 -0.1283 0.9793
-2.7663 4.4460 -0.1282 0.9793
-2.8310 4.4879 -0.1300 0.9790
-2.9905 4.4906 -0.1322 0.9786
-3.0313 4.4914 -0.1327 0.9786
-3.1138 4.4928 -0.1339 0.9784
-3.1556 4.4935 -0.1345 0.9783
-3.2404 4.4950 -0.1357 0.9781
-3.2834 4.4958 -0.1364 0.9780
-3.4148 4.4981 -0.1383 0.9777
-3.5501 4.5004 -0.1404 0.9773
-3.5961 4.5012 -0.1411 0.9772
-3.6426 4.5020 -0.1419 0.9771
-3.7370 4.5037 -0.1433 0.9769
-3.7693 4.4858 -0.1435 0.9768
-3.7906 4.4550 -0.1433 0.9769
-3.8881 4.4567 -0.1449 0.9766
-3.9822 4.5080 -0.1473 0.9762
-4.0329 4.5088 -0.1482 0.9761
-4.1361 4.5106 -0.1499 0.9758
-4.2417 4.5125 -0.1517 0.9755
-4.3499 4.5144 -0.1536 0.9752
-4.4608 4.5163 -0.1555 0.9749
-4.5173 4.5173 -0.1565 0.9748
-4.6325 4.5193 -0.1585 0.9744
-4.6912 4.5203 -0.1596 0.9743
-4.7508 4.5214 -0.1606 0.9741
-4.8111 4.5224 -0.1617 0.9739
-4.9039 4.3863 -0.1611 0.9740
-4.9236 4.2955 -0.1600 0.9742
-4.9245 4.2429 -0.1592 0.9743
-4.9263 4.1394 -0.1576 0.9746
-4.9289 3.9880 -0.1553 0.9750
-4.9307 3.8895 -0.1538 0.9752
-4.9179 3.7817 -0.1520 0.9755
-4.8893 3.7118 -0.1504 0.9757
-4.8901 3.6650 -0.1497 0.9758
-4.8909 3.6186 -0.1490 0.9760
-10.8114 7.7938 -0.3265 0.9481
-10.9380 7.6813 -0.3274 0.9479
-12.5653 8.4804 -0.3713 0.9411
-12.5669 8.3689 -0.3698 0.9414
-12.5686 8.2582 -0.3684 0.9416
-12.5369 7.8004 -0.3617 0.9426
-12.6705 7.7753 -0.3641 0.9423
-13.5381 8.1929 -0.3876 0.9386
-13.6760 7.9335 -0.3873 0.9387
-13.7219 7.8471 -0.3872 0.9387
-13.7912 7.7740 -0.3878 0.9386
-13.8649 7.7029 -0.3885 0.9385
-14.1490 7.5206 -0.3925 0.9379
-14.2596 7.4667 -0.3943 0.9376
-14.3712 7.4123 -0.3961 0.9373
-14.5542 7.2802 -0.3986 0.9370
-52.2243 24.1345 -1.4092 0.7944
-52.2163 23.3514 -1.4011 0.7954
-17.6042 7.7424 -0.4711 0.9259
-17.6166 7.6182 -0.4701 0.9261
-52.2007 21.8116 -1.3858 0.7974
-52.1968 21.4318 -1.3821 0.7979
-52.1929 21.0539 -1.3786 0.7984
-52.1819 19.9321 -1.3683 0.7997
-52.1781 19.5617 -1.3650 0.8001
-51.0353 18.4166 -1.3290 0.8049
-52.1632 18.0977 -1.3524 0.8018
-52.1522 17.0166 -1.3437 0.8029
-52.1378 15.5960 -1.3330 0.8043
-52.1343 15.2444 -1.3305 0.8047
-52.1307 14.8940 -1.3280 0.8050
-52.1272 14.5449 -1.3256 0.8053
-52.1131 13.1607 -1.3166 0.8065
-52.1096 12.8176 -1.3145 0.8068
-52.0923 11.1175 -1.3047 0.8081
-52.0855 10.4442 -1.3012 0.8085
-52.0821 10.1089 -1.2996 0.8087
-52.0782 9.7743 -1.2979 0.8090
-52.0748 9.4407 -1.2964 0.8092
-52.0714 9.1078 -1.2948 0.8094
-52.0680 8.7757 -1.2934 0.8096
-52.0646 8.4444 -1.2920 0.8097
-52.0579 7.7838 -1.2893 0.8101
-52.0546 7.4545 -1.2881 0.8103
-52.0479 6.7977 -1.2857 0.8106
-52.0412 6.1432 -1.2836 0.8108
-52.0313 5.1653 -1.2808 0.8112
-52.0280 4.8402 -1.2799 0.8113
-52.0249 4.5155 -1.2791 0.8114
-52.0216 4.1913 -1.2784 0.8115
-52.0183 3.8674 -1.2777 0.8116
-52.0117 3.2206 -1.2765 0.8118
-52.0052 2.5750 -1.2754 0.8119
-51.9986 1.9303 -1.2746 0.8120
-51.9921 1.2864 -1.2739 0.8121
-51.9855 0.6430 -1.2735 0.8122
-51.9823 0.3214 -1.2733 0.8122
-46.8057 0.0000 -1.4943 0.8292
-46.8352 -0.2896 -1.4953 0.8291
-51.9661 -1.2858 -1.6595 0.8122
-51.9628 -1.6073 -1.6597 0.8122
-49.5006 -2.4510 -1.5823 0.8201
-49.3355 -2.7488 -1.5775 0.8206
-49.0084 -3.3390 -1.5682 0.8215
-48.6849 -3.9225 -1.5593 0.8224
-48.5246 -4.2118 -1.5550 0.8229
-48.3651 -4.4995 -1.5507 0.8233
-47.7357 -5.6349 -1.5346 0.8250
-47.5804 -5.9152 -1.5307 0.8254
-47.1189 -6.7477 -1.5196 0.8265
-46.9666 -7.0226 -1.5161 0.8269
-48.2745 -8.4437 -1.5646 0.8219
-47.9649 -9.0023 -1.5580 0.8226
-47.8110 -9.2799 -1.5549 0.8229
-47.0507 -10.6516 -1.5401 0.8244
-46.7505 -11.1933 -1.5347 0.8250
-44.6133 -11.2668 -1.4690 0.8318
-44.4708 -11.5238 -1.4666 0.8321
-44.4401 -11.8096 -1.4680 0.8319
-44.2982 -12.0656 -1.4658 0.8322
-44.1567 -12.3209 -1.4636 0.8324
-43.8749 -12.8293 -1.4594 0.8328
-43.4861 -13.3016 -1.4518 0.8336
-43.3159 -13.8377 -1.4517 0.8336
-36.6653 -13.7459 -1.2501 0.8550
-36.6837 -14.7977 -1.2628 0.8536
-36.6883 -15.0640 -1.2662 0.8532
-36.6930 -15.3318 -1.2696 0.8529
-36.7024 -15.8718 -1.2766 0.8521
-36.7072 -16.1440 -1.2802 0.8517
-36.6644 -18.0574 -1.3048 0.8491
-36.6652 -18.6248 -1.3129 0.8482
-32.6657 -16.8481 -1.1734 0.8632
-36.7965 -20.7418 -1.3485 0.8445
-36.8125 -21.6604 -1.3636 0.8429
-36.8180 -21.9712 -1.3688 0.8423
-36.8289 -22.6002 -1.3795 0.8412
-36.7546 -23.5041 -1.3928 0.8398
-36.8522 -24.2139 -1.4078 0.8382
-36.8580 -24.5454 -1.4138 0.8376
-36.8757 -25.5572 -1.4324 0.8356
-36.9000 -26.9491 -1.4588 0.8329
-36.9125 -27.6647 -1.4727 0.8314
-36.9252 -28.3942 -1.4871 0.8299
-36.8361 -28.6899 -1.4906 0.8296
-36.9356 -29.5086 -1.5093 0.8276
-36.9490 -30.2755 -1.5250 0.8260
-32.2604 -27.7954 -1.3595 0.8433
-31.8676 -27.8023 -1.3502 0.8443
-30.3488 -27.8288 -1.3146 0.8481
-29.9815 -27.8352 -1.3061 0.8490
-29.6188 -27.8415 -1.2978 0.8499
-29.2608 -27.8478 -1.2896 0.8507
-28.9071 -27.8539 -1.2816 0.8516
-28.0584 -27.7136 -1.2591 0.8540
-27.7325 -27.7325 -1.2521 0.8547
-27.3741 -27.7149 -1.2436 0.8556
-26.8733 -27.8895 -1.2365 0.8564
-26.5481 -27.8951 -1.2294 0.8572
-25.9086 -27.9063 -1.2157 0.8587
-25.5941 -27.9118 -1.2090 0.8594
-24.3696 -27.9332 -1.1835 0.8621
-24.0715 -27.9384 -1.1773 0.8628
-23.7765 -27.9435 -1.1713 0.8634
-23.1952 -27.9537 -1.1597 0.8647
-22.7749 -27.7951 -1.1472 0.8661
-22.4930 -27.8001 -1.1417 0.8667
-22.0585 -28.3218 -1.1461 0.8662
-21.2687 -27.6589 -1.1139 0.8697
-21.0013 -27.6635 -1.1088 0.8702
-20.2135 -27.6773 -1.0942 0.8718
-19.9554 -27.6818 -1.0894 0.8723
-19.6996 -27.6863 -1.0848 0.8729
-19.6314 -28.7031 -1.1102 0.8701
-22.1367 -32.7995 -1.2633 0.8535
-22.1446 -33.2529 -1.2755 0.8522
-22.1527 -33.7151 -1.2879 0.8509
-31.8437 -49.1236 -1.8690 0.7911
-31.4722 -49.2148 -1.8650 0.7915
-16.5031 -27.2702 -1.0176 0.8802
-15.9962 -27.5748 -1.0177 0.8802
-15.8272 -27.6764 -1.0179 0.8802
-15.4889 -27.8796 -1.0182 0.8802
-15.3198 -27.9812 -1.0184 0.8801
-15.1505 -28.0830 -1.0187 0.8801
-26.1988 -49.2892 -1.7821 0.7998
-14.2639 -27.2406 -0.9817 0.8842
-25.4290 -49.3028 -1.7710 0.8009
-13.8592 -27.2836 -0.9770 0.8847
-14.1424 -28.7152 -1.0219 0.8798
-13.2280 -27.2831 -0.9680 0.8857
-13.4916 -28.7266 -1.0132 0.8807
-13.2771 -28.7303 -1.0104 0.8810
-12.2091 -27.3009 -0.9548 0.8872
-12.6406 -28.7414 -1.0024 0.8819
-10.4052 -24.4758 -0.8491 0.8990
-10.2917 -24.6306 -0.8522 0.8987
-11.3964 -28.7631 -0.9877 0.8835
-11.1924 -28.7667 -0.9855 0.8838
-10.7874 -28.7738 -0.9810 0.8843
-10.5862 -28.7773 -0.9789 0.8845
-10.1864 -28.7843 -0.9748 0.8850
-9.9885 -28.7899 -0.9729 0.8852
-9.5988 -28.8129 -0.9696 0.8856
-9.2014 -28.8032 -0.9653 0.8860
-9.0060 -28.8048 -0.9635 0.8862
-7.6609 -28.8283 -0.9523 0.8875
-7.4712 -28.8316 -0.9509 0.8876
-7.2820 -28.8349 -0.9495 0.8878
-7.0934 -28.8382 -0.9481 0.8879
-6.9058 -28.8433 -0.9469 0.8881
-6.7220 -28.8627 -0.9461 0.8882
-6.5348 -28.8660 -0.9449 0.8883
-6.3481 -28.8693 -0.9437 0.8884
-6.1594 -28.8606 -0.9421 0.8886
-5.9724 -28.8578 -0.9408 0.8888
-5.7872 -28.8610 -0.9397 0.8889
-5.6024 -28.8643 -0.9387 0.8890
-5.4180 -28.8675 -0.9377 0.8891
-4.9679 -27.4029 -0.8891 0.8945
-4.4467 -27.4164 -0.8867 0.8948
-4.2733 -27.4194 -0.8859 0.8949
-3.5827 -27.4315 -0.8832 0.8952
-3.4106 -27.4345 -0.8826 0.8953
-3.0672 -27.4405 -0.8815 0.8954
-2.7247 -27.4464 -0.8805 0.8955
-1.6698 -29.9712 -0.9583 0.8868
-1.8458 -49.7200 -1.5884 0.8195
-1.5357 -49.6512 -1.5859 0.8197
-0.9229 -49.7446 -1.5884 0.8195
-0.6153 -49.7497 -1.5884 0.8195
-0.3076 -49.7547 -1.5885 0.8194
0.3078 -49.7647 -1.5888 0.8194
0.9236 -49.7747 -1.5894 0.8194
1.4375 -46.4737 -1.4844 0.8302
1.3886 -20.3805 -0.6522 0.9215
1.7585 -20.2598 -0.6492 0.9218
1.8847 -20.2589 -0.6496 0.9218
2.2645 -20.2586 -0.6508 0.9217
2.5186 -20.2590 -0.6518 0.9215
2.6458 -20.2583 -0.6522 0.9215
2.7732 -20.2573 -0.6528 0.9214
2.9008 -20.2563 -0.6533 0.9214
3.0286 -20.2553 -0.6538 0.9213
3.5447 -20.2658 -0.6568 0.9210
3.6696 -20.2413 -0.6567 0.9210
3.8030 -20.2626 -0.6582 0.9208
4.3252 -20.2664 -0.6616 0.9204
4.5882 -20.2673 -0.6634 0.9202
4.7199 -20.2662 -0.6643 0.9201
7.5391 -29.0937 -0.9595 0.8867
7.7277 -27.6950 -0.9179 0.8913
8.5121 -29.1106 -0.9683 0.8857
8.8965 -29.0848 -0.9710 0.8854
9.9067 -29.1350 -0.9824 0.8841
10.3130 -29.1421 -0.9869 0.8836
10.5834 -28.7698 -0.9787 0.8845
10.6071 -28.2930 -0.9647 0.8861
10.5734 -27.6809 -0.9460 0.8882
11.1114 -27.5453 -0.9482 0.8879
8.5108 -20.7279 -0.7154 0.9142
8.5707 -19.8191 -0.6894 0.9172
8.7091 -19.8021 -0.6906 0.9171
8.8457 -19.7799 -0.6918 0.9169
8.9860 -19.7648 -0.6932 0.9168
9.1303 -19.7570 -0.6948 0.9166
9.2748 -19.7480 -0.6965 0.9164
9.4208 -19.7407 -0.6983 0.9162
9.8738 -19.7393 -0.7046 0.9155
15.3052 -29.2292 -1.0533 0.8763
15.5385 -29.2333 -1.0569 0.8759
15.2112 -27.7830 -1.0112 0.8809
15.6635 -27.7874 -1.0184 0.8802
16.7294 -29.2541 -1.0759 0.8738
17.5936 -29.0721 -1.0849 0.8728
18.0973 -29.0860 -1.0937 0.8719
18.3522 -29.0930 -1.0982 0.8714
18.6092 -29.1002 -1.1028 0.8709
19.1300 -29.1147 -1.1122 0.8699
19.3937 -29.1221 -1.1170 0.8693
19.6598 -29.1296 -1.1220 0.8688
19.9283 -29.1371 -1.1270 0.8683
35.8435 -50.3752 -1.9738 0.7808
36.3215 -50.3843 -1.9829 0.7799
21.4476 -28.9890 -1.1512 0.8656
21.6327 -28.8641 -1.1516 0.8656
21.8180 -28.7392 -1.1520 0.8655
22.0033 -28.6142 -1.1524 0.8655
22.1888 -28.4891 -1.1528 0.8654
26.8230 -33.5741 -1.3719 0.8420
23.5946 -28.4350 -1.1796 0.8625
23.6007 -28.0870 -1.1712 0.8634
23.8554 -27.6875 -1.1668 0.8639
24.1600 -27.6928 -1.1733 0.8632
24.4680 -27.6982 -1.1799 0.8625
25.0946 -27.7091 -1.1935 0.8610
25.4862 -27.7941 -1.2039 0.8599
28.0291 -29.4513 -1.2980 0.8498
26.9429 -27.9616 -1.2397 0.8561
28.7438 -29.4638 -1.3141 0.8481
29.1079 -29.4701 -1.3224 0.8472
30.2283 -29.4897 -1.3482 0.8445
29.0900 -28.0301 -1.2897 0.8507
31.0001 -29.5032 -1.3662 0.8426
31.3999 -29.5157 -1.3758 0.8416
32.1615 -29.4909 -1.3931 0.8398
33.0242 -29.5385 -1.4145 0.8375
33.8748 -29.5533 -1.4352 0.8353
34.3095 -29.5609 -1.4458 0.8342
32.9840 -28.0653 -1.3827 0.8409
36.5846 -29.6006 -1.5024 0.8283
36.3987 -27.9893 -1.4659 0.8321
36.3958 -27.6306 -1.4589 0.8329
37.5595 -28.1496 -1.4985 0.8287
38.0593 -28.1583 -1.5115 0.8274
28.8236 -20.2416 -1.1244 0.8685
28.8228 -19.9760 -1.1196 0.8691
29.3217 -19.7895 -1.1294 0.8680
29.6680 -19.7573 -1.1380 0.8671
30.0025 -19.7133 -1.1461 0.8662
30.3653 -19.6839 -1.1553 0.8652
31.0347 -19.5770 -1.1715 0.8634
42.3540 -25.9905 -1.5865 0.8197
42.3606 -25.6353 -1.5807 0.8202
42.3671 -25.2827 -1.5751 0.8208
42.3736 -24.9325 -1.5696 0.8214
42.4775 -24.2914 -1.5622 0.8222
42.7278 -24.0851 -1.5659 0.8218
43.3416 -24.0791 -1.5829 0.8200
43.9688 -24.0730 -1.6003 0.8182
44.6101 -24.0667 -1.6182 0.8164
45.9368 -24.0537 -1.6554 0.8126
46.6233 -24.0470 -1.6748 0.8106
47.3262 -24.0402 -1.6947 0.8086
50.3197 -24.0139 -1.7800 0.8000
51.1115 -24.0048 -1.8028 0.7977
51.9237 -23.9955 -1.8261 0.7954
53.6072 -23.9735 -1.8748 0.7906
56.3307 -23.9475 -1.9541 0.7827
58.2785 -23.9289 -2.0113 0.7771
61.4161 -23.8956 -2.1039 0.7682
63.6798 -23.8737 -2.1712 0.7617
64.8561 -23.8583 -2.2062 0.7584
63.3622 2.7446 -2.0248 0.7758
69.5300 3.8739 -2.2232 0.7568
66.5674 4.1220 -2.1293 0.7657
66.4833 4.5296 -2.1274 0.7659
62.8182 4.6704 -2.0110 0.7772
63.3632 5.1051 -2.0295 0.7754
63.3786 5.8962 -2.0321 0.7751
64.7554 6.8330 -2.0788 0.7706
64.7625 7.2391 -2.0804 0.7704
64.7696 7.6457 -2.0822 0.7703
64.7838 8.4611 -2.0858 0.7699
64.7910 8.8698 -2.0878 0.7697
60.8425 9.0972 -1.9640 0.7818
64.8197 10.5131 -2.0964 0.7689
64.8269 10.9262 -2.0988 0.7687
64.8413 11.7552 -2.1038 0.7682
64.8559 12.5882 -2.1092 0.7677
20.1709 4.1746 -0.6576 0.9209
64.7569 13.8204 -2.1140 0.7672
27.2843 6.3544 -0.8944 0.8939
27.1998 6.6904 -0.8942 0.8940
25.9100 6.5433 -0.8532 0.8986
25.4336 6.5906 -0.8388 0.9002
25.4756 6.7699 -0.8415 0.8999
25.4788 6.9397 -0.8431 0.8997
23.9646 7.1686 -0.7986 0.9047
21.5065 6.7242 -0.7194 0.9138
21.3134 6.8087 -0.7143 0.9143
20.7559 7.2011 -0.7014 0.9158
20.7110 7.3293 -0.7014 0.9158
18.9775 6.8482 -0.6441 0.9224
18.7865 6.9109 -0.6391 0.9230
18.1715 6.8126 -0.6196 0.9253
18.0874 6.9089 -0.6181 0.9254
17.6504 7.1199 -0.6076 0.9267
17.5588 7.4646 -0.6091 0.9265
16.2442 7.0247 -0.5650 0.9316
16.1933 7.2418 -0.5663 0.9315
16.2368 7.5035 -0.5710 0.9309
14.8023 6.9520 -0.5221 0.9366
16.2441 7.8759 -0.5763 0.9303
14.5674 7.3998 -0.5216 0.9367
14.5129 7.5994 -0.5230 0.9365
14.5153 7.7154 -0.5248 0.9363
13.0746 7.0536 -0.4743 0.9423
14.5222 8.0681 -0.5304 0.9357
13.1709 7.4243 -0.4827 0.9413
12.9947 7.6461 -0.4813 0.9414
12.9964 7.7556 -0.4832 0.9412
11.6958 7.1772 -0.4381 0.9466
10.7534 6.8767 -0.4075 0.9502
10.6393 6.8968 -0.4048 0.9505
10.5267 6.9166 -0.4021 0.9508
10.3344 6.9748 -0.3981 0.9513
10.2058 7.0733 -0.3964 0.9515
10.0542 7.1538 -0.3939 0.9518
9.7099 7.3715 -0.3892 0.9524
9.6572 7.4261 -0.3889 0.9524
9.6046 7.4806 -0.3887 0.9524
9.5207 7.6063 -0.3890 0.9524
9.4528 7.7455 -0.3902 0.9523
9.3845 7.8855 -0.3913 0.9521
9.3948 7.9938 -0.3938 0.9518
9.3695 8.1742 -0.3970 0.9515
9.3322 8.4516 -0.4020 0.9509
9.3340 8.5590 -0.4043 0.9506
9.3359 8.6676 -0.4067 0.9503
9.3398 8.8888 -0.4116 0.9497
9.3458 9.2309 -0.4194 0.9488
9.3478 9.3478 -0.4220 0.9485
9.3651 10.3408 -0.4454 0.9457
9.3721 10.7426 -0.4551 0.9445
9.3745 10.8804 -0.4585 0.9441
9.3770 11.0204 -0.4620 0.9437
9.3871 11.6020 -0.4765 0.9420
9.3952 12.0628 -0.4881 0.9406
9.4036 12.5471 -0.5006 0.9392
9.4095 12.8839 -0.5093 0.9381
9.4219 13.5946 -0.5281 0.9359
9.4252 13.7805 -0.5330 0.9354
9.4353 14.3599 -0.5486 0.9335
4.7523 7.4315 -0.2816 0.9653
4.5916 7.2789 -0.2748 0.9661
4.3604 7.2052 -0.2689 0.9669
4.1909 7.1225 -0.2638 0.9675
4.1085 7.0823 -0.2614 0.9678
3.8590 6.9460 -0.2537 0.9687
3.7983 6.9374 -0.2525 0.9688
3.6785 6.9206 -0.2502 0.9691
3.6195 6.9123 -0.2491 0.9693
3.5030 6.8961 -0.2469 0.9695
3.4539 6.9048 -0.2465 0.9696
3.4049 6.9134 -0.2460 0.9696
3.3561 6.9220 -0.2456 0.9697
3.3075 6.9306 -0.2452 0.9697
3.2590 6.9392 -0.2448 0.9698
3.1626 6.9562 -0.2440 0.9699
3.0407 7.0315 -0.2446 0.9698
2.9987 7.0538 -0.2447 0.9698
2.9567 7.0762 -0.2448 0.9698
2.8725 7.1209 -0.2451 0.9697
2.8303 7.1434 -0.2453 0.9697
2.7881 7.1658 -0.2455 0.9697
2.7458 7.1883 -0.2457 0.9697
2.6609 7.2334 -0.2461 0.9696
2.5268 7.2830 -0.2461 0.9696
2.4896 7.3215 -0.2469 0.9695
2.4143 7.3994 -0.2485 0.9693
2.3764 7.4387 -0.2493 0.9692
2.2997 7.5182 -0.2510 0.9690
2.2615 7.5602 -0.2519 0.9689
2.1975 7.6914 -0.2554 0.9685
2.0981 7.8952 -0.2608 0.9678
2.0733 8.2097 -0.2703 0.9667
2.0039 8.3696 -0.2748 0.9661
1.9002 8.3937 -0.2748 0.9661
1.7963 8.4166 -0.2748 0.9661
1.6920 8.4381 -0.2748 0.9661
1.5875 8.4584 -0.2748 0.9661
1.3172 7.5308 -0.2441 0.9699
1.2083 7.4502 -0.2410 0.9702
1.1266 7.5350 -0.2432 0.9700
1.0792 7.5360 -0.2430 0.9700
1.0779 7.8738 -0.2537 0.9687
1.1014 8.4331 -0.2715 0.9665
1.0482 8.4314 -0.2712 0.9666
0.9533 8.5287 -0.2740 0.9662
0.8468 8.5305 -0.2737 0.9663
0.7938 8.5330 -0.2736 0.9663
0.7406 8.5324 -0.2734 0.9663
0.6345 8.5342 -0.2732 0.9663
0.5286 8.5361 -0.2730 0.9664
0.3170 8.5397 -0.2728 0.9664
0.1585 8.5425 -0.2728 0.9664
0.0000 8.5453 -0.2728 0.9664
-0.0522 8.4486 -0.2697 0.9668
-0.1045 8.4522 -0.2699 0.9667
-0.1443 7.7747 -0.2483 0.9694
-0.1870 7.5580 -0.2414 0.9702
-0.2775 7.4761 -0.2388 0.9705
-0.3743 7.5604 -0.2417 0.9702
-0.5624 7.5643 -0.2422 0.9701
-0.6095 7.5654 -0.2423 0.9701
-0.3757 4.0384 -0.1295 0.9839
-0.3820 3.8481 -0.1235 0.9846
-0.4061 3.8485 -0.1235 0.9846
-0.4544 3.8494 -0.1237 0.9846
-0.4778 3.8435 -0.1236 0.9846
-0.5458 3.8116 -0.1229 0.9847
-0.6721 3.8427 -0.1245 0.9845
-1.6091 8.5734 -0.2785 0.9657
-1.6642 8.5743 -0.2788 0.9656
-1.7544 8.4770 -0.2764 0.9659
-1.8100 8.4808 -0.2769 0.9659
-1.8657 8.4846 -0.2773 0.9658
-1.8694 7.8077 -0.2563 0.9684
-1.8723 7.6117 -0.2503 0.9691
-1.9163 7.5882 -0.2499 0.9692
-2.0021 7.5341 -0.2489 0.9693
-2.0447 7.5069 -0.2484 0.9693
-2.1689 7.5914 -0.2521 0.9689
-2.4746 8.4629 -0.2815 0.9653
-2.5892 8.4649 -0.2826 0.9652
-2.7048 8.4669 -0.2838 0.9651
-2.7289 8.3635 -0.2809 0.9654
-1.5698 4.4360 -0.1502 0.9813
-1.6206 4.0176 -0.1383 0.9828
-1.6218 3.9499 -0.1363 0.9831
-1.6241 3.8203 -0.1325 0.9835
-1.6252 3.7581 -0.1307 0.9837
-1.6262 3.6976 -0.1290 0.9840
-1.6273 3.6387 -0.1273 0.9842
-1.6283 3.5814 -0.1256 0.9844
-1.6292 3.5255 -0.1240 0.9846
-1.6302 3.4710 -0.1224 0.9848
-1.5909 3.2302 -0.1150 0.9857
-1.6548 3.1132 -0.1126 0.9860
-1.7083 3.1202 -0.1136 0.9859
-3.9375 7.0873 -0.2588 0.9681
-3.9908 7.0798 -0.2595 0.9680
-4.0982 7.0647 -0.2607 0.9678
-2.6621 4.5243 -0.1676 0.9792
-2.6632 4.4628 -0.1659 0.9794
-2.7663 4.4459 -0.1672 0.9793
-2.8310 4.4879 -0.1694 0.9790
-3.2404 4.4950 -0.1769 0.9781
-3.2834 4.4958 -0.1777 0.9780
-3.3268 4.4965 -0.1786 0.9779
-3.3706 4.4973 -0.1794 0.9778
-3.4148 4.4981 -0.1803 0.9777
-3.5045 4.4996 -0.1821 0.9774
-3.5961 4.5012 -0.1839 0.9772
-3.6896 4.5029 -0.1859 0.9770
-3.7370 4.5037 -0.1868 0.9769
-3.7906 4.4550 -0.1867 0.9769
-3.8630 4.4835 -0.1889 0.9766
-3.9822 4.5080 -0.1920 0.9762
-4.0329 4.5088 -0.1931 0.9761
-4.1361 4.5106 -0.1954 0.9758
-4.1886 4.5116 -0.1965 0.9757
-4.2417 4.5125 -0.1977 0.9755
-4.3499 4.5144 -0.2001 0.9752
-4.4050 4.5154 -0.2014 0.9751
-4.5745 4.5183 -0.2053 0.9746
-4.6325 4.5193 -0.2066 0.9744
-4.7508 4.5214 -0.2094 0.9741
-4.8750 4.5261 -0.2124 0.9737
-4.9720 4.5029 -0.2141 0.9735
-4.9226 4.3486 -0.2097 0.9741
-4.9263 4.1394 -0.2054 0.9746
-4.9272 4.0884 -0.2044 0.9747
-4.9289 3.9880 -0.2024 0.9749
-4.9179 3.7817 -0.1981 0.9755
-4.8893 3.7118 -0.1960 0.9757
-4.8909 3.6186 -0.1942 0.9759
-10.8114 7.7938 -0.4255 0.9481
-10.9397 7.5819 -0.4249 0.9481
-10.9431 7.3856 -0.4215 0.9485
-11.1573 7.4301 -0.4280 0.9478
-12.5718 8.0395 -0.4764 0.9420
-12.5734 7.9314 -0.4746 0.9422
-12.5368 7.8004 -0.4714 0.9426
-12.6678 7.6662 -0.4727 0.9425
-13.6993 8.1751 -0.5093 0.9382
-13.7591 8.0958 -0.5097 0.9381
-13.9990 7.7774 -0.5113 0.9379
-14.3712 7.4123 -0.5162 0.9373
-14.4838 7.3573 -0.5186 0.9371
-15.2738 7.4054 -0.5419 0.9343
-52.2283 24.5294 -1.8422 0.7938
-52.2203 23.7419 -1.8314 0.7949
-17.6159 7.6179 -0.6127 0.9261
-17.7350 7.5396 -0.6152 0.9258
-52.2007 21.8115 -1.8062 0.7974
-52.1968 21.4318 -1.8014 0.7979
-52.1929 21.0540 -1.7967 0.7983
-52.1781 19.5617 -1.7790 0.8001
-52.1744 19.1932 -1.7748 0.8005
-52.1632 18.0977 -1.7627 0.8017
-52.1559 17.3754 -1.7551 0.8025
-52.1522 17.0166 -1.7514 0.8029
-52.1450 16.3035 -1.7442 0.8036
-52.1414 15.9491 -1.7408 0.8040
-52.1378 15.5960 -1.7374 0.8043
-52.1343 15.2444 -1.7341 0.8046
-52.1307 14.8940 -1.7309 0.8049
-52.1236 14.1971 -1.7247 0.8056
-52.1166 13.5051 -1.7188 0.8062
-52.1131 13.1607 -1.7160 0.8065
-52.1061 12.4755 -1.7105 0.8070
-52.0923 11.1175 -1.7005 0.8080
-52.0821 10.1089 -1.6938 0.8087
-52.0782 9.7743 -1.6916 0.8089
-52.0646 8.4444 -1.6839 0.8097
-52.0613 8.1137 -1.6821 0.8099
-52.0579 7.7838 -1.6804 0.8101
-52.0546 7.4545 -1.6788 0.8102
-52.0446 6.4702 -1.6743 0.8107
-52.0412 6.1432 -1.6730 0.8108
-52.0346 5.4907 -1.6704 0.8111
-52.0313 5.1653 -1.6693 0.8112
-52.0216 4.1913 -1.6662 0.8115
-52.0085 2.8977 -1.6630 0.8118
-52.0052 2.5750 -1.6623 0.8119
-52.0019 2.2526 -1.6617 0.8120
-51.9921 1.2864 -1.6604 0.8121
-51.9855 0.6430 -1.6598 0.8122
-46.7476 -0.2891 -1.8400 0.8293
-51.9628 -1.6073 -2.0462 0.8121
-49.5006 -2.4510 -1.9507 0.8200
-49.3355 -2.7488 -1.9448 0.8205
-49.1715 -3.0448 -1.9391 0.8210
-48.8462 -3.6316 -1.9279 0.8220
-48.3651 -4.4995 -1.9118 0.8233
-48.0488 -5.0702 -1.9017 0.8241
-47.5804 -5.9152 -1.8872 0.8254
-47.4258 -6.1940 -1.8825 0.8258
-47.2720 -6.4715 -1.8780 0.8261
-47.1190 -6.7477 -1.8735 0.8265
-46.9666 -7.0226 -1.8691 0.8269
-47.5687 -7.7152 -1.8967 0.8246
-48.3521 -8.1495 -1.9300 0.8218
-48.1194 -8.7236 -1.9248 0.8222
-47.8110 -9.2799 -1.9169 0.8229
-47.6578 -9.5564 -1.9131 0.8232
-47.5051 -9.8318 -1.9094 0.8235
-47.3531 -10.1061 -1.9058 0.8238
-46.9003 -10.9229 -1.8954 0.8247
-43.6314 -12.1744 -1.7829 0.8342
-43.4920 -12.4259 -1.7803 0.8344
-43.3469 -13.5528 -1.7876 0.8338
-42.8006 -13.6730 -1.7685 0.8354
-39.2606 -12.8102 -1.6255 0.8476
-38.8795 -12.9525 -1.6130 0.8487
-36.7766 -12.7594 -1.5322 0.8557
-36.3039 -12.8475 -1.5157 0.8571
-36.2641 -13.0863 -1.5174 0.8570
-36.1914 -13.3136 -1.5178 0.8570
-36.6837 -14.7977 -1.5569 0.8536
-36.6883 -15.0640 -1.5610 0.8532
-36.6930 -15.3318 -1.5652 0.8528
-36.7024 -15.8718 -1.5739 0.8521
-36.7167 -16.6932 -1.5875 0.8509
-36.7216 -16.9702 -1.5922 0.8505
-36.7264 -17.2489 -1.5970 0.8501
-36.7313 -17.5293 -1.6019 0.8497
-32.7876 -16.6551 -1.4475 0.8631
-32.5821 -16.8050 -1.4429 0.8635
-32.5925 -17.0663 -1.4481 0.8631
-36.7757 -19.5475 -1.6392 0.8464
-36.7808 -19.8429 -1.6449 0.8459
-36.7860 -20.1405 -1.6507 0.8455
-36.7965 -20.7418 -1.6625 0.8444
-36.8072 -21.3519 -1.6748 0.8434
-36.8234 -22.2845 -1.6941 0.8417
-36.8345 -22.9184 -1.7075 0.8406
-36.7546 -23.5041 -1.7171 0.8398
-36.8522 -24.2139 -1.7356 0.8382
-36.8639 -24.8797 -1.7505 0.8369
-36.8697 -25.2170 -1.7581 0.8363
-36.8757 -25.5572 -1.7659 0.8356
-36.8817 -25.9004 -1.7738 0.8349
-36.8938 -26.5963 -1.7901 0.8335
-36.9125 -27.6647 -1.8156 0.8314
-36.8361 -28.6899 -1.8377 0.8295
-36.9291 -29.1310 -1.8513 0.8284
-36.9490 -30.2755 -1.8801 0.8259
-33.2763 -27.6118 -1.7019 0.8411
-32.9372 -27.6762 -1.6932 0.8418
-32.6586 -27.7885 -1.6878 0.8423
-32.2604 -27.7954 -1.6760 0.8433
-31.4803 -27.8090 -1.6533 0.8452
-31.0981 -27.8157 -1.6422 0.8462
-30.7210 -27.8223 -1.6313 0.8471
-30.3488 -27.8288 -1.6207 0.8480
-29.9815 -27.8352 -1.6102 0.8489
-29.6188 -27.8415 -1.6000 0.8498
-29.2608 -27.8478 -1.5899 0.8507
-28.0585 -27.7136 -1.5523 0.8540
-27.7325 -27.7325 -1.5437 0.8547
-27.3741 -27.7149 -1.5332 0.8556
-26.8733 -27.8895 -1.5244 0.8564
-26.5481 -27.8951 -1.5157 0.8571
-26.2265 -27.9007 -1.5072 0.8579
-25.5941 -27.9118 -1.4905 0.8593
-25.2830 -27.9172 -1.4824 0.8600
-24.9753 -27.9226 -1.4745 0.8607
-24.3696 -27.9332 -1.4590 0.8621
-24.0715 -27.9384 -1.4515 0.8628
-23.4844 -27.9486 -1.4368 0.8640
-22.7749 -27.7951 -1.4144 0.8660
-22.2281 -27.8227 -1.4017 0.8671
-21.0013 -27.6635 -1.3670 0.8702
-20.7364 -27.6682 -1.3609 0.8707
-20.4738 -27.6727 -1.3549 0.8713
-19.9555 -27.6818 -1.3431 0.8723
-19.6996 -27.6863 -1.3374 0.8728
-19.0086 -27.0679 -1.3018 0.8760
-18.7606 -27.0690 -1.2963 0.8765
-18.5171 -27.0739 -1.2910 0.8770
-18.2774 -27.0814 -1.2860 0.8774
-17.5865 -27.1298 -1.2725 0.8786
-18.6523 -29.1676 -1.3627 0.8706
-17.2744 -27.3845 -1.2744 0.8784
-17.2728 -27.7609 -1.2869 0.8773
-16.3342 -27.3717 -1.2546 0.8802
-15.8272 -27.6764 -1.2549 0.8802
-15.6581 -27.7779 -1.2551 0.8802
-15.3198 -27.9812 -1.2556 0.8801
-14.2639 -27.2406 -1.2103 0.8842
-25.4292 -49.3033 -2.1835 0.8009
-14.3177 -28.6233 -1.2597 0.8798
-13.2280 -27.2831 -1.1934 0.8857
-13.7073 -28.7228 -1.2527 0.8804
-13.4916 -28.7266 -1.2492 0.8807
-13.2771 -28.7303 -1.2457 0.8810
-13.0638 -28.7340 -1.2424 0.8813
-12.2091 -27.3009 -1.1771 0.8872
-12.6406 -28.7414 -1.2358 0.8819
-10.2903 -24.6274 -1.0505 0.8987
-11.0954 -27.0227 -1.1498 0.8896
-11.6012 -28.7596 -1.2206 0.8833
-11.3964 -28.7631 -1.2177 0.8835
-10.9894 -28.7702 -1.2122 0.8840
-10.7874 -28.7738 -1.2095 0.8843
-9.9885 -28.7899 -1.1994 0.8852
-9.4002 -28.8096 -1.1928 0.8858
-8.3160 -28.4399 -1.1663 0.8881
-7.7268 -27.0446 -1.1070 0.8935
-7.7490 -28.4498 -1.1606 0.8887
-7.6609 -28.8283 -1.1740 0.8874
-7.2820 -28.8349 -1.1706 0.8878
-6.9054 -28.8415 -1.1673 0.8881
-6.5336 -28.8605 -1.1647 0.8883
-6.1595 -28.8611 -1.1615 0.8886
-5.9724 -28.8578 -1.1599 0.8887
-5.7872 -28.8610 -1.1586 0.8888
-4.9165 -27.1197 -1.0848 0.8955
-5.0503 -28.8739 -1.1537 0.8893
-4.5015 -28.8835 -1.1506 0.8896
-3.9554 -28.8930 -1.1478 0.8898
-3.7740 -28.8962 -1.1470 0.8899
-3.5927 -28.8993 -1.1462 0.8900
-2.8701 -28.9120 -1.1436 0.8902
-2.5100 -28.9182 -1.1425 0.8903
-2.3302 -28.9214 -1.1420 0.8903
-1.7004 -27.4599 -1.0829 0.8957
-1.7331 -31.1062 -1.2262 0.8827
-2.4613 -49.7090 -1.9589 0.8194
-0.6153 -49.7500 -1.9583 0.8194
-0.3076 -49.7550 -1.9584 0.8194
0.6157 -49.7701 -1.9591 0.8193
0.9236 -49.7751 -1.9595 0.8193
1.1497 -46.4687 -1.8295 0.8302
1.4375 -46.4737 -1.8301 0.8302
1.5047 -20.2391 -0.7988 0.9220
1.7565 -20.2364 -0.7995 0.9219
1.8823 -20.2333 -0.7998 0.9219
2.0083 -20.2301 -0.8002 0.9218
2.5163 -20.2410 -0.8028 0.9216
2.6436 -20.2412 -0.8034 0.9215
2.7710 -20.2413 -0.8041 0.9215
3.4117 -20.2424 -0.8080 0.9211
3.6651 -20.2165 -0.8087 0.9210
4.0592 -20.2434 -0.8126 0.9207
4.1896 -20.2433 -0.8136 0.9206
4.3202 -20.2428 -0.8147 0.9205
4.5830 -20.2443 -0.8170 0.9203
4.8433 -20.2288 -0.8187 0.9201
7.5391 -29.0937 -1.1829 0.8866
7.3457 -27.6422 -1.1257 0.8918
7.7277 -27.6950 -1.1318 0.8913
8.5121 -29.1106 -1.1938 0.8857
8.7089 -29.1141 -1.1961 0.8855
9.1081 -29.1314 -1.2013 0.8850
9.3074 -29.1348 -1.2038 0.8848
9.5075 -29.1383 -1.2064 0.8845
9.9067 -29.1350 -1.2112 0.8841
10.3130 -29.1421 -1.2167 0.8836
10.6071 -28.2930 -1.1893 0.8861
9.4048 -24.6215 -1.0374 0.8999
9.4995 -24.4155 -1.0312 0.9004
8.4434 -20.9313 -0.8883 0.9136
8.4574 -20.2407 -0.8634 0.9159
8.4641 -19.9097 -0.8515 0.9170
9.0961 -21.0340 -0.9020 0.9123
9.2558 -21.0453 -0.9049 0.9121
9.4166 -21.0565 -0.9079 0.9118
9.5745 -21.0592 -0.9105 0.9116
10.1680 -20.9717 -0.9173 0.9109
10.1787 -19.7347 -0.8740 0.9149
15.3052 -29.2292 -1.2986 0.8763
15.5385 -29.2333 -1.3030 0.8759
16.7294 -29.2541 -1.3264 0.8738
17.1617 -29.1669 -1.3320 0.8733
16.5919 -27.8036 -1.2744 0.8784
17.1582 -27.9608 -1.2912 0.8769
17.8376 -28.2773 -1.3159 0.8747
32.1202 -46.9629 -2.2394 0.7963
32.6986 -46.5621 -2.2394 0.7963
33.2719 -46.1541 -2.2394 0.7963
21.4476 -28.9890 -1.4193 0.8656
21.6327 -28.8641 -1.4197 0.8655
21.8180 -28.7392 -1.4202 0.8655
22.1888 -28.4891 -1.4213 0.8654
26.8230 -33.5741 -1.6914 0.8420
23.9763 -29.6333 -1.5003 0.8585
23.0700 -28.1552 -1.4327 0.8644
23.7228 -27.8804 -1.4408 0.8637
24.1600 -27.6928 -1.4465 0.8632
24.4680 -27.6982 -1.4546 0.8625
24.7795 -27.7036 -1.4629 0.8618
25.8239 -27.8152 -1.4939 0.8590
25.9508 -27.6074 -1.4913 0.8593
28.0913 -28.0913 -1.5636 0.8530
28.3170 -27.9688 -1.5665 0.8527
28.6759 -27.9751 -1.5768 0.8518
29.4080 -27.9879 -1.5979 0.8500
29.7815 -27.9945 -1.6088 0.8491
30.7489 -27.8476 -1.6328 0.8470
31.1411 -27.8541 -1.6445 0.8460
32.7678 -27.8813 -1.6934 0.8418
33.4566 -28.1126 -1.7200 0.8395
35.0882 -27.6789 -1.7590 0.8362
27.7032 -20.4964 -1.3564 0.8711
27.7222 -20.2464 -1.3511 0.8716
27.8549 -19.8196 -1.3456 0.8721
28.0002 -19.6633 -1.3467 0.8720
28.6322 -19.5829 -1.3653 0.8703
29.3463 -19.5430 -1.3877 0.8684
30.0837 -19.5014 -1.4111 0.8663
30.4607 -19.4793 -1.4231 0.8652
30.7894 -19.4222 -1.4328 0.8644
31.1111 -19.3573 -1.4422 0.8636
31.6174 -19.4021 -1.4601 0.8620
42.3612 -25.6357 -1.9489 0.8202
42.3807 -24.5851 -1.9284 0.8219
42.7280 -24.0853 -1.9305 0.8217
43.9691 -24.0731 -1.9730 0.8182
45.2662 -24.0604 -2.0177 0.8145
47.3265 -24.0403 -2.0893 0.8086
48.7953 -24.0319 -2.1408 0.8043
49.5486 -24.0232 -2.1673 0.8022
51.1125 -24.0053 -2.2226 0.7977
51.6481 -23.8683 -2.2394 0.7963
51.7948 -23.5484 -2.2394 0.7963
52.2227 -22.5834 -2.2394 0.7963
52.3614 -22.2601 -2.2394 0.7963
52.4980 -21.9358 -2.2394 0.7963
54.5510 -21.6139 -2.3095 0.7907
56.9012 -21.3325 -2.3918 0.7841
57.1607 -20.6271 -2.3918 0.7841
57.4115 -19.9185 -2.3918 0.7841
57.6534 -19.2069 -2.3918 0.7841
57.7711 -18.8500 -2.3918 0.7841
58.1108 -17.7750 -2.3918 0.7841
58.2197 -17.4153 -2.3918 0.7841
58.5327 -16.3323 -2.3918 0.7841
58.6326 -15.9699 -2.3918 0.7841
58.7303 -15.6071 -2.3918 0.7841
58.8256 -15.2436 -2.3918 0.7841
58.9188 -14.8795 -2.3918 0.7841
59.0983 -14.1496 -2.3918 0.7841
59.4302 -12.6836 -2.3918 0.7841
59.5825 -11.9475 -2.3918 0.7841
59.7939 -10.8401 -2.3918 0.7841
60.0438 -9.3578 -2.3918 0.7841
60.1005 -8.9863 -2.3918 0.7841
60.2070 -8.2423 -2.3918 0.7841
60.3496 -7.1240 -2.3918 0.7841
60.4331 -6.3770 -2.3918 0.7841
60.5410 -5.2547 -2.3918 0.7841
60.6280 -4.1307 -2.3918 0.7841
60.6745 -3.3805 -2.3918 0.7841
60.7117 -2.6304 -2.3918 0.7841
60.7268 -2.2550 -2.3918 0.7841
60.7395 -1.8783 -2.3918 0.7841
60.7674 -0.3758 -2.3918 0.7841
60.7674 0.3758 -2.3918 0.7841
60.7639 0.7516 -2.3918 0.7841
60.7581 1.1273 -2.3918 0.7841
60.7117 2.6298 -2.3918 0.7841
60.5275 2.9970 -2.3853 0.7846
60.1647 3.3521 -2.3717 0.7857
59.3868 4.4153 -2.3439 0.7879
59.2225 4.7715 -2.3385 0.7883
58.9963 5.4884 -2.3321 0.7888
58.9348 5.8506 -2.3310 0.7889
58.9032 6.2155 -2.3313 0.7889
58.8946 6.5830 -2.3325 0.7888
58.8887 7.3209 -2.3357 0.7886
58.8857 7.6906 -2.3374 0.7884
58.8766 8.8032 -2.3431 0.7880
58.8735 9.1753 -2.3452 0.7878
58.8704 9.5482 -2.3474 0.7876
58.8642 10.2958 -2.3520 0.7872
58.8610 10.6709 -2.3545 0.7870
58.8578 11.0467 -2.3571 0.7868
20.2128 4.0531 -0.8114 0.9208
20.1701 4.1744 -0.8107 0.9209
29.2025 6.6110 -1.1785 0.8870
27.1543 6.3241 -1.0974 0.8944
25.7665 6.1691 -1.0428 0.8994
25.7663 6.3378 -1.0444 0.8992
25.4304 6.4222 -1.0324 0.9003
25.4724 6.6007 -1.0357 0.9000
23.9155 6.5139 -0.9756 0.9055
23.9568 6.6846 -0.9789 0.9052
21.7694 6.6588 -0.8960 0.9129
21.1463 6.8998 -0.8755 0.9148
20.8452 7.0880 -0.8666 0.9156
20.7410 7.1959 -0.8641 0.9159
20.6373 7.3033 -0.8616 0.9161
18.4065 6.7711 -0.7719 0.9245
