ply
format ascii 1.0
element vertex 1596
property float32 x
property float32 y
property float32 z
property float32 I
end_header
8.8726 -2.5350 -2.4020 0.9626
8.8881 -2.4801 -2.4020 0.9626
8.9033 -2.4250 -2.4020 0.9626
8.9326 -2.3148 -2.4020 0.9626
8.9606 -2.2041 -2.4020 0.9626
8.9999 -2.0375 -2.4020 0.9626
9.0475 -1.8142 -2.4020 0.9626
9.0586 -1.7583 -2.4020 0.9626
9.0693 -1.7022 -2.4020 0.9626
9.0796 -1.6461 -2.4020 0.9626
9.0897 -1.5899 -2.4020 0.9626
9.1086 -1.4773 -2.4020 0.9626
9.1262 -1.3646 -2.4020 0.9626
9.1424 -1.2516 -2.4020 0.9626
9.1499 -1.1951 -2.4020 0.9626
9.1572 -1.1384 -2.4020 0.9626
9.1640 -1.0818 -2.4020 0.9626
9.1705 -1.0251 -2.4020 0.9626
9.1767 -0.9684 -2.4020 0.9626
9.1880 -0.8548 -2.4020 0.9626
9.1931 -0.7979 -2.4020 0.9626
9.1978 -0.7411 -2.4020 0.9626
9.2164 -0.4564 -2.4020 0.9626
9.2190 -0.3994 -2.4020 0.9626
9.2213 -0.3423 -2.4020 0.9626
9.2261 -0.1712 -2.4020 0.9626
9.2269 -0.1142 -2.4020 0.9626
9.2275 -0.0571 -2.4020 0.9626
9.2277 -0.0000 -2.4020 0.9626
9.2232 0.2853 -2.4020 0.9626
9.2164 0.4563 -2.4020 0.9626
9.2100 0.5703 -2.4020 0.9626
9.1978 0.7410 -2.4020 0.9626
9.1931 0.7979 -2.4020 0.9626
9.1767 0.9683 -2.4020 0.9626
9.1572 1.1384 -2.4020 0.9626
9.1499 1.1950 -2.4020 0.9626
9.1424 1.2516 -2.4020 0.9626
9.1345 1.3081 -2.4020 0.9626
9.1262 1.3645 -2.4020 0.9626
9.1176 1.4209 -2.4020 0.9626
8.6401 1.4562 -2.2808 0.9644
8.5036 1.5416 -2.2496 0.9649
8.4838 1.6467 -2.2496 0.9649
8.4735 1.6991 -2.2496 0.9649
8.4518 1.8037 -2.2496 0.9649
8.4405 1.8560 -2.2496 0.9649
8.4046 2.0122 -2.2496 0.9649
8.3920 2.0642 -2.2496 0.9649
8.3384 2.2711 -2.2496 0.9649
8.3097 2.3741 -2.2496 0.9649
8.2642 2.5278 -2.2496 0.9649
8.2484 2.5789 -2.2496 0.9649
8.2323 2.6299 -2.2496 0.9649
8.2159 2.6807 -2.2496 0.9649
8.1992 2.7315 -2.2496 0.9649
8.1647 2.8327 -2.2496 0.9649
8.1471 2.8831 -2.2496 0.9649
7.9533 3.3811 -2.2496 0.9649
7.9322 3.4302 -2.2496 0.9649
7.8892 3.5281 -2.2496 0.9649
7.8672 3.5768 -2.2496 0.9649
7.8299 3.6773 -2.2517 0.9649
7.8069 3.7257 -2.2517 0.9649
7.7601 3.8219 -2.2517 0.9649
7.7363 3.8698 -2.2517 0.9649
7.7122 3.9175 -2.2517 0.9649
7.6127 4.1070 -2.2516 0.9649
7.5612 4.2008 -2.2516 0.9649
7.5351 4.2474 -2.2516 0.9649
7.4548 4.3864 -2.2515 0.9649
7.4275 4.4324 -2.2515 0.9649
7.3999 4.4782 -2.2515 0.9649
7.3439 4.5693 -2.2515 0.9649
7.2577 4.7047 -2.2514 0.9649
7.2284 4.7494 -2.2514 0.9649
7.1989 4.7940 -2.2514 0.9649
7.1389 4.8826 -2.2514 0.9649
7.1085 4.9266 -2.2513 0.9649
6.9526 5.1439 -2.2513 0.9649
6.9206 5.1868 -2.2513 0.9649
6.8884 5.2294 -2.2512 0.9649
6.8231 5.3142 -2.2512 0.9649
6.7900 5.3562 -2.2512 0.9649
6.7232 5.4397 -2.2512 0.9649
6.6894 5.4812 -2.2512 0.9649
6.5165 5.6852 -2.2511 0.9649
6.4812 5.7253 -2.2511 0.9649
6.4456 5.7653 -2.2511 0.9649
6.4098 5.8050 -2.2510 0.9649
6.3737 5.8445 -2.2510 0.9649
6.3374 5.8837 -2.2510 0.9649
6.3009 5.9228 -2.2510 0.9649
6.2641 5.9616 -2.2510 0.9649
6.2271 6.0002 -2.2510 0.9649
6.1523 6.0767 -2.2509 0.9649
6.0766 6.1522 -2.2509 0.9649
5.9613 6.2638 -2.2509 0.9649
5.9224 6.3005 -2.2509 0.9649
5.8440 6.3732 -2.2508 0.9649
5.8044 6.4092 -2.2508 0.9649
5.4801 6.6880 -2.2507 0.9649
5.3969 6.7552 -2.2507 0.9649
5.3550 6.7884 -2.2507 0.9649
5.3129 6.8214 -2.2507 0.9649
5.1853 6.9187 -2.2506 0.9649
5.0560 7.0135 -2.2506 0.9649
5.0125 7.0446 -2.2506 0.9649
4.9688 7.0754 -2.2505 0.9649
4.7921 7.1960 -2.2505 0.9649
4.6577 7.2835 -2.2505 0.9649
4.3604 7.2052 -2.1922 0.9658
4.2748 7.1635 -2.1715 0.9661
4.1085 7.0823 -2.1313 0.9667
4.0276 7.0429 -2.1119 0.9670
3.7082 6.9764 -2.0566 0.9679
3.6217 7.0218 -2.0566 0.9679
3.5782 7.0441 -2.0566 0.9679
3.5269 7.0509 -2.0522 0.9679
3.4821 7.0701 -2.0515 0.9679
3.4322 7.0789 -2.0478 0.9680
3.3787 7.0798 -2.0420 0.9681
3.3255 7.0808 -2.0363 0.9682
3.2727 7.0817 -2.0307 0.9683
3.2201 7.0826 -2.0252 0.9684
3.0407 7.0315 -1.9941 0.9688
2.9987 7.0538 -1.9952 0.9688
2.9567 7.0762 -1.9963 0.9688
2.9146 7.0986 -1.9975 0.9688
2.8303 7.1434 -2.0001 0.9687
2.7881 7.1658 -2.0015 0.9687
2.7034 7.2109 -2.0046 0.9687
2.5638 7.2446 -2.0004 0.9687
2.4972 7.4957 -2.0566 0.9679
2.3110 7.5552 -2.0566 0.9679
2.2642 7.5694 -2.0566 0.9679
2.2297 7.6254 -2.0680 0.9677
2.1975 7.6914 -2.0822 0.9675
2.1648 7.7584 -2.0967 0.9673
2.0981 7.8952 -2.1265 0.9668
2.0537 8.3492 -2.2381 0.9651
2.0125 8.4055 -2.2498 0.9649
1.9084 8.4297 -2.2498 0.9649
1.2985 5.9051 -1.5738 0.9753
1.2604 5.9058 -1.5719 0.9753
1.2224 5.9066 -1.5701 0.9754
1.1845 5.9073 -1.5683 0.9754
1.1467 5.9081 -1.5666 0.9754
1.0955 6.7546 -1.7812 0.9721
1.0263 6.8641 -1.8066 0.9717
0.9831 6.8651 -1.8052 0.9717
0.9400 6.8660 -1.8039 0.9718
0.8538 6.8679 -1.8015 0.9718
0.4020 3.5964 -0.9420 0.9852
0.3347 3.5976 -0.9405 0.9852
0.3123 3.5980 -0.9401 0.9852
0.2676 3.5988 -0.9394 0.9852
0.2229 3.5996 -0.9388 0.9852
0.1560 3.6007 -0.9382 0.9852
0.1337 3.6011 -0.9380 0.9852
0.1114 3.6015 -0.9379 0.9852
0.0891 3.6019 -0.9379 0.9852
0.0000 3.6035 -0.9380 0.9852
-0.0223 3.6038 -0.9381 0.9852
-0.0669 3.6046 -0.9385 0.9852
-0.0892 3.6050 -0.9387 0.9852
-0.1118 3.6147 -0.9414 0.9852
-0.2202 5.9313 -1.5450 0.9758
-0.2937 5.9322 -1.5461 0.9757
-0.4043 5.9337 -1.5481 0.9757
-0.5152 5.9361 -1.5510 0.9757
-0.5895 5.9379 -1.5532 0.9756
-0.4556 3.8598 -1.0117 0.9841
-0.4772 3.8387 -1.0069 0.9841
-0.4994 3.8240 -1.0039 0.9842
-0.5930 3.8048 -1.0024 0.9842
-0.6179 3.8099 -1.0047 0.9842
-0.6432 3.8162 -1.0074 0.9841
-0.7012 3.8678 -1.0232 0.9839
-1.3407 6.9075 -1.8316 0.9713
-1.3852 6.9081 -1.8340 0.9713
-1.4746 6.9093 -1.8390 0.9712
-1.7002 6.9123 -1.8529 0.9710
-1.7435 6.9038 -1.8535 0.9710
-1.7862 6.8929 -1.8535 0.9710
-1.9254 6.7391 -1.8244 0.9714
-1.9277 6.5924 -1.7879 0.9720
-1.9298 6.4514 -1.7528 0.9726
-1.9357 6.0592 -1.6557 0.9741
-1.9464 5.9654 -1.6334 0.9744
-1.5665 4.3409 -1.2013 0.9811
-1.6001 4.2681 -1.1865 0.9813
-1.6218 3.9500 -1.1115 0.9825
-1.6241 3.8203 -1.0806 0.9830
-1.6252 3.7581 -1.0658 0.9832
-1.6273 3.6387 -1.0376 0.9837
-1.6283 3.5814 -1.0241 0.9839
-1.6292 3.5255 -1.0110 0.9841
-1.6302 3.4710 -0.9982 0.9843
-1.5843 3.3198 -0.9575 0.9849
-1.5909 3.2302 -0.9373 0.9852
-1.6726 3.1468 -0.9276 0.9854
-1.7083 3.1202 -0.9260 0.9854
-3.9375 7.0873 -2.1104 0.9670
-4.0982 7.0647 -2.1260 0.9668
-2.6843 4.4356 -1.3496 0.9788
-2.7393 4.4639 -1.3633 0.9786
-2.8704 4.4886 -1.3869 0.9782
-2.9501 4.4899 -1.3985 0.9780
-2.9905 4.4906 -1.4044 0.9779
-3.0313 4.4914 -1.4105 0.9779
-3.0723 4.4921 -1.4166 0.9778
-3.2404 4.4950 -1.4424 0.9774
-3.3268 4.4965 -1.4560 0.9771
-3.3706 4.4973 -1.4629 0.9770
-3.4148 4.4981 -1.4700 0.9769
-3.5045 4.4996 -1.4846 0.9767
-3.5501 4.5004 -1.4921 0.9766
-3.5961 4.5012 -1.4997 0.9765
-3.6426 4.5020 -1.5074 0.9763
-3.6896 4.5029 -1.5153 0.9762
-3.7370 4.5037 -1.5234 0.9761
-3.7906 4.4550 -1.5227 0.9761
-3.8630 4.4835 -1.5405 0.9758
-3.8172 4.3754 -1.5115 0.9763
-3.8137 4.3171 -1.4994 0.9765
-3.8146 4.2647 -1.4894 0.9766
-3.8155 4.2130 -1.4795 0.9768
-3.8164 4.1620 -1.4699 0.9769
-3.8181 4.0619 -1.4511 0.9772
-3.8190 4.0128 -1.4420 0.9774
-3.8396 3.9357 -1.4313 0.9775
-6.1494 6.0738 -2.2499 0.9649
-6.1869 6.0357 -2.2499 0.9649
-4.5832 4.4162 -1.6567 0.9740
-4.5884 4.3668 -1.6488 0.9742
-4.6038 4.3275 -1.6447 0.9742
-4.6242 4.2931 -1.6425 0.9743
-4.6732 4.2322 -1.6412 0.9743
-4.7039 4.2074 -1.6428 0.9743
-4.7346 4.1824 -1.6444 0.9742
-4.8005 4.1361 -1.6494 0.9741
-4.8361 4.1149 -1.6529 0.9741
-6.6172 5.5602 -2.2498 0.9649
-6.6514 5.5191 -2.2498 0.9649
-6.6854 5.4779 -2.2498 0.9649
-4.9103 3.8735 -1.6280 0.9745
-4.9179 3.7817 -1.6149 0.9747
-4.8901 3.6650 -1.5907 0.9751
-4.9932 3.6467 -1.6095 0.9748
-7.0110 5.0541 -2.2498 0.9649
-7.0421 5.0106 -2.2498 0.9649
-7.0729 4.9670 -2.2497 0.9649
-7.1338 4.8791 -2.2497 0.9649
-7.2231 4.7459 -2.2497 0.9649
-7.3098 4.6111 -2.2497 0.9649
-7.3382 4.5658 -2.2497 0.9649
-7.3662 4.5203 -2.2497 0.9649
-7.3940 4.4746 -2.2497 0.9649
-7.4216 4.4288 -2.2497 0.9649
-7.4488 4.3828 -2.2497 0.9649
-7.4757 4.3367 -2.2497 0.9649
-7.5288 4.2438 -2.2497 0.9649
-7.5548 4.1972 -2.2497 0.9649
-7.6061 4.1034 -2.2496 0.9649
-7.6314 4.0563 -2.2496 0.9649
-7.6563 4.0090 -2.2496 0.9649
-7.6809 3.9615 -2.2496 0.9649
-7.7530 3.8184 -2.2496 0.9649
-7.7996 3.7221 -2.2496 0.9649
-7.8892 3.5281 -2.2496 0.9649
-7.9109 3.4792 -2.2496 0.9649
-7.9533 3.3811 -2.2496 0.9649
-8.0147 3.2330 -2.2496 0.9649
-8.0733 3.0837 -2.2496 0.9649
-8.0922 3.0337 -2.2496 0.9649
-8.1108 2.9836 -2.2496 0.9649
-8.1992 2.7315 -2.2496 0.9649
-4.6322 1.4798 -1.2658 0.9801
-4.6348 1.4491 -1.2640 0.9801
-4.6374 1.4185 -1.2623 0.9802
-4.6423 1.3574 -1.2590 0.9802
-4.6447 1.3270 -1.2574 0.9802
-4.6471 1.2967 -1.2558 0.9803
-4.6516 1.2361 -1.2528 0.9803
-4.6579 1.1457 -1.2486 0.9804
-4.6599 1.1157 -1.2473 0.9804
-4.6618 1.0857 -1.2460 0.9804
-4.6637 1.0558 -1.2447 0.9804
-4.6656 1.0259 -1.2435 0.9804
-4.6674 0.9961 -1.2423 0.9805
-4.6739 0.8772 -1.2379 0.9805
-4.6754 0.8476 -1.2369 0.9806
-4.6783 0.7885 -1.2350 0.9806
-5.7318 0.7486 -1.5047 0.9764
-5.7316 0.7125 -1.5034 0.9764
-5.7313 0.6766 -1.5022 0.9764
-5.7309 0.6047 -1.5000 0.9765
-5.7307 0.5689 -1.4990 0.9765
-5.7303 0.4974 -1.4972 0.9765
-5.7296 0.3192 -1.4938 0.9766
-5.7294 0.2127 -1.4924 0.9766
-5.7292 0.1417 -1.4918 0.9766
-5.7292 0.1063 -1.4916 0.9766
-5.7387 0.0000 -1.5394 0.9765
-5.7387 -0.0355 -1.5394 0.9765
-5.7387 -0.0710 -1.5395 0.9765
-5.7388 -0.1065 -1.5397 0.9765
-5.7388 -0.1420 -1.5399 0.9765
-5.7389 -0.1775 -1.5402 0.9765
-5.7390 -0.2486 -1.5409 0.9765
-5.7393 -0.3554 -1.5425 0.9765
-5.7396 -0.4267 -1.5439 0.9764
-5.7398 -0.4624 -1.5447 0.9764
-5.7399 -0.4982 -1.5455 0.9764
-5.7401 -0.5340 -1.5464 0.9764
-5.7405 -0.6057 -1.5484 0.9764
-5.7407 -0.6417 -1.5495 0.9764
-5.7410 -0.6777 -1.5507 0.9763
-5.7412 -0.7137 -1.5519 0.9763
-5.7415 -0.7499 -1.5532 0.9763
-4.6663 -0.7865 -1.2694 0.9806
-4.6353 -0.8403 -1.2637 0.9807
-4.6338 -0.8697 -1.2647 0.9807
-4.6306 -0.9285 -1.2669 0.9806
-4.6271 -0.9875 -1.2692 0.9806
-4.6253 -1.0171 -1.2704 0.9806
-4.6196 -1.1060 -1.2742 0.9805
-4.6155 -1.1656 -1.2770 0.9805
-4.6066 -1.2854 -1.2829 0.9804
-4.6042 -1.3154 -1.2845 0.9804
-4.6018 -1.3456 -1.2861 0.9803
-4.5888 -1.4973 -1.2948 0.9802
-8.4954 -2.8302 -2.4020 0.9636
-8.4414 -2.9873 -2.4020 0.9636
-8.4228 -3.0395 -2.4020 0.9636
-8.3845 -3.1434 -2.4020 0.9636
-8.3450 -3.2469 -2.4020 0.9636
-8.3248 -3.2984 -2.4020 0.9636
-8.3042 -3.3498 -2.4020 0.9636
-8.2833 -3.4011 -2.4020 0.9636
-8.2622 -3.4523 -2.4020 0.9636
-8.2407 -3.5033 -2.4020 0.9636
-8.2188 -3.5542 -2.4020 0.9636
-8.1742 -3.6556 -2.4020 0.9636
-8.1284 -3.7564 -2.4020 0.9636
-8.0573 -3.9066 -2.4020 0.9636
-8.0330 -3.9563 -2.4020 0.9636
-8.0084 -4.0059 -2.4020 0.9636
-7.9582 -4.1047 -2.4020 0.9636
-7.9327 -4.1538 -2.4020 0.9636
-7.9068 -4.2028 -2.4020 0.9636
-7.8807 -4.2517 -2.4020 0.9636
-7.8005 -4.3971 -2.4020 0.9636
-7.7455 -4.4932 -2.4020 0.9636
-7.7176 -4.5410 -2.4020 0.9636
-7.6893 -4.5887 -2.4020 0.9636
-7.6320 -4.6834 -2.4020 0.9636
-7.5735 -4.7775 -2.4020 0.9636
-7.5138 -4.8708 -2.4020 0.9636
-7.4835 -4.9171 -2.4020 0.9636
-7.4530 -4.9633 -2.4020 0.9636
-7.4222 -5.0093 -2.4020 0.9636
-7.3596 -5.1007 -2.4020 0.9636
-7.3280 -5.1462 -2.4020 0.9636
-7.2960 -5.1913 -2.4020 0.9636
-7.2637 -5.2364 -2.4020 0.9636
-7.2312 -5.2812 -2.4020 0.9636
-7.1320 -5.4144 -2.4020 0.9636
-7.0303 -5.5458 -2.4020 0.9636
-6.9959 -5.5892 -2.4020 0.9636
-6.9612 -5.6323 -2.4020 0.9636
-6.8910 -5.7180 -2.4020 0.9636
-6.8198 -5.8028 -2.4020 0.9636
-6.7475 -5.8867 -2.4020 0.9636
-6.6741 -5.9697 -2.4020 0.9636
-6.5622 -6.0925 -2.4020 0.9636
-6.5244 -6.1330 -2.4020 0.9636
-6.4864 -6.1732 -2.4020 0.9636
-6.4481 -6.2132 -2.4020 0.9636
-6.3708 -6.2925 -2.4020 0.9636
-6.3317 -6.3317 -2.4020 0.9636
-6.2924 -6.3708 -2.4020 0.9636
-6.2529 -6.4096 -2.4020 0.9636
-6.2132 -6.4481 -2.4020 0.9636
-6.1329 -6.5245 -2.4020 0.9636
-6.0925 -6.5623 -2.4020 0.9636
-5.9697 -6.6742 -2.4020 0.9636
-5.8867 -6.7475 -2.4020 0.9636
-5.8448 -6.7838 -2.4020 0.9636
-5.8028 -6.8198 -2.4020 0.9636
-5.5892 -6.9959 -2.4020 0.9636
-5.5022 -7.0645 -2.4020 0.9636
-5.2812 -7.2313 -2.4020 0.9636
-5.2364 -7.2638 -2.4020 0.9636
-5.1007 -7.3597 -2.4020 0.9636
-5.0093 -7.4222 -2.4020 0.9636
-4.9171 -7.4836 -2.4020 0.9636
-4.6361 -7.6608 -2.4020 0.9636
-4.5886 -7.6894 -2.4020 0.9636
-4.4452 -7.7731 -2.4020 0.9636
-4.3970 -7.8005 -2.4020 0.9636
-4.3487 -7.8276 -2.4020 0.9636
-4.2516 -7.8808 -2.4020 0.9636
-4.2027 -7.9069 -2.4020 0.9636
-4.1538 -7.9327 -2.4020 0.9636
-4.0553 -7.9835 -2.4020 0.9636
-4.0059 -8.0084 -2.4020 0.9636
-3.9563 -8.0330 -2.4020 0.9636
-3.9065 -8.0574 -2.4020 0.9636
-3.7060 -8.1515 -2.4020 0.9636
-3.6049 -8.1967 -2.4020 0.9636
-3.5033 -8.2407 -2.4020 0.9636
-3.2984 -8.3248 -2.4020 0.9636
-3.1434 -8.3846 -2.4020 0.9636
-3.0915 -8.4039 -2.4020 0.9636
-2.8827 -8.4777 -2.4020 0.9636
-2.8300 -8.4954 -2.4020 0.9636
-2.7776 -8.5127 -2.4020 0.9636
-2.7250 -8.5298 -2.4020 0.9636
-2.6721 -8.5464 -2.4020 0.9636
-2.5662 -8.5789 -2.4020 0.9636
-2.5131 -8.5945 -2.4020 0.9636
-2.4066 -8.6250 -2.4020 0.9636
-2.2997 -8.6541 -2.4020 0.9636
-2.1925 -8.6819 -2.4020 0.9636
-2.0850 -8.7083 -2.4020 0.9636
-2.0311 -8.7211 -2.4020 0.9636
-1.9231 -8.7455 -2.4020 0.9636
-1.8148 -8.7686 -2.4020 0.9636
-1.7605 -8.7797 -2.4020 0.9636
-1.6518 -8.8008 -2.4020 0.9636
-1.5973 -8.8108 -2.4020 0.9636
-1.5428 -8.8205 -2.4020 0.9636
-1.4336 -8.8389 -2.4020 0.9636
-1.2694 -8.8640 -2.4020 0.9636
-1.1596 -8.8790 -2.4020 0.9636
-1.1047 -8.8860 -2.4020 0.9636
-1.0497 -8.8927 -2.4020 0.9636
-0.9947 -8.8990 -2.4020 0.9636
-0.8846 -8.9106 -2.4020 0.9636
-0.8295 -8.9159 -2.4020 0.9636
-0.7191 -8.9255 -2.4020 0.9636
-0.6639 -8.9298 -2.4020 0.9636
-0.6087 -8.9337 -2.4020 0.9636
-0.4428 -8.9435 -2.4020 0.9636
-0.3322 -8.9483 -2.4020 0.9636
-0.2215 -8.9517 -2.4020 0.9636
-0.0554 -8.9543 -2.4020 0.9636
0.0000 -8.9544 -2.4020 0.9636
0.1108 -8.9538 -2.4020 0.9636
0.2215 -8.9517 -2.4020 0.9636
0.2768 -8.9502 -2.4020 0.9636
0.4428 -8.9435 -2.4020 0.9636
0.7191 -8.9255 -2.4020 0.9636
0.7743 -8.9209 -2.4020 0.9636
0.8295 -8.9160 -2.4020 0.9636
0.9397 -8.9050 -2.4020 0.9636
0.9947 -8.8990 -2.4020 0.9636
1.1047 -8.8861 -2.4020 0.9636
1.1596 -8.8790 -2.4020 0.9636
1.2145 -8.8717 -2.4020 0.9636
1.2694 -8.8640 -2.4020 0.9636
1.3242 -8.8560 -2.4020 0.9636
1.5428 -8.8205 -2.4020 0.9636
1.5973 -8.8108 -2.4020 0.9636
1.6518 -8.8007 -2.4020 0.9636
1.9232 -8.7455 -2.4020 0.9636
1.9773 -8.7334 -2.4020 0.9636
2.0850 -8.7083 -2.4020 0.9636
2.1388 -8.6953 -2.4020 0.9636
2.1925 -8.6819 -2.4020 0.9636
2.2997 -8.6541 -2.4020 0.9636
2.3532 -8.6397 -2.4020 0.9636
2.4600 -8.6100 -2.4020 0.9636
2.6192 -8.5628 -2.4020 0.9636
2.6721 -8.5464 -2.4020 0.9636
2.7249 -8.5297 -2.4020 0.9636
2.7776 -8.5128 -2.4020 0.9636
2.8826 -8.4777 -2.4020 0.9636
3.0393 -8.4228 -2.4020 0.9636
3.0914 -8.4038 -2.4020 0.9636
3.1952 -8.3650 -2.4020 0.9636
3.2468 -8.3451 -2.4020 0.9636
3.3498 -8.3042 -2.4020 0.9636
3.4011 -8.2834 -2.4020 0.9636
3.4523 -8.2622 -2.4020 0.9636
3.5542 -8.2188 -2.4020 0.9636
3.6049 -8.1967 -2.4020 0.9636
3.6556 -8.1743 -2.4020 0.9636
3.8066 -8.1050 -2.4020 0.9636
3.9065 -8.0573 -2.4020 0.9636
3.9563 -8.0330 -2.4020 0.9636
4.0059 -8.0084 -2.4020 0.9636
4.2028 -7.9069 -2.4020 0.9636
4.2516 -7.8807 -2.4020 0.9636
4.3002 -7.8543 -2.4020 0.9636
4.3487 -7.8275 -2.4020 0.9636
4.3970 -7.8005 -2.4020 0.9636
4.4452 -7.7732 -2.4020 0.9636
4.4932 -7.7455 -2.4020 0.9636
4.5410 -7.7176 -2.4020 0.9636
4.5886 -7.6894 -2.4020 0.9636
4.6361 -7.6608 -2.4020 0.9636
4.6834 -7.6320 -2.4020 0.9636
4.7305 -7.6029 -2.4020 0.9636
4.8242 -7.5438 -2.4020 0.9636
4.8707 -7.5138 -2.4020 0.9636
4.9171 -7.4836 -2.4020 0.9636
4.9633 -7.4530 -2.4020 0.9636
5.1007 -7.3597 -2.4020 0.9636
5.1913 -7.2960 -2.4020 0.9636
5.3702 -7.1654 -2.4020 0.9636
5.4144 -7.1321 -2.4020 0.9636
5.5892 -6.9960 -2.4020 0.9636
5.6753 -6.9262 -2.4020 0.9636
5.7180 -6.8910 -2.4020 0.9636
5.7605 -6.8555 -2.4020 0.9636
5.8867 -6.7475 -2.4020 0.9636
5.9283 -6.7110 -2.4020 0.9636
6.0108 -6.6371 -2.4020 0.9636
6.0925 -6.5623 -2.4020 0.9636
6.1329 -6.5245 -2.4020 0.9636
6.2132 -6.4481 -2.4020 0.9636
6.2529 -6.4096 -2.4020 0.9636
6.2924 -6.3708 -2.4020 0.9636
6.3708 -6.2924 -2.4020 0.9636
6.4095 -6.2529 -2.4020 0.9636
6.4481 -6.2132 -2.4020 0.9636
6.6371 -6.0109 -2.4020 0.9636
6.6741 -5.9697 -2.4020 0.9636
6.8910 -5.7180 -2.4020 0.9636
6.9262 -5.6753 -2.4020 0.9636
6.9612 -5.6323 -2.4020 0.9636
7.0303 -5.5458 -2.4020 0.9636
7.0645 -5.5022 -2.4020 0.9636
7.1320 -5.4145 -2.4020 0.9636
7.1654 -5.3703 -2.4020 0.9636
7.1984 -5.3258 -2.4020 0.9636
7.2312 -5.2812 -2.4020 0.9636
7.3280 -5.1461 -2.4020 0.9636
7.4221 -5.0093 -2.4020 0.9636
7.4835 -4.9171 -2.4020 0.9636
7.5438 -4.8242 -2.4020 0.9636
7.6029 -4.7305 -2.4020 0.9636
7.6320 -4.6834 -2.4020 0.9636
7.7455 -4.4932 -2.4020 0.9636
7.8542 -4.3002 -2.4020 0.9636
7.8807 -4.2516 -2.4020 0.9636
7.9582 -4.1047 -2.4020 0.9636
7.9835 -4.0554 -2.4020 0.9636
8.0084 -4.0059 -2.4020 0.9636
8.0813 -3.8567 -2.4020 0.9636
8.1284 -3.7564 -2.4020 0.9636
8.1515 -3.7061 -2.4020 0.9636
8.1742 -3.6556 -2.4020 0.9636
8.1967 -3.6050 -2.4020 0.9636
8.2407 -3.5033 -2.4020 0.9636
8.2622 -3.4523 -2.4020 0.9636
8.2833 -3.4011 -2.4020 0.9636
8.3248 -3.2984 -2.4020 0.9636
8.3649 -3.1952 -2.4020 0.9636
8.3845 -3.1434 -2.4020 0.9636
8.4038 -3.0915 -2.4020 0.9636
8.4414 -2.9873 -2.4020 0.9636
8.4597 -2.9351 -2.4020 0.9636
8.4777 -2.8827 -2.4020 0.9636
8.5464 -2.6721 -2.4020 0.9636
8.5628 -2.6192 -2.4020 0.9636
8.6249 -2.4066 -2.4020 0.9636
8.6818 -2.1925 -2.4020 0.9636
8.7334 -1.9771 -2.4020 0.9636
8.7572 -1.8690 -2.4020 0.9636
8.7686 -1.8148 -2.4020 0.9636
8.7904 -1.7062 -2.4020 0.9636
8.8007 -1.6518 -2.4020 0.9636
8.8108 -1.5973 -2.4020 0.9636
8.8205 -1.5428 -2.4020 0.9636
8.8389 -1.4336 -2.4020 0.9636
8.8476 -1.3789 -2.4020 0.9636
8.8560 -1.3242 -2.4020 0.9636
8.8640 -1.2694 -2.4020 0.9636
8.8717 -1.2145 -2.4020 0.9636
8.8790 -1.1596 -2.4020 0.9636
8.8927 -1.0498 -2.4020 0.9636
8.8990 -0.9947 -2.4020 0.9636
8.9050 -0.9397 -2.4020 0.9636
8.9106 -0.8846 -2.4020 0.9636
8.9159 -0.8295 -2.4020 0.9636
8.9209 -0.7743 -2.4020 0.9636
8.9255 -0.7191 -2.4020 0.9636
8.9298 -0.6639 -2.4020 0.9636
8.9405 -0.4982 -2.4020 0.9636
8.9460 -0.3875 -2.4020 0.9636
8.9501 -0.2769 -2.4020 0.9636
8.9529 -0.1662 -2.4020 0.9636
8.9537 -0.1108 -2.4020 0.9636
8.9542 -0.0554 -2.4020 0.9636
8.9544 -0.0000 -2.4020 0.9636
8.9542 0.0553 -2.4020 0.9636
8.9537 0.1107 -2.4020 0.9636
8.9517 0.2214 -2.4020 0.9636
8.9482 0.3321 -2.4020 0.9636
8.9460 0.3875 -2.4020 0.9636
8.9405 0.4981 -2.4020 0.9636
8.9298 0.6639 -2.4020 0.9636
8.9255 0.7191 -2.4020 0.9636
8.9209 0.7743 -2.4020 0.9636
8.9159 0.8294 -2.4020 0.9636
8.9106 0.8846 -2.4020 0.9636
8.9050 0.9396 -2.4020 0.9636
8.8990 0.9947 -2.4020 0.9636
8.8790 1.1596 -2.4020 0.9636
8.8640 1.2693 -2.4020 0.9636
8.8560 1.3241 -2.4020 0.9636
8.5791 1.4459 -2.3338 0.9646
8.3260 1.4563 -2.2673 0.9656
8.2326 1.5979 -2.2496 0.9659
8.2226 1.6487 -2.2496 0.9659
8.2122 1.6996 -2.2496 0.9659
8.2016 1.7503 -2.2496 0.9659
8.1906 1.8010 -2.2496 0.9659
8.1558 1.9526 -2.2496 0.9659
8.1435 2.0031 -2.2496 0.9659
8.1310 2.0534 -2.2496 0.9659
8.1050 2.1538 -2.2496 0.9659
8.0345 2.4033 -2.2496 0.9659
8.0195 2.4530 -2.2496 0.9659
8.0042 2.5025 -2.2496 0.9659
7.9726 2.6013 -2.2496 0.9659
7.9564 2.6506 -2.2496 0.9659
7.9398 2.6997 -2.2496 0.9659
7.9230 2.7488 -2.2496 0.9659
7.8884 2.8466 -2.2496 0.9659
7.8526 2.9439 -2.2496 0.9659
7.8155 3.0408 -2.2496 0.9659
7.7966 3.0891 -2.2496 0.9659
7.7773 3.1373 -2.2496 0.9659
7.7178 3.2810 -2.2496 0.9659
7.6766 3.3762 -2.2496 0.9659
7.6556 3.4236 -2.2496 0.9659
7.5686 3.6119 -2.2496 0.9659
7.5532 3.6621 -2.2517 0.9658
7.5303 3.7087 -2.2517 0.9658
7.5072 3.7552 -2.2517 0.9658
7.4601 3.8477 -2.2516 0.9658
7.4361 3.8937 -2.2516 0.9658
7.4118 3.9396 -2.2516 0.9658
7.3873 3.9854 -2.2516 0.9658
7.3625 4.0309 -2.2516 0.9658
7.3373 4.0764 -2.2516 0.9658
7.3119 4.1216 -2.2516 0.9658
7.2603 4.2117 -2.2515 0.9658
7.2341 4.2565 -2.2515 0.9658
7.1808 4.3456 -2.2515 0.9658
7.1537 4.3899 -2.2515 0.9658
7.0988 4.4780 -2.2514 0.9658
7.0709 4.5218 -2.2514 0.9658
7.0144 4.6088 -2.2514 0.9658
6.9857 4.6521 -2.2514 0.9658
6.9568 4.6952 -2.2514 0.9658
6.9275 4.7380 -2.2514 0.9658
6.8981 4.7808 -2.2513 0.9658
6.8081 4.9078 -2.2513 0.9658
6.7468 4.9916 -2.2513 0.9658
6.7157 5.0332 -2.2513 0.9658
6.6844 5.0746 -2.2512 0.9658
6.6529 5.1158 -2.2512 0.9658
6.6211 5.1568 -2.2512 0.9658
6.5890 5.1977 -2.2512 0.9658
6.4583 5.3589 -2.2511 0.9658
6.4250 5.3987 -2.2511 0.9658
6.3236 5.5168 -2.2511 0.9658
6.2200 5.6331 -2.2511 0.9658
6.1850 5.6714 -2.2510 0.9658
6.1144 5.7474 -2.2510 0.9658
6.0787 5.7851 -2.2510 0.9658
5.8224 6.0425 -2.2509 0.9658
5.7471 6.1140 -2.2509 0.9658
5.7092 6.1494 -2.2509 0.9658
5.6326 6.2194 -2.2508 0.9658
5.5552 6.2885 -2.2508 0.9658
5.5161 6.3227 -2.2508 0.9658
5.3978 6.4239 -2.2508 0.9658
5.3179 6.4901 -2.2507 0.9658
5.2776 6.5228 -2.2507 0.9658
5.2371 6.5553 -2.2507 0.9658
5.0318 6.7138 -2.2506 0.9658
4.9902 6.7448 -2.2506 0.9658
4.9063 6.8059 -2.2506 0.9659
4.8641 6.8361 -2.2506 0.9659
4.7364 6.9251 -2.2505 0.9659
4.6070 7.0116 -2.2505 0.9659
4.5635 7.0399 -2.2505 0.9659
4.4761 7.0957 -2.2505 0.9659
4.4321 7.1232 -2.2505 0.9659
4.3879 7.1505 -2.2504 0.9659
4.1909 7.1225 -2.2168 0.9664
4.1085 7.0823 -2.1963 0.9667
4.0276 7.0429 -2.1763 0.9670
3.9202 6.9546 -2.1415 0.9675
3.8590 6.9460 -2.1315 0.9676
3.7983 6.9374 -2.1216 0.9678
3.7381 6.9290 -2.1119 0.9679
3.6195 6.9123 -2.0930 0.9682
3.5609 6.9041 -2.0838 0.9683
3.5030 6.8961 -2.0748 0.9685
3.3561 6.9220 -2.0635 0.9686
3.3075 6.9306 -2.0600 0.9687
3.2162 6.9596 -2.0566 0.9687
3.1146 6.9646 -2.0465 0.9689
2.9146 7.0986 -2.0584 0.9687
2.7881 7.1658 -2.0626 0.9687
2.7458 7.1883 -2.0641 0.9686
2.6609 7.2334 -2.0675 0.9686
2.5638 7.2446 -2.0615 0.9687
2.4896 7.3215 -2.0744 0.9685
2.4521 7.3604 -2.0811 0.9684
2.3764 7.4387 -2.0948 0.9682
2.3382 7.4783 -2.1018 0.9681
2.2997 7.5182 -2.1090 0.9680
2.2297 7.6254 -2.1311 0.9676
2.1648 7.7584 -2.1607 0.9672
2.1184 7.9717 -2.2126 0.9664
2.0923 8.0744 -2.2375 0.9660
1.9529 8.1568 -2.2499 0.9659
1.8519 8.1803 -2.2499 0.9659
1.2990 5.9072 -1.6225 0.9753
1.2609 5.9080 -1.6205 0.9753
1.2229 5.9088 -1.6186 0.9753
1.1472 5.9103 -1.6150 0.9754
1.0799 5.9568 -1.6239 0.9752
1.0900 6.4671 -1.7592 0.9732
1.0956 6.7547 -1.8356 0.9721
0.9795 6.8399 -1.8535 0.9718
0.9372 6.8458 -1.8535 0.9718
0.8100 6.8620 -1.8535 0.9718
0.3817 3.6171 -0.9756 0.9851
0.3591 3.6174 -0.9751 0.9851
0.3140 3.6182 -0.9742 0.9851
0.2915 3.6186 -0.9738 0.9851
0.2466 3.6194 -0.9731 0.9851
0.2241 3.6198 -0.9729 0.9851
0.1793 3.6206 -0.9724 0.9851
0.1569 3.6210 -0.9722 0.9851
0.0894 3.6121 -0.9692 0.9851
0.0670 3.6125 -0.9692 0.9851
0.0000 3.6138 -0.9694 0.9851
-0.0224 3.6241 -0.9722 0.9851
-0.0448 3.6245 -0.9723 0.9851
-0.0673 3.6249 -0.9725 0.9851
-0.0900 3.6357 -0.9756 0.9851
-0.2203 5.9334 -1.5927 0.9757
-0.2570 5.9339 -1.5932 0.9757
-0.3307 5.9349 -1.5945 0.9757
-0.3675 5.9354 -1.5952 0.9757
-0.4044 5.9359 -1.5960 0.9757
-0.4414 5.9365 -1.5968 0.9756
-0.4784 5.9374 -1.5978 0.9756
-0.5897 5.9400 -1.6012 0.9756
-0.4346 3.8883 -1.0495 0.9839
-0.4994 3.8238 -1.0344 0.9842
-0.5217 3.8107 -1.0317 0.9842
-0.5687 3.8033 -1.0316 0.9842
-0.5930 3.8047 -1.0329 0.9842
-0.6431 3.8159 -1.0380 0.9841
-0.6710 3.8362 -1.0447 0.9840
-0.7011 3.8674 -1.0543 0.9839
-1.2746 6.7910 -1.8535 0.9718
-1.3166 6.7830 -1.8535 0.9718
-1.4003 6.7662 -1.8535 0.9718
-1.4839 6.7484 -1.8535 0.9718
-1.5256 6.7391 -1.8535 0.9718
-1.6556 6.7308 -1.8593 0.9717
-1.7000 6.7314 -1.8624 0.9717
-1.7445 6.7320 -1.8655 0.9716
-1.7891 6.7326 -1.8687 0.9716
-1.9240 6.7344 -1.8788 0.9714
-1.9356 6.0590 -1.7062 0.9740
-1.9472 5.9677 -1.6839 0.9743
-1.5684 4.5205 -1.2835 0.9804
-1.5665 4.3409 -1.2379 0.9811
-1.6001 4.2681 -1.2227 0.9813
-1.6182 4.1590 -1.1971 0.9817
-1.6206 4.0176 -1.1621 0.9822
-1.6218 3.9500 -1.1454 0.9825
-1.6230 3.8842 -1.1292 0.9827
-1.6241 3.8203 -1.1135 0.9830
-1.6252 3.7581 -1.0983 0.9832
-1.6273 3.6387 -1.0692 0.9836
-1.6292 3.5255 -1.0418 0.9840
-1.5843 3.3198 -0.9867 0.9849
-1.5970 3.2939 -0.9820 0.9850
-1.5925 3.1351 -0.9433 0.9855
-1.6084 3.1184 -0.9412 0.9856
-1.6726 3.1468 -0.9560 0.9853
-1.6952 3.1423 -0.9577 0.9853
-4.0721 7.1207 -2.2004 0.9666
-2.6632 4.4628 -1.3941 0.9787
-2.6843 4.4356 -1.3908 0.9788
-2.7393 4.4639 -1.4049 0.9785
-2.8239 4.4766 -1.4198 0.9783
-2.9501 4.4899 -1.4411 0.9780
-2.9905 4.4906 -1.4473 0.9779
-3.0313 4.4914 -1.4535 0.9778
-3.1556 4.4935 -1.4729 0.9775
-3.1978 4.4943 -1.4796 0.9774
-3.2834 4.4958 -1.4934 0.9772
-3.5045 4.4996 -1.5299 0.9767
-3.5501 4.5004 -1.5376 0.9765
-3.6426 4.5020 -1.5534 0.9763
-3.7370 4.5037 -1.5698 0.9761
-3.7693 4.4858 -1.5717 0.9760
-3.8254 4.3848 -1.5609 0.9762
-4.0329 4.5088 -1.6227 0.9753
-4.0842 4.5097 -1.6321 0.9751
-3.8172 4.1116 -1.5050 0.9770
-3.8181 4.0618 -1.4954 0.9772
-4.3273 4.3812 -1.6518 0.9748
-4.5243 4.1487 -1.6466 0.9749
-4.5590 4.1288 -1.6499 0.9748
-4.5936 4.1087 -1.6532 0.9748
-4.6282 4.0885 -1.6565 0.9747
-4.6629 4.0680 -1.6599 0.9747
-4.8244 4.0032 -1.6816 0.9744
-6.4874 5.3156 -2.2498 0.9659
-6.5202 5.2754 -2.2498 0.9659
-6.5849 5.1944 -2.2498 0.9659
-4.8893 3.7118 -1.6467 0.9749
-4.8901 3.6650 -1.6393 0.9750
-4.9932 3.6467 -1.6586 0.9747
-6.8034 4.9045 -2.2498 0.9659
-6.9226 4.7346 -2.2497 0.9659
-7.0092 4.6054 -2.2497 0.9659
-7.0656 4.5183 -2.2497 0.9659
-7.1481 4.3864 -2.2497 0.9659
-7.2018 4.2976 -2.2497 0.9659
-7.2544 4.2082 -2.2497 0.9659
-7.3809 3.9819 -2.2496 0.9659
-7.4053 3.9361 -2.2496 0.9659
-7.5233 3.7052 -2.2496 0.9659
-7.5686 3.6119 -2.2496 0.9659
-7.5909 3.5651 -2.2496 0.9659
-7.6556 3.4236 -2.2496 0.9659
-7.6974 3.3287 -2.2496 0.9659
-7.7773 3.1373 -2.2496 0.9659
-7.7966 3.0891 -2.2496 0.9659
-7.8155 3.0408 -2.2496 0.9659
-7.8526 2.9439 -2.2496 0.9659
-7.8706 2.8953 -2.2496 0.9659
-7.9058 2.7977 -2.2496 0.9659
-7.9398 2.6997 -2.2496 0.9659
-7.9564 2.6506 -2.2496 0.9659
-4.5888 1.4973 -1.2948 0.9802
-4.5915 1.4668 -1.2930 0.9802
-4.5942 1.4364 -1.2912 0.9803
-4.6066 1.2854 -1.2829 0.9804
-4.6089 1.2553 -1.2814 0.9804
-4.6111 1.2254 -1.2798 0.9804
-4.6155 1.1656 -1.2770 0.9805
-4.6235 1.0467 -1.2716 0.9806
-4.6253 1.0171 -1.2704 0.9806
-4.6271 0.9875 -1.2692 0.9806
-4.6289 0.9580 -1.2680 0.9806
-4.6306 0.9285 -1.2669 0.9806
-4.6662 0.7865 -1.2694 0.9806
-5.2599 0.7865 -1.4266 0.9782
-5.7417 0.7860 -1.5546 0.9763
-5.7412 0.7138 -1.5519 0.9763
-5.7399 0.4982 -1.5455 0.9764
-5.7398 0.4625 -1.5447 0.9764
-5.7396 0.4267 -1.5439 0.9764
-5.7395 0.3910 -1.5432 0.9765
-5.7483 0.0000 -1.5878 0.9764
-5.7484 -0.1067 -1.5881 0.9764
-5.7485 -0.1778 -1.5886 0.9764
-5.7489 -0.3203 -1.5904 0.9764
-5.7491 -0.3917 -1.5917 0.9764
-5.7493 -0.4275 -1.5924 0.9764
-5.7494 -0.4632 -1.5933 0.9763
-5.7496 -0.4990 -1.5941 0.9763
-5.7498 -0.5349 -1.5951 0.9763
-5.7504 -0.6428 -1.5983 0.9763
-5.7507 -0.6788 -1.5995 0.9763
-5.7509 -0.7150 -1.6008 0.9762
-5.7512 -0.7511 -1.6021 0.9762
-5.7515 -0.7874 -1.6035 0.9762
-5.4920 -0.7865 -1.5325 0.9772
-5.2600 -0.7865 -1.4691 0.9782
-4.8491 -0.7865 -1.3569 0.9798
-4.6663 -0.7865 -1.3071 0.9806
-4.5972 -0.8041 -1.2891 0.9808
-4.5909 -0.9206 -1.2934 0.9808
-4.5856 -1.0083 -1.2969 0.9807
-4.5837 -1.0377 -1.2982 0.9807
-4.5798 -1.0965 -1.3008 0.9806
-4.5756 -1.1555 -1.3036 0.9806
-4.5735 -1.1851 -1.3050 0.9806
-4.5673 -1.3049 -1.3121 0.9805
-4.5660 -1.3351 -1.3140 0.9805
-4.5632 -1.3958 -1.3181 0.9804
-4.5618 -1.4263 -1.3202 0.9804
-4.5604 -1.4569 -1.3224 0.9803
-8.1977 -2.9011 -2.4020 0.9646
-8.1612 -3.0023 -2.4020 0.9646
-8.1234 -3.1029 -2.4020 0.9646
-8.1041 -3.1531 -2.4020 0.9646
-8.0844 -3.2032 -2.4020 0.9646
-8.0645 -3.2531 -2.4020 0.9646
-8.0442 -3.3030 -2.4020 0.9646
-8.0236 -3.3526 -2.4020 0.9646
-7.9600 -3.5009 -2.4020 0.9646
-7.9382 -3.5501 -2.4020 0.9646
-7.8710 -3.6966 -2.4020 0.9646
-7.8480 -3.7453 -2.4020 0.9646
-7.7285 -3.9862 -2.4020 0.9646
-7.5753 -4.2701 -2.4020 0.9646
-7.5487 -4.3169 -2.4020 0.9646
-7.5219 -4.3635 -2.4020 0.9646
-7.4947 -4.4099 -2.4020 0.9646
-7.4396 -4.5023 -2.4020 0.9646
-7.4116 -4.5482 -2.4020 0.9646
-7.3834 -4.5940 -2.4020 0.9646
-7.3548 -4.6395 -2.4020 0.9646
-7.2969 -4.7302 -2.4020 0.9646
-7.2378 -4.8200 -2.4020 0.9646
-7.0540 -5.0852 -2.4020 0.9646
-6.9906 -5.1721 -2.4020 0.9646
-6.9261 -5.2581 -2.4020 0.9646
-6.8935 -5.3008 -2.4020 0.9646
-6.7939 -5.4278 -2.4020 0.9646
-6.7263 -5.5115 -2.4020 0.9646
-6.6576 -5.5942 -2.4020 0.9646
-6.5879 -5.6762 -2.4020 0.9646
-6.5172 -5.7572 -2.4020 0.9646
-6.3728 -5.9166 -2.4020 0.9646
-6.3361 -5.9559 -2.4020 0.9646
-6.1108 -6.1869 -2.4020 0.9646
-5.9949 -6.2992 -2.4020 0.9646
-5.9559 -6.3361 -2.4020 0.9646
-5.9166 -6.3728 -2.4020 0.9646
-5.8771 -6.4093 -2.4020 0.9646
-5.7973 -6.4815 -2.4020 0.9646
-5.7571 -6.5172 -2.4020 0.9646
-5.7167 -6.5527 -2.4020 0.9646
-5.6761 -6.5879 -2.4020 0.9646
-5.5529 -6.6921 -2.4020 0.9646
-5.4697 -6.7603 -2.4020 0.9646
-5.3434 -6.8606 -2.4020 0.9646
-5.3008 -6.8935 -2.4020 0.9646
-5.0852 -7.0541 -2.4020 0.9646
-4.9975 -7.1165 -2.4020 0.9646
-4.9534 -7.1472 -2.4020 0.9646
-4.8647 -7.2079 -2.4020 0.9646
-4.8200 -7.2379 -2.4020 0.9646
-4.5482 -7.4117 -2.4020 0.9646
-4.5022 -7.4396 -2.4020 0.9646
-4.4099 -7.4948 -2.4020 0.9646
-4.3169 -7.5487 -2.4020 0.9646
-4.2701 -7.5753 -2.4020 0.9646
-4.2232 -7.6016 -2.4020 0.9646
-4.0339 -7.7037 -2.4020 0.9646
-3.9861 -7.7285 -2.4020 0.9646
-3.9383 -7.7530 -2.4020 0.9646
-3.8421 -7.8011 -2.4020 0.9646
-3.6967 -7.8711 -2.4020 0.9646
-3.6479 -7.8937 -2.4020 0.9646
-3.5009 -7.9601 -2.4020 0.9646
-3.4022 -8.0028 -2.4020 0.9646
-3.3029 -8.0442 -2.4020 0.9646
-3.0022 -8.1612 -2.4020 0.9646
-2.8503 -8.2155 -2.4020 0.9646
-2.5949 -8.2997 -2.4020 0.9646
-2.2853 -8.3903 -2.4020 0.9646
-2.2336 -8.4042 -2.4020 0.9646
-2.1292 -8.4312 -2.4020 0.9646
-2.0772 -8.4442 -2.4020 0.9646
-2.0247 -8.4569 -2.4020 0.9646
-1.9201 -8.4813 -2.4020 0.9646
-1.7625 -8.5155 -2.4020 0.9646
-1.5512 -8.5564 -2.4020 0.9646
-1.4452 -8.5750 -2.4020 0.9646
-1.3922 -8.5837 -2.4020 0.9646
-1.3391 -8.5922 -2.4020 0.9646
-1.2859 -8.6003 -2.4020 0.9646
-1.1795 -8.6156 -2.4020 0.9646
-1.0729 -8.6295 -2.4020 0.9646
-0.9657 -8.6421 -2.4020 0.9646
-0.8590 -8.6534 -2.4020 0.9646
-0.8055 -8.6585 -2.4020 0.9646
-0.6984 -8.6678 -2.4020 0.9646
-0.6447 -8.6720 -2.4020 0.9646
-0.4300 -8.6853 -2.4020 0.9646
-0.2151 -8.6932 -2.4020 0.9646
0.0538 -8.6957 -2.4020 0.9646
0.1075 -8.6953 -2.4020 0.9646
0.2151 -8.6933 -2.4020 0.9646
0.3226 -8.6899 -2.4020 0.9646
0.5911 -8.6758 -2.4020 0.9646
0.7519 -8.6633 -2.4020 0.9646
0.8055 -8.6585 -2.4020 0.9646
0.8590 -8.6534 -2.4020 0.9646
0.9660 -8.6421 -2.4020 0.9646
1.0194 -8.6360 -2.4020 0.9646
1.0728 -8.6295 -2.4020 0.9646
1.2326 -8.6081 -2.4020 0.9646
1.2860 -8.6003 -2.4020 0.9646
1.4983 -8.5659 -2.4020 0.9646
1.5512 -8.5565 -2.4020 0.9646
1.6041 -8.5467 -2.4020 0.9646
1.6569 -8.5366 -2.4020 0.9646
1.7097 -8.5262 -2.4020 0.9646
1.7624 -8.5154 -2.4020 0.9646
1.8150 -8.5044 -2.4020 0.9646
1.8676 -8.4930 -2.4020 0.9646
1.9202 -8.4813 -2.4020 0.9646
2.0247 -8.4569 -2.4020 0.9646
2.0768 -8.4442 -2.4020 0.9646
2.1292 -8.4312 -2.4020 0.9646
2.2332 -8.4042 -2.4020 0.9646
2.3889 -8.3614 -2.4020 0.9646
2.5436 -8.3156 -2.4020 0.9646
2.5949 -8.2997 -2.4020 0.9646
2.6462 -8.2835 -2.4020 0.9646
2.7485 -8.2501 -2.4020 0.9646
2.8503 -8.2155 -2.4020 0.9646
2.9010 -8.1977 -2.4020 0.9646
2.9517 -8.1796 -2.4020 0.9646
3.0022 -8.1612 -2.4020 0.9646
3.1029 -8.1235 -2.4020 0.9646
3.2531 -8.0645 -2.4020 0.9646
3.3526 -8.0237 -2.4020 0.9646
3.5500 -7.9383 -2.4020 0.9646
3.7453 -7.8480 -2.4020 0.9646
3.8421 -7.8011 -2.4020 0.9646
3.8902 -7.7772 -2.4020 0.9646
3.9383 -7.7530 -2.4020 0.9646
4.0338 -7.7037 -2.4020 0.9646
4.0814 -7.6786 -2.4020 0.9646
4.2232 -7.6016 -2.4020 0.9646
4.3635 -7.5219 -2.4020 0.9646
4.4562 -7.4673 -2.4020 0.9646
4.5482 -7.4117 -2.4020 0.9646
4.5939 -7.3834 -2.4020 0.9646
4.6395 -7.3549 -2.4020 0.9646
4.7751 -7.2675 -2.4020 0.9646
4.8200 -7.2379 -2.4020 0.9646
4.9091 -7.1777 -2.4020 0.9646
4.9534 -7.1472 -2.4020 0.9646
4.9975 -7.1164 -2.4020 0.9646
5.0852 -7.0541 -2.4020 0.9646
5.1287 -7.0225 -2.4020 0.9646
5.1720 -6.9906 -2.4020 0.9646
5.2581 -6.9261 -2.4020 0.9646
5.3857 -6.8274 -2.4020 0.9646
5.5942 -6.6576 -2.4020 0.9646
5.7167 -6.5527 -2.4020 0.9646
5.7571 -6.5172 -2.4020 0.9646
5.7973 -6.4815 -2.4020 0.9646
5.9559 -6.3361 -2.4020 0.9646
5.9949 -6.2992 -2.4020 0.9646
6.0338 -6.2620 -2.4020 0.9646
6.0724 -6.2245 -2.4020 0.9646
6.2245 -6.0724 -2.4020 0.9646
6.2619 -6.0338 -2.4020 0.9646
6.2991 -5.9950 -2.4020 0.9646
6.3728 -5.9166 -2.4020 0.9646
6.5527 -5.7167 -2.4020 0.9646
6.6576 -5.5942 -2.4020 0.9646
6.8274 -5.3857 -2.4020 0.9646
6.8934 -5.3008 -2.4020 0.9646
6.9906 -5.1721 -2.4020 0.9646
7.0225 -5.1287 -2.4020 0.9646
7.0540 -5.0852 -2.4020 0.9646
7.0853 -5.0415 -2.4020 0.9646
7.1164 -4.9976 -2.4020 0.9646
7.1472 -4.9535 -2.4020 0.9646
7.2079 -4.8647 -2.4020 0.9646
7.2378 -4.8200 -2.4020 0.9646
7.2675 -4.7752 -2.4020 0.9646
7.3548 -4.6395 -2.4020 0.9646
7.4116 -4.5482 -2.4020 0.9646
7.4396 -4.5023 -2.4020 0.9646
7.4673 -4.4562 -2.4020 0.9646
7.4947 -4.4099 -2.4020 0.9646
7.5219 -4.3635 -2.4020 0.9646
7.5753 -4.2701 -2.4020 0.9646
7.6015 -4.2232 -2.4020 0.9646
7.6786 -4.0814 -2.4020 0.9646
7.7037 -4.0339 -2.4020 0.9646
7.7285 -3.9861 -2.4020 0.9646
7.7772 -3.8903 -2.4020 0.9646
7.8011 -3.8421 -2.4020 0.9646
7.8480 -3.7453 -2.4020 0.9646
7.8710 -3.6967 -2.4020 0.9646
7.9161 -3.5991 -2.4020 0.9646
7.9382 -3.5501 -2.4020 0.9646
7.9600 -3.5009 -2.4020 0.9646
7.9815 -3.4516 -2.4020 0.9646
8.1041 -3.1531 -2.4020 0.9646
8.1796 -2.9517 -2.4020 0.9646
8.1977 -2.9011 -2.4020 0.9646
8.2155 -2.8504 -2.4020 0.9646
8.2330 -2.7995 -2.4020 0.9646
8.2501 -2.7485 -2.4020 0.9646
8.2669 -2.6974 -2.4020 0.9646
8.3156 -2.5436 -2.4020 0.9646
8.3311 -2.4921 -2.4020 0.9646
8.3613 -2.3889 -2.4020 0.9646
8.3759 -2.3372 -2.4020 0.9646
8.3902 -2.2853 -2.4020 0.9646
8.4312 -2.1293 -2.4020 0.9646
8.4569 -2.0248 -2.4020 0.9646
8.4813 -1.9201 -2.4020 0.9646
8.4930 -1.8676 -2.4020 0.9646
8.5262 -1.7097 -2.4020 0.9646
8.5366 -1.6570 -2.4020 0.9646
8.5467 -1.6041 -2.4020 0.9646
8.6003 -1.2859 -2.4020 0.9646
8.6081 -1.2328 -2.4020 0.9646
8.6155 -1.1795 -2.4020 0.9646
8.6359 -1.0195 -2.4020 0.9646
8.6421 -0.9660 -2.4020 0.9646
8.6479 -0.9126 -2.4020 0.9646
8.6585 -0.8055 -2.4020 0.9646
8.6678 -0.6984 -2.4020 0.9646
8.6719 -0.6448 -2.4020 0.9646
8.6824 -0.4838 -2.4020 0.9646
8.6899 -0.3226 -2.4020 0.9646
8.6917 -0.2689 -2.4020 0.9646
8.6944 -0.1614 -2.4020 0.9646
8.6952 -0.1076 -2.4020 0.9646
8.6959 -0.0001 -2.4020 0.9646
8.6952 0.1075 -2.4020 0.9646
8.6944 0.1613 -2.4020 0.9646
8.6932 0.2150 -2.4020 0.9646
8.6899 0.3226 -2.4020 0.9646
8.6824 0.4837 -2.4020 0.9646
8.6758 0.5911 -2.4020 0.9646
8.6719 0.6447 -2.4020 0.9646
8.6678 0.6983 -2.4020 0.9646
8.6633 0.7519 -2.4020 0.9646
8.6479 0.9125 -2.4020 0.9646
8.6421 0.9660 -2.4020 0.9646
8.6359 1.0194 -2.4020 0.9646
8.6294 1.0728 -2.4020 0.9646
8.6155 1.1795 -2.4020 0.9646
8.5922 1.3390 -2.4020 0.9646
8.2691 1.4463 -2.3188 0.9658
7.9852 1.6012 -2.2496 0.9668
7.9648 1.6998 -2.2496 0.9668
7.9541 1.7490 -2.2496 0.9668
7.9431 1.7982 -2.2496 0.9668
7.9319 1.8473 -2.2496 0.9668
7.9084 1.9452 -2.2496 0.9668
7.8962 1.9941 -2.2496 0.9668
7.8445 2.1888 -2.2496 0.9668
7.8025 2.3340 -2.2496 0.9668
7.7880 2.3821 -2.2496 0.9668
7.7731 2.4303 -2.2496 0.9668
7.7579 2.4783 -2.2496 0.9668
7.7106 2.6218 -2.2496 0.9668
7.6942 2.6694 -2.2496 0.9668
7.6776 2.7170 -2.2496 0.9668
7.6606 2.7644 -2.2496 0.9668
7.6434 2.8117 -2.2496 0.9668
7.6080 2.9060 -2.2496 0.9668
7.5899 2.9530 -2.2496 0.9668
7.5528 3.0467 -2.2496 0.9668
7.5338 3.0933 -2.2496 0.9668
7.4950 3.1862 -2.2496 0.9668
7.4751 3.2326 -2.2496 0.9668
7.4550 3.2787 -2.2496 0.9668
7.4346 3.3247 -2.2496 0.9668
7.3716 3.4621 -2.2496 0.9668
7.3501 3.5076 -2.2496 0.9668
7.3282 3.5530 -2.2496 0.9668
7.2904 3.6467 -2.2517 0.9667
7.2214 3.7813 -2.2516 0.9667
7.1978 3.8259 -2.2516 0.9667
7.1740 3.8703 -2.2516 0.9667
7.1255 3.9587 -2.2516 0.9667
7.0507 4.0901 -2.2515 0.9667
7.0252 4.1336 -2.2515 0.9667
6.9472 4.2631 -2.2515 0.9667
6.8939 4.3487 -2.2514 0.9667
6.8668 4.3912 -2.2514 0.9667
6.8119 4.4758 -2.2514 0.9667
6.7840 4.5178 -2.2514 0.9667
6.7559 4.5596 -2.2514 0.9667
6.6989 4.6428 -2.2513 0.9667
6.6700 4.6841 -2.2513 0.9667
6.5819 4.8069 -2.2513 0.9667
6.5520 4.8475 -2.2513 0.9667
6.5218 4.8879 -2.2513 0.9667
6.4914 4.9281 -2.2513 0.9667
6.3358 5.1263 -2.2512 0.9667
6.3039 5.1653 -2.2512 0.9667
6.2395 5.2429 -2.2511 0.9667
6.2069 5.2813 -2.2511 0.9667
6.1741 5.3196 -2.2511 0.9667
6.1078 5.3954 -2.2511 0.9667
6.0065 5.5077 -2.2511 0.9667
5.9723 5.5447 -2.2510 0.9667
5.9379 5.5815 -2.2510 0.9667
5.8332 5.6906 -2.2510 0.9667
5.7979 5.7266 -2.2510 0.9667
5.7623 5.7623 -2.2510 0.9667
5.7265 5.7978 -2.2509 0.9667
5.5812 5.9375 -2.2509 0.9667
5.5444 5.9719 -2.2509 0.9667
5.5073 6.0060 -2.2509 0.9667
5.2033 6.2707 -2.2508 0.9668
5.1644 6.3027 -2.2508 0.9668
5.1253 6.3345 -2.2507 0.9668
5.0860 6.3661 -2.2507 0.9668
5.0068 6.4284 -2.2507 0.9668
4.8055 6.5800 -2.2506 0.9668
4.7647 6.6095 -2.2506 0.9668
4.7237 6.6388 -2.2506 0.9668
4.5580 6.7535 -2.2506 0.9668
4.4318 6.8368 -2.2505 0.9668
4.3894 6.8640 -2.2505 0.9668
4.3042 6.9177 -2.2505 0.9668
4.2613 6.9441 -2.2505 0.9668
4.2182 6.9703 -2.2505 0.9668
4.1317 7.0219 -2.2504 0.9668
4.0881 7.0473 -2.2504 0.9668
3.9522 7.0114 -2.2232 0.9672
3.8293 6.9941 -2.2025 0.9675
3.6785 6.9206 -2.1649 0.9680
3.5609 6.9041 -2.1458 0.9683
3.5030 6.8961 -2.1365 0.9684
3.4539 6.9048 -2.1325 0.9685
3.4049 6.9134 -2.1287 0.9685
3.3075 6.9306 -2.1212 0.9686
3.2107 6.9477 -2.1141 0.9687
3.1626 6.9562 -2.1107 0.9688
3.0407 7.0315 -2.1161 0.9687
2.9146 7.0986 -2.1196 0.9687
2.8303 7.1434 -2.1224 0.9686
2.7881 7.1658 -2.1239 0.9686
2.7458 7.1883 -2.1255 0.9686
2.6075 7.2258 -2.1219 0.9686
2.5268 7.2830 -2.1293 0.9685
2.4521 7.3604 -2.1429 0.9683
2.3764 7.4387 -2.1570 0.9681
2.3382 7.4783 -2.1643 0.9680
2.2834 7.6335 -2.2008 0.9675
2.2513 7.6993 -2.2157 0.9673
2.2188 7.7659 -2.2310 0.9670
2.0920 7.8723 -2.2500 0.9668
2.0433 7.8850 -2.2500 0.9668
1.9944 7.8974 -2.2499 0.9668
1.8476 7.9330 -2.2499 0.9668
1.2614 5.9102 -1.6693 0.9752
1.1854 5.9117 -1.6655 0.9753
1.0798 5.9564 -1.6721 0.9752
1.0844 6.1995 -1.7384 0.9742
1.0900 6.4673 -1.8116 0.9732
1.0837 6.6819 -1.8698 0.9723
0.9994 6.6837 -1.8667 0.9723
0.8733 6.6865 -1.8626 0.9724
0.7895 6.6883 -1.8603 0.9724
0.3591 3.6174 -1.0041 0.9850
0.3140 3.6182 -1.0032 0.9850
0.2691 3.6190 -1.0024 0.9851
0.2466 3.6194 -1.0021 0.9851
0.2241 3.6198 -1.0018 0.9851
0.2017 3.6202 -1.0015 0.9851
0.1569 3.6210 -1.0011 0.9851
0.0896 3.6221 -1.0008 0.9851
0.0672 3.6225 -1.0008 0.9851
0.0448 3.6229 -1.0008 0.9851
0.0000 3.6237 -1.0009 0.9851
-0.0224 3.6241 -1.0011 0.9851
-0.0673 3.6249 -1.0014 0.9851
-0.0900 3.6357 -1.0046 0.9850
-0.2203 5.9356 -1.6407 0.9757
-0.4415 5.9387 -1.6449 0.9756
-0.5156 5.9405 -1.6470 0.9756
-0.5899 5.9422 -1.6494 0.9755
-0.4346 3.8881 -1.0807 0.9839
-0.5217 3.8105 -1.0624 0.9842
-0.5687 3.8032 -1.0622 0.9842
-0.7010 3.8670 -1.0855 0.9838
-1.2623 6.7255 -1.8902 0.9720
-1.3923 6.7273 -1.8976 0.9719
-1.4795 6.7284 -1.9029 0.9718
-1.5673 6.7296 -1.9086 0.9717
-1.6114 6.7302 -1.9116 0.9717
-1.7000 6.7314 -1.9177 0.9716
-1.7445 6.7320 -1.9209 0.9716
-1.7891 6.7326 -1.9242 0.9715
-1.8789 6.7338 -1.9311 0.9714
-1.9240 6.7344 -1.9346 0.9714
-1.9317 6.3152 -1.8242 0.9730
-1.9479 5.9700 -1.7346 0.9743
-1.9891 5.9707 -1.7383 0.9742
-2.0304 5.9714 -1.7422 0.9742
-1.5665 4.3409 -1.2747 0.9810
-1.6001 4.2681 -1.2591 0.9813
-1.6230 3.8842 -1.1628 0.9827
-1.6241 3.8203 -1.1466 0.9829
-1.6252 3.7581 -1.1310 0.9832
-1.6262 3.6976 -1.1158 0.9834
-1.6273 3.6387 -1.1010 0.9836
-1.6302 3.4710 -1.0592 0.9842
-1.5843 3.3198 -1.0161 0.9849
-1.5970 3.2939 -1.0111 0.9849
-1.5909 3.2302 -0.9946 0.9852
-1.5917 3.1821 -0.9828 0.9853
-1.5925 3.1351 -0.9713 0.9855
-1.6084 3.1184 -0.9692 0.9855
-1.6475 3.1464 -0.9810 0.9854
-1.7083 3.1202 -0.9826 0.9853
-3.9559 7.1204 -2.2500 0.9668
-4.0437 7.0709 -2.2500 0.9668
-4.0873 7.0458 -2.2500 0.9668
-2.6621 4.5243 -1.4500 0.9785
-2.6632 4.4628 -1.4355 0.9787
-2.7663 4.4460 -1.4464 0.9785
-2.8239 4.4766 -1.4620 0.9783
-2.9501 4.4899 -1.4840 0.9780
-3.0313 4.4914 -1.4967 0.9778
-3.1138 4.4928 -1.5099 0.9776
-3.2404 4.4950 -1.5306 0.9773
-3.3268 4.4965 -1.5450 0.9771
-3.3706 4.4973 -1.5524 0.9769
-3.4594 4.4988 -1.5676 0.9767
-3.5961 4.5012 -1.5914 0.9764
-3.6426 4.5020 -1.5996 0.9763
-3.6896 4.5029 -1.6080 0.9761
-3.7906 4.4550 -1.6158 0.9760
-5.4678 6.0374 -2.2499 0.9668
-3.8299 4.1252 -1.5548 0.9769
-4.0824 4.3430 -1.6464 0.9756
-4.1038 4.3120 -1.6443 0.9756
-4.1747 4.2266 -1.6410 0.9756
-4.2342 4.1821 -1.6439 0.9756
-4.2952 4.1387 -1.6476 0.9756
-4.3963 4.0815 -1.6570 0.9754
-4.4662 4.0448 -1.6644 0.9753
-4.5059 4.0303 -1.6699 0.9752
-4.5458 4.0156 -1.6754 0.9751
-4.6325 3.9913 -1.6890 0.9749
-4.6824 3.9841 -1.6982 0.9748
-4.7327 3.9768 -1.7075 0.9747
-6.3319 5.1231 -2.2498 0.9668
-6.3635 5.0839 -2.2498 0.9668
-6.3948 5.0444 -2.2498 0.9668
-6.4566 4.9649 -2.2498 0.9668
-4.9932 3.6467 -1.7079 0.9747
-6.6069 4.7628 -2.2497 0.9668
-6.6653 4.6807 -2.2497 0.9668
-6.6941 4.6394 -2.2497 0.9668
-6.7226 4.5979 -2.2497 0.9668
-6.7509 4.5562 -2.2497 0.9668
-6.8067 4.4723 -2.2497 0.9668
-6.8342 4.4302 -2.2497 0.9668
-6.8614 4.3878 -2.2497 0.9668
-6.8884 4.3453 -2.2497 0.9668
-6.9151 4.3025 -2.2497 0.9668
-6.9678 4.2167 -2.2496 0.9668
-6.9937 4.1735 -2.2496 0.9668
-7.0194 4.1301 -2.2496 0.9668
-7.0446 4.0865 -2.2496 0.9668
-7.0697 4.0429 -2.2496 0.9668
-7.0946 3.9991 -2.2496 0.9668
-7.1192 3.9552 -2.2496 0.9668
-7.1915 3.8225 -2.2496 0.9668
-7.2612 3.6884 -2.2496 0.9668
-7.3063 3.5984 -2.2496 0.9668
-7.3284 3.5531 -2.2496 0.9668
-7.3501 3.5077 -2.2496 0.9668
-7.3716 3.4621 -2.2496 0.9668
-7.3929 3.4164 -2.2496 0.9668
-7.4550 3.2787 -2.2496 0.9668
-7.4950 3.1862 -2.2496 0.9668
-7.5338 3.0933 -2.2496 0.9668
-7.5528 3.0467 -2.2496 0.9668
-7.6080 2.9061 -2.2496 0.9668
-7.6434 2.8117 -2.2496 0.9668
-7.6606 2.7644 -2.2496 0.9668
-7.6776 2.7170 -2.2496 0.9668
-7.6942 2.6694 -2.2496 0.9668
-7.7267 2.5740 -2.2496 0.9668
-4.5589 1.4875 -1.3246 0.9803
-4.5604 1.4569 -1.3224 0.9803
-4.5618 1.4263 -1.3202 0.9804
-4.5632 1.3958 -1.3181 0.9804
-4.5660 1.3351 -1.3140 0.9805
-4.5673 1.3049 -1.3121 0.9805
-4.5686 1.2747 -1.3101 0.9805
-4.5698 1.2447 -1.3083 0.9805
-4.5735 1.1851 -1.3050 0.9806
-4.5756 1.1555 -1.3036 0.9806
-4.5837 1.0377 -1.2982 0.9807
-4.5856 1.0083 -1.2969 0.9807
-4.5874 0.9790 -1.2957 0.9807
-4.5909 0.9206 -1.2934 0.9808
-4.5926 0.8914 -1.2922 0.9808
-4.5957 0.8331 -1.2901 0.9808
-5.0463 0.7865 -1.4107 0.9790
-5.2599 0.7865 -1.4690 0.9782
-5.4919 0.7865 -1.5324 0.9772
-5.7515 0.7874 -1.6035 0.9762
-5.7512 0.7511 -1.6021 0.9762
-5.7509 0.7150 -1.6008 0.9762
-5.7507 0.6788 -1.5995 0.9763
-5.7504 0.6428 -1.5983 0.9763
-5.7502 0.6068 -1.5971 0.9763
-5.7500 0.5708 -1.5961 0.9763
-5.7498 0.5349 -1.5951 0.9763
-5.7496 0.4990 -1.5941 0.9763
-5.7493 0.4274 -1.5924 0.9764
-5.7491 0.3917 -1.5917 0.9764
-5.7489 0.3203 -1.5904 0.9764
-5.7486 0.2134 -1.5890 0.9764
-5.7484 0.1067 -1.5881 0.9764
-5.7484 0.0711 -1.5879 0.9764
-5.7483 0.0355 -1.5878 0.9764
-5.7580 0.0000 -1.6366 0.9763
-5.7580 -0.0356 -1.6366 0.9763
-5.7581 -0.0712 -1.6367 0.9763
-5.7581 -0.1069 -1.6369 0.9763
-5.7583 -0.2137 -1.6378 0.9763
-5.7585 -0.2851 -1.6387 0.9763
-5.7586 -0.3208 -1.6393 0.9763
-5.7587 -0.3566 -1.6399 0.9763
-5.7590 -0.4282 -1.6414 0.9763
-5.7597 -0.5718 -1.6451 0.9762
-5.7600 -0.6078 -1.6462 0.9762
-5.7602 -0.6439 -1.6474 0.9762
-5.7604 -0.6800 -1.6486 0.9762
-5.7607 -0.7162 -1.6500 0.9761
-5.7613 -0.7887 -1.6528 0.9761
-5.4920 -0.7865 -1.5769 0.9772
-5.2600 -0.7865 -1.5117 0.9781
-4.8491 -0.7865 -1.3963 0.9798
-4.6663 -0.7865 -1.3450 0.9805
-4.5624 -0.8563 -1.3194 0.9809
-4.5606 -0.9145 -1.3221 0.9808
-4.5577 -1.0022 -1.3264 0.9808
-4.5567 -1.0316 -1.3279 0.9808
-4.5545 -1.0905 -1.3311 0.9807
-4.5511 -1.1793 -1.3363 0.9806
-4.5499 -1.2091 -1.3381 0.9806
-4.5486 -1.2389 -1.3400 0.9806
-4.5460 -1.2988 -1.3438 0.9805
-4.5447 -1.3289 -1.3458 0.9805
-4.5405 -1.4196 -1.3521 0.9804
-4.5390 -1.4500 -1.3543 0.9804
-4.5375 -1.4805 -1.3566 0.9803
-8.0010 -2.7206 -2.4020 0.9655
-7.9840 -2.7700 -2.4020 0.9655
-7.9667 -2.8194 -2.4020 0.9655
-7.9492 -2.8686 -2.4020 0.9655
-7.9131 -2.9667 -2.4020 0.9655
-7.8946 -3.0155 -2.4020 0.9655
-7.8758 -3.0644 -2.4020 0.9655
-7.8567 -3.1129 -2.4020 0.9655
-7.8176 -3.2099 -2.4020 0.9655
-7.7773 -3.3063 -2.4020 0.9655
-7.7567 -3.3544 -2.4020 0.9655
-7.7358 -3.4023 -2.4020 0.9655
-7.7146 -3.4500 -2.4020 0.9655
-7.6931 -3.4977 -2.4020 0.9655
-7.6713 -3.5452 -2.4020 0.9655
-7.5345 -3.8273 -2.4020 0.9655
-7.5107 -3.8739 -2.4020 0.9655
-7.4376 -4.0125 -2.4020 0.9655
-7.4126 -4.0585 -2.4020 0.9655
-7.3874 -4.1042 -2.4020 0.9655
-7.2836 -4.2857 -2.4020 0.9655
-7.2570 -4.3306 -2.4020 0.9655
-7.2300 -4.3754 -2.4020 0.9655
-7.2028 -4.4201 -2.4020 0.9655
-7.0913 -4.5969 -2.4020 0.9655
-7.0048 -4.7277 -2.4020 0.9655
-6.9159 -4.8568 -2.4020 0.9655
-6.8857 -4.8995 -2.4020 0.9655
-6.8553 -4.9419 -2.4020 0.9655
-6.8246 -4.9842 -2.4020 0.9655
-6.7624 -5.0683 -2.4020 0.9655
-6.7310 -5.1100 -2.4020 0.9655
-6.6992 -5.1515 -2.4020 0.9655
-6.6673 -5.1928 -2.4020 0.9655
-6.6350 -5.2340 -2.4020 0.9655
-6.6025 -5.2749 -2.4020 0.9655
-6.5035 -5.3965 -2.4020 0.9655
-6.4700 -5.4366 -2.4020 0.9655
-6.4023 -5.5162 -2.4020 0.9655
-6.3336 -5.5950 -2.4020 0.9655
-6.2287 -5.7115 -2.4020 0.9655
-6.1217 -5.8261 -2.4020 0.9655
-6.0855 -5.8638 -2.4020 0.9655
-6.0491 -5.9014 -2.4020 0.9655
-5.9386 -6.0126 -2.4020 0.9655
-5.9013 -6.0492 -2.4020 0.9655
-5.8638 -6.0855 -2.4020 0.9655
-5.7115 -6.2287 -2.4020 0.9655
-5.6729 -6.2639 -2.4020 0.9655
-5.6340 -6.2989 -2.4020 0.9655
-5.3561 -6.5368 -2.4020 0.9655
-5.3156 -6.5698 -2.4020 0.9655
-5.1515 -6.6993 -2.4020 0.9655
-5.0682 -6.7625 -2.4020 0.9655
-5.0263 -6.7937 -2.4020 0.9655
-4.9419 -6.8554 -2.4020 0.9655
-4.8567 -6.9159 -2.4020 0.9655
-4.8139 -6.9458 -2.4020 0.9655
-4.7276 -7.0048 -2.4020 0.9655
-4.6842 -7.0339 -2.4020 0.9655
-4.5968 -7.0914 -2.4020 0.9655
-4.5088 -7.1477 -2.4020 0.9655
-4.4645 -7.1754 -2.4020 0.9655
-4.3754 -7.2301 -2.4020 0.9655
-4.3306 -7.2570 -2.4020 0.9655
-4.2857 -7.2836 -2.4020 0.9655
-4.1952 -7.3361 -2.4020 0.9655
-4.0584 -7.4126 -2.4020 0.9655
-4.0125 -7.4376 -2.4020 0.9655
-3.9664 -7.4623 -2.4020 0.9655
-3.8738 -7.5108 -2.4020 0.9655
-3.7806 -7.5581 -2.4020 0.9655
-3.7338 -7.5813 -2.4020 0.9655
-3.6398 -7.6269 -2.4020 0.9655
-3.4977 -7.6932 -2.4020 0.9655
-3.2581 -7.7976 -2.4020 0.9655
-3.2099 -7.8176 -2.4020 0.9655
-3.1615 -7.8373 -2.4020 0.9655
-3.0643 -7.8758 -2.4020 0.9655
-2.9666 -7.9131 -2.4020 0.9655
-2.8685 -7.9492 -2.4020 0.9655
-2.8193 -7.9668 -2.4020 0.9655
-2.6214 -8.0341 -2.4020 0.9655
-2.5717 -8.0501 -2.4020 0.9655
-2.5218 -8.0659 -2.4020 0.9655
-2.4219 -8.0964 -2.4020 0.9655
-2.3718 -8.1113 -2.4020 0.9655
-2.0692 -8.1937 -2.4020 0.9655
-2.0185 -8.2063 -2.4020 0.9655
-1.9169 -8.2306 -2.4020 0.9655
-1.8659 -8.2423 -2.4020 0.9655
-1.8149 -8.2537 -2.4020 0.9655
-1.7639 -8.2648 -2.4020 0.9655
-1.4560 -8.3245 -2.4020 0.9655
-1.4045 -8.3334 -2.4020 0.9655
-1.3530 -8.3419 -2.4020 0.9655
-1.3014 -8.3501 -2.4020 0.9655
-1.2497 -8.3580 -2.4020 0.9655
-1.1980 -8.3656 -2.4020 0.9655
-1.1462 -8.3728 -2.4020 0.9655
-1.0944 -8.3797 -2.4020 0.9655
-0.9907 -8.3926 -2.4020 0.9655
-0.8348 -8.4096 -2.4020 0.9655
-0.7306 -8.4193 -2.4020 0.9655
-0.6787 -8.4236 -2.4020 0.9655
-0.5223 -8.4348 -2.4020 0.9655
-0.4706 -8.4379 -2.4020 0.9655
-0.2612 -8.4469 -2.4020 0.9655
-0.1048 -8.4503 -2.4020 0.9655
-0.0001 -8.4509 -2.4020 0.9655
0.0524 -8.4508 -2.4020 0.9655
0.1045 -8.4503 -2.4020 0.9655
0.2612 -8.4469 -2.4020 0.9655
0.4702 -8.4379 -2.4020 0.9655
0.5223 -8.4348 -2.4020 0.9655
0.5744 -8.4314 -2.4020 0.9655
0.6263 -8.4276 -2.4020 0.9655
0.6784 -8.4236 -2.4020 0.9655
0.7309 -8.4193 -2.4020 0.9655
0.8347 -8.4096 -2.4020 0.9655
0.8869 -8.4043 -2.4020 0.9655
0.9386 -8.3986 -2.4020 0.9655
0.9907 -8.3926 -2.4020 0.9655
1.0424 -8.3863 -2.4020 0.9655
1.0944 -8.3797 -2.4020 0.9655
1.1462 -8.3728 -2.4020 0.9655
1.2497 -8.3580 -2.4020 0.9655
1.3014 -8.3501 -2.4020 0.9655
1.3530 -8.3419 -2.4020 0.9655
1.4045 -8.3334 -2.4020 0.9655
1.4560 -8.3246 -2.4020 0.9655
1.5589 -8.3059 -2.4020 0.9655
1.7639 -8.2648 -2.4020 0.9655
1.8149 -8.2537 -2.4020 0.9655
2.0185 -8.2063 -2.4020 0.9655
2.0692 -8.1937 -2.4020 0.9655
2.1704 -8.1675 -2.4020 0.9655
2.2713 -8.1400 -2.4020 0.9655
2.3216 -8.1258 -2.4020 0.9655
2.3718 -8.1113 -2.4020 0.9655
2.4219 -8.0964 -2.4020 0.9655
2.4719 -8.0813 -2.4020 0.9655
