ply
format ascii 1.0
element vertex 1576
property float32 x
property float32 y
property float32 z
property float32 I
end_header
-8.0559 -9.4678 -2.3628 0.9506
-7.9972 -9.5175 -2.3628 0.9506
-7.9382 -9.5667 -2.3628 0.9506
-7.8789 -9.6157 -2.3628 0.9506
-7.8193 -9.6642 -2.3628 0.9506
-7.7594 -9.7124 -2.3628 0.9506
-7.5779 -9.8546 -2.3628 0.9506
-7.3937 -9.9935 -2.3628 0.9506
-7.3318 -10.0391 -2.3628 0.9506
-7.2696 -10.0842 -2.3628 0.9506
-7.2071 -10.1290 -2.3628 0.9506
-7.1443 -10.1733 -2.3628 0.9506
-7.0812 -10.2173 -2.3628 0.9506
-7.0179 -10.2610 -2.3628 0.9506
-6.9543 -10.3041 -2.3628 0.9506
-6.7620 -10.4314 -2.3628 0.9506
-6.6324 -10.5142 -2.3628 0.9506
-6.5673 -10.5550 -2.3628 0.9506
-6.5019 -10.5954 -2.3628 0.9506
-6.4362 -10.6354 -2.3628 0.9506
-6.3703 -10.6751 -2.3628 0.9506
-6.2378 -10.7530 -2.3628 0.9506
-6.1044 -10.8294 -2.3628 0.9506
-6.0373 -10.8669 -2.3628 0.9506
-5.7666 -11.0129 -2.3628 0.9506
-5.5613 -11.1180 -2.3628 0.9506
-5.3541 -11.2192 -2.3628 0.9506
-5.2846 -11.2521 -2.3628 0.9506
-5.2149 -11.2846 -2.3628 0.9506
-4.9342 -11.4101 -2.3628 0.9506
-4.8636 -11.4405 -2.3628 0.9506
-4.5791 -11.5572 -2.3628 0.9506
-4.5076 -11.5853 -2.3628 0.9506
-4.3639 -11.6402 -2.3628 0.9506
-4.2919 -11.6670 -2.3628 0.9506
-4.1472 -11.7191 -2.3628 0.9506
-4.0020 -11.7696 -2.3628 0.9506
-3.7829 -11.8417 -2.3628 0.9506
-3.7096 -11.8649 -2.3628 0.9506
-3.4889 -11.9317 -2.3628 0.9506
-3.1183 -12.0338 -2.3628 0.9506
-2.8947 -12.0896 -2.3628 0.9506
-2.8199 -12.1073 -2.3628 0.9506
-2.6696 -12.1413 -2.3628 0.9506
-2.5943 -12.1576 -2.3628 0.9506
-2.2931 -12.2180 -2.3628 0.9506
-2.1418 -12.2454 -2.3628 0.9506
-1.9143 -12.2831 -2.3628 0.9506
-1.8383 -12.2947 -2.3628 0.9506
-1.4573 -12.3456 -2.3628 0.9506
-1.3045 -12.3627 -2.3628 0.9506
-1.2280 -12.3705 -2.3628 0.9506
-1.1515 -12.3779 -2.3628 0.9506
-0.9217 -12.3971 -2.3628 0.9506
-0.8450 -12.4026 -2.3628 0.9506
-0.5380 -12.4197 -2.3628 0.9506
-0.3843 -12.4254 -2.3628 0.9506
-0.2306 -12.4292 -2.3628 0.9506
-0.1538 -12.4304 -2.3628 0.9506
-0.0769 -12.4311 -2.3628 0.9506
0.1538 -12.4304 -2.3628 0.9506
0.2306 -12.4292 -2.3628 0.9506
0.5380 -12.4197 -2.3628 0.9506
0.7683 -12.4075 -2.3628 0.9506
0.8450 -12.4026 -2.3628 0.9506
0.9983 -12.3912 -2.3628 0.9506
1.0750 -12.3848 -2.3628 0.9506
1.1515 -12.3779 -2.3628 0.9506
1.2280 -12.3705 -2.3628 0.9506
1.3045 -12.3627 -2.3628 0.9506
1.3809 -12.3544 -2.3628 0.9506
1.4573 -12.3456 -2.3628 0.9506
1.5336 -12.3364 -2.3628 0.9506
1.6099 -12.3266 -2.3628 0.9506
1.7623 -12.3058 -2.3628 0.9506
1.9143 -12.2830 -2.3628 0.9506
1.9902 -12.2710 -2.3628 0.9506
2.0661 -12.2584 -2.3628 0.9506
2.1418 -12.2454 -2.3628 0.9506
2.2175 -12.2320 -2.3628 0.9506
2.4441 -12.1887 -2.3628 0.9506
2.5194 -12.1733 -2.3628 0.9506
2.5946 -12.1575 -2.3628 0.9506
2.6698 -12.1412 -2.3628 0.9506
2.7448 -12.1245 -2.3628 0.9506
2.8200 -12.1073 -2.3628 0.9506
2.9694 -12.0715 -2.3628 0.9506
3.0439 -12.0529 -2.3628 0.9506
3.1187 -12.0339 -2.3628 0.9506
3.2670 -11.9944 -2.3628 0.9506
3.7829 -11.8418 -2.3628 0.9506
4.2196 -11.6933 -2.3628 0.9506
4.3639 -11.6402 -2.3628 0.9506
4.5076 -11.5853 -2.3628 0.9506
4.5791 -11.5572 -2.3628 0.9506
4.6505 -11.5287 -2.3628 0.9506
4.7217 -11.4997 -2.3628 0.9506
4.8636 -11.4404 -2.3628 0.9506
4.9342 -11.4101 -2.3628 0.9506
5.2149 -11.2846 -2.3628 0.9506
5.3541 -11.2193 -2.3628 0.9506
5.4234 -11.1859 -2.3628 0.9506
5.4925 -11.1521 -2.3628 0.9506
5.5613 -11.1180 -2.3628 0.9506
5.6300 -11.0834 -2.3628 0.9506
5.6984 -11.0483 -2.3628 0.9506
5.8346 -10.9770 -2.3628 0.9506
5.9024 -10.9407 -2.3628 0.9506
6.1044 -10.8293 -2.3628 0.9506
6.2378 -10.7530 -2.3628 0.9506
6.3704 -10.6750 -2.3628 0.9506
6.5019 -10.5954 -2.3628 0.9506
6.5673 -10.5550 -2.3628 0.9506
6.6324 -10.5142 -2.3628 0.9506
6.9543 -10.3041 -2.3628 0.9506
7.0179 -10.2609 -2.3628 0.9506
7.0812 -10.2173 -2.3628 0.9506
7.1443 -10.1733 -2.3628 0.9506
7.3318 -10.0390 -2.3628 0.9506
7.3937 -9.9935 -2.3628 0.9506
7.4554 -9.9476 -2.3628 0.9506
7.6386 -9.8076 -2.3628 0.9506
7.6992 -9.7602 -2.3628 0.9506
7.7594 -9.7124 -2.3628 0.9506
8.0559 -9.4678 -2.3628 0.9506
8.1724 -9.3675 -2.3628 0.9506
8.2302 -9.3167 -2.3628 0.9506
8.2877 -9.2657 -2.3628 0.9506
8.3448 -9.2142 -2.3628 0.9506
8.4016 -9.1625 -2.3628 0.9506
8.4581 -9.1103 -2.3628 0.9506
8.5143 -9.0579 -2.3628 0.9506
8.6257 -8.9519 -2.3628 0.9506
8.7903 -8.7903 -2.3628 0.9506
8.8983 -8.6809 -2.3628 0.9506
9.0050 -8.5702 -2.3628 0.9506
9.1103 -8.4582 -2.3628 0.9506
9.2656 -8.2877 -2.3628 0.9506
9.3674 -8.1724 -2.3628 0.9506
9.4178 -8.1144 -2.3628 0.9506
9.4678 -8.0560 -2.3628 0.9506
9.5174 -7.9973 -2.3628 0.9506
9.5667 -7.9382 -2.3628 0.9506
9.6156 -7.8789 -2.3628 0.9506
9.7601 -7.6992 -2.3628 0.9506
9.8546 -7.5779 -2.3628 0.9506
10.0842 -7.2696 -2.3628 0.9506
10.1733 -7.1443 -2.3628 0.9506
10.2609 -7.0179 -2.3628 0.9506
10.3469 -6.8905 -2.3628 0.9506
10.4313 -6.7620 -2.3628 0.9506
10.5550 -6.5673 -2.3628 0.9506
10.5954 -6.5019 -2.3628 0.9506
10.6750 -6.3704 -2.3628 0.9506
10.7530 -6.2379 -2.3628 0.9506
10.8669 -6.0373 -2.3628 0.9506
10.9040 -5.9700 -2.3628 0.9506
10.9407 -5.9024 -2.3628 0.9506
11.0128 -5.7667 -2.3628 0.9506
11.0483 -5.6984 -2.3628 0.9506
11.2521 -5.2847 -2.3628 0.9506
11.3482 -5.0750 -2.3628 0.9506
11.4101 -4.9343 -2.3628 0.9506
11.4404 -4.8636 -2.3628 0.9506
11.4703 -4.7928 -2.3628 0.9506
11.4997 -4.7218 -2.3628 0.9506
11.5287 -4.6505 -2.3628 0.9506
11.5572 -4.5792 -2.3628 0.9506
11.5853 -4.5076 -2.3628 0.9506
11.6402 -4.3640 -2.3628 0.9506
11.6669 -4.2919 -2.3628 0.9506
11.7191 -4.1473 -2.3628 0.9506
11.7445 -4.0747 -2.3628 0.9506
11.7940 -3.9292 -2.3628 0.9506
11.8649 -3.7097 -2.3628 0.9506
11.8876 -3.6362 -2.3628 0.9506
11.9099 -3.5627 -2.3628 0.9506
11.9317 -3.4889 -2.3628 0.9506
11.9530 -3.4151 -2.3628 0.9506
11.9739 -3.3411 -2.3628 0.9506
11.9943 -3.2670 -2.3628 0.9506
12.0143 -3.1927 -2.3628 0.9506
12.0338 -3.1184 -2.3628 0.9506
12.0715 -2.9693 -2.3628 0.9506
12.0896 -2.8946 -2.3628 0.9506
12.1073 -2.8197 -2.3628 0.9506
12.1245 -2.7448 -2.3628 0.9506
12.1412 -2.6698 -2.3628 0.9506
12.1575 -2.5947 -2.3628 0.9506
12.1733 -2.5194 -2.3628 0.9506
12.2180 -2.2932 -2.3628 0.9506
12.2319 -2.2175 -2.3628 0.9506
12.2454 -2.1419 -2.3628 0.9506
12.2584 -2.0661 -2.3628 0.9506
12.2709 -1.9903 -2.3628 0.9506
12.3058 -1.7623 -2.3628 0.9506
12.3266 -1.6099 -2.3628 0.9506
12.3847 -1.0750 -2.3628 0.9506
12.4075 -0.7683 -2.3628 0.9506
12.4254 -0.3844 -2.3628 0.9506
12.4275 -0.3075 -2.3628 0.9506
12.4292 -0.2307 -2.3628 0.9506
12.4303 0.1537 -2.3628 0.9506
12.4227 0.4611 -2.3628 0.9506
12.4197 0.5379 -2.3628 0.9506
12.4120 0.6915 -2.3628 0.9506
12.4026 0.8450 -2.3628 0.9506
12.3847 1.0749 -2.3628 0.9506
12.3779 1.1515 -2.3628 0.9506
12.3627 1.3045 -2.3628 0.9506
12.3456 1.4573 -2.3628 0.9506
11.5316 1.5060 -2.2104 0.9538
11.5220 1.5773 -2.2104 0.9538
11.5121 1.6485 -2.2104 0.9538
11.5016 1.7197 -2.2104 0.9538
11.4678 1.9328 -2.2104 0.9538
11.4556 2.0037 -2.2104 0.9538
11.4299 2.1452 -2.2104 0.9538
11.4164 2.2159 -2.2104 0.9538
11.4025 2.2864 -2.2104 0.9538
11.3734 2.4273 -2.2104 0.9538
11.3425 2.5678 -2.2104 0.9538
11.3098 2.7079 -2.2104 0.9538
11.2929 2.7777 -2.2104 0.9538
11.2755 2.8475 -2.2104 0.9538
11.2577 2.9172 -2.2104 0.9538
11.2394 2.9868 -2.2104 0.9538
11.2207 3.0562 -2.2104 0.9538
11.0559 3.6074 -2.2104 0.9538
11.0232 3.7482 -2.2130 0.9537
10.9758 3.8842 -2.2130 0.9537
10.9267 4.0196 -2.2129 0.9537
10.9016 4.0870 -2.2129 0.9537
10.8500 4.2215 -2.2129 0.9537
10.7968 4.3552 -2.2128 0.9537
10.7695 4.4219 -2.2128 0.9537
10.7419 4.4884 -2.2128 0.9537
10.6272 4.7525 -2.2127 0.9537
10.5975 4.8181 -2.2127 0.9537
10.5370 4.9488 -2.2127 0.9537
10.5060 5.0138 -2.2126 0.9537
10.4110 5.2077 -2.2126 0.9537
10.3785 5.2719 -2.2126 0.9537
10.2445 5.5268 -2.2125 0.9537
10.2101 5.5900 -2.2125 0.9537
10.1400 5.7157 -2.2124 0.9537
10.1043 5.7783 -2.2124 0.9537
10.0683 5.8406 -2.2124 0.9537
10.0319 5.9027 -2.2124 0.9537
9.9951 5.9646 -2.2123 0.9537
9.8442 6.2098 -2.2123 0.9537
9.8055 6.2705 -2.2123 0.9537
9.7665 6.3310 -2.2122 0.9537
9.6873 6.4512 -2.2122 0.9537
9.6471 6.5109 -2.2122 0.9537
9.5657 6.6296 -2.2121 0.9537
9.5244 6.6886 -2.2121 0.9537
9.4828 6.7473 -2.2121 0.9537
9.4408 6.8057 -2.2121 0.9537
9.3127 6.9795 -2.2120 0.9537
9.1368 7.2075 -2.2119 0.9537
9.0920 7.2637 -2.2119 0.9537
9.0469 7.3198 -2.2119 0.9537
8.9555 7.4310 -2.2119 0.9537
8.7211 7.7040 -2.2118 0.9537
8.6732 7.7577 -2.2117 0.9537
8.5764 7.8643 -2.2117 0.9537
8.5276 7.9171 -2.2117 0.9537
8.4288 8.0218 -2.2117 0.9537
8.1765 8.2782 -2.2116 0.9537
8.1250 8.3285 -2.2115 0.9537
7.9163 8.5267 -2.2115 0.9537
7.8633 8.5754 -2.2114 0.9537
7.6486 8.7670 -2.2114 0.9537
7.5941 8.8140 -2.2114 0.9537
7.4291 8.9532 -2.2113 0.9537
7.3735 8.9989 -2.2113 0.9537
7.2616 9.0892 -2.2112 0.9537
7.0343 9.2658 -2.2112 0.9537
6.9768 9.3090 -2.2112 0.9537
6.8610 9.3944 -2.2111 0.9537
6.8028 9.4366 -2.2111 0.9537
4.3604 7.2052 -1.6008 0.9663
4.2748 7.1635 -1.5856 0.9666
4.1085 7.0823 -1.5563 0.9672
3.8154 7.0722 -1.5274 0.9678
3.6492 7.0751 -1.5131 0.9681
3.5269 7.0509 -1.4985 0.9684
3.4322 7.0789 -1.4953 0.9685
3.3787 7.0798 -1.4911 0.9686
3.3255 7.0808 -1.4869 0.9687
3.2727 7.0817 -1.4828 0.9687
3.1146 6.9646 -1.4501 0.9694
3.0668 6.9731 -1.4479 0.9695
3.0407 7.0315 -1.4561 0.9693
2.9987 7.0538 -1.4569 0.9693
2.9567 7.0762 -1.4577 0.9693
2.8725 7.1209 -1.4595 0.9692
2.8303 7.1434 -1.4604 0.9692
2.7881 7.1658 -1.4615 0.9692
2.7458 7.1883 -1.4626 0.9692
2.7034 7.2109 -1.4637 0.9691
2.6609 7.2334 -1.4649 0.9691
2.6075 7.2258 -1.4601 0.9692
2.5638 7.2446 -1.4607 0.9692
2.5268 7.2830 -1.4652 0.9691
2.5417 7.4751 -1.5007 0.9684
2.5069 7.5248 -1.5075 0.9682
2.4717 7.5751 -1.5145 0.9681
2.4361 7.6259 -1.5216 0.9679
2.3853 7.6292 -1.5193 0.9680
2.3641 7.7288 -1.5362 0.9676
2.3275 7.7810 -1.5437 0.9675
2.2906 7.8337 -1.5513 0.9673
2.2533 7.8870 -1.5591 0.9672
2.2137 7.9336 -1.5655 0.9670
2.0733 8.2097 -1.6094 0.9661
2.0537 8.3492 -1.6342 0.9656
1.9690 8.4544 -1.6499 0.9653
1.8594 8.4560 -1.6456 0.9654
1.3276 6.4146 -1.2451 0.9737
1.2180 6.2754 -1.2150 0.9743
1.1238 6.4249 -1.2397 0.9738
1.0832 6.4267 -1.2388 0.9738
1.1013 7.0664 -1.3593 0.9713
0.9560 7.3198 -1.4031 0.9704
0.8653 7.3306 -1.4030 0.9704
0.7291 7.3447 -1.4029 0.9704
0.5472 7.3596 -1.4027 0.9704
0.5016 7.3626 -1.4027 0.9704
0.4105 7.3678 -1.4026 0.9704
0.3193 7.3719 -1.4025 0.9704
0.2737 7.3735 -1.4024 0.9704
0.1369 7.3766 -1.4023 0.9704
0.0912 7.3771 -1.4023 0.9704
0.0000 7.3771 -1.4022 0.9704
-0.1368 7.3752 -1.4020 0.9704
-0.1824 7.3740 -1.4020 0.9704
-0.2799 6.4606 -1.2291 0.9740
-0.3127 6.3162 -1.2020 0.9746
-0.4001 6.4609 -1.2304 0.9740
-0.4804 6.4612 -1.2315 0.9740
-0.5089 6.3169 -1.2045 0.9745
-0.6415 6.4618 -1.2342 0.9739
-0.7741 7.3362 -1.4021 0.9704
-0.4348 3.8903 -0.7440 0.9842
-0.4558 3.8615 -0.7391 0.9843
-0.4996 3.8254 -0.7333 0.9844
-0.5219 3.8121 -0.7313 0.9845
-0.6181 3.8112 -0.7339 0.9844
-0.6713 3.8381 -0.7406 0.9843
-1.3673 7.2852 -1.4089 0.9703
-1.4142 7.2859 -1.4107 0.9702
-1.6501 7.2890 -1.4205 0.9700
-1.6977 7.2896 -1.4226 0.9700
-1.9228 6.8912 -1.3599 0.9713
-1.9252 6.7383 -1.3320 0.9719
-1.9257 6.4376 -1.2772 0.9730
-2.0117 6.4342 -1.2813 0.9729
-2.0231 6.3328 -1.2636 0.9733
-2.0253 6.2070 -1.2410 0.9738
-1.5684 4.5205 -0.9095 0.9807
-1.5698 4.4360 -0.8944 0.9810
-1.6001 4.2681 -0.8664 0.9816
-1.6206 4.0176 -0.8234 0.9825
-1.6218 3.9499 -0.8116 0.9828
-1.6230 3.8842 -0.8001 0.9830
-1.6241 3.8203 -0.7890 0.9832
-1.6252 3.7581 -0.7782 0.9835
-1.6262 3.6976 -0.7678 0.9837
-1.6273 3.6387 -0.7576 0.9839
-1.6283 3.5814 -0.7478 0.9841
-1.6302 3.4710 -0.7289 0.9845
-1.5843 3.3198 -0.6992 0.9851
-1.5970 3.2939 -0.6958 0.9852
-1.5925 3.1351 -0.6684 0.9858
-1.6084 3.1184 -0.6669 0.9858
-1.6952 3.1423 -0.6786 0.9856
-4.1836 7.2119 -1.5847 0.9666
-2.6621 4.5243 -0.9978 0.9789
-2.6632 4.4628 -0.9878 0.9791
-2.6843 4.4356 -0.9854 0.9791
-2.7663 4.4460 -0.9953 0.9789
-2.8310 4.4879 -1.0085 0.9786
-2.8704 4.4886 -1.0127 0.9785
-2.9101 4.4893 -1.0169 0.9785
-2.9905 4.4906 -1.0255 0.9783
-3.0723 4.4921 -1.0344 0.9781
-3.1138 4.4928 -1.0390 0.9780
-3.1978 4.4943 -1.0484 0.9778
-3.3706 4.4973 -1.0682 0.9774
-3.4594 4.4988 -1.0787 0.9772
-3.5045 4.4996 -1.0840 0.9770
-3.5961 4.5012 -1.0951 0.9768
-3.6426 4.5020 -1.1007 0.9767
-3.7370 4.5037 -1.1123 0.9765
-3.7693 4.4858 -1.1137 0.9764
-3.7906 4.4550 -1.1117 0.9765
-3.8630 4.4835 -1.1249 0.9762
-4.0842 4.5097 -1.1564 0.9755
-4.1361 4.5106 -1.1632 0.9754
-4.1886 4.5116 -1.1701 0.9752
-4.3499 4.5144 -1.1916 0.9748
-4.4608 4.5163 -1.2066 0.9745
-4.5745 4.5183 -1.2221 0.9742
-4.6912 4.5203 -1.2383 0.9738
-4.8750 4.5261 -1.2644 0.9733
-4.8791 4.4739 -1.2582 0.9734
-4.9434 4.4770 -1.2677 0.9732
-4.9245 4.2429 -1.2355 0.9739
-4.9254 4.1909 -1.2292 0.9740
-4.9263 4.1394 -1.2230 0.9741
-4.9272 4.0884 -1.2169 0.9743
-4.9281 4.0380 -1.2110 0.9744
-4.9289 3.9880 -1.2051 0.9745
-4.9298 3.9385 -1.1993 0.9746
-4.9179 3.7817 -1.1792 0.9751
-4.8893 3.7118 -1.1668 0.9753
-4.8901 3.6650 -1.1615 0.9754
-4.8909 3.6186 -1.1564 0.9755
-9.3507 6.7409 -2.1910 0.9542
-9.3540 6.5689 -2.1725 0.9545
-9.3558 6.4842 -2.1636 0.9547
-9.3576 6.4002 -2.1548 0.9549
-9.3595 6.3168 -2.1462 0.9551
-9.3613 6.2341 -2.1378 0.9552
-9.8366 6.2049 -2.2105 0.9538
-9.8747 6.1440 -2.2105 0.9538
-9.9125 6.0828 -2.2105 0.9538
-9.9499 6.0213 -2.2105 0.9538
-10.0957 5.7733 -2.2105 0.9538
-10.1662 5.6480 -2.2105 0.9538
-10.2009 5.5850 -2.2105 0.9538
-10.3027 5.3947 -2.2105 0.9538
-10.3358 5.3309 -2.2105 0.9538
-10.3685 5.2669 -2.2104 0.9538
-10.4009 5.2026 -2.2104 0.9538
-10.4328 5.1382 -2.2104 0.9538
-10.4644 5.0735 -2.2104 0.9538
-10.5264 4.9437 -2.2104 0.9538
-10.5567 4.8786 -2.2104 0.9538
-10.6454 4.6819 -2.2104 0.9538
-10.6742 4.6160 -2.2104 0.9538
-10.7025 4.5499 -2.2104 0.9538
-10.7851 4.3506 -2.2104 0.9538
-10.8380 4.2168 -2.2104 0.9538
-10.8639 4.1497 -2.2104 0.9538
-10.8893 4.0824 -2.2104 0.9538
-10.9632 3.8797 -2.2104 0.9538
-10.9870 3.8118 -2.2104 0.9538
-11.0333 3.6756 -2.2104 0.9538
-11.0559 3.6074 -2.2104 0.9538
-11.0996 3.4703 -2.2104 0.9538
-11.1209 3.4016 -2.2104 0.9538
-5.4254 1.5501 -1.0725 0.9773
-5.4031 1.3290 -1.0576 0.9776
-5.3965 1.2568 -1.0532 0.9777
-5.3873 1.1497 -1.0470 0.9778
-5.3844 1.1143 -1.0451 0.9779
-5.3739 0.9742 -1.0381 0.9780
-5.3715 0.9395 -1.0365 0.9780
-5.3669 0.8704 -1.0334 0.9781
-5.3589 0.7336 -1.0281 0.9782
-5.3571 0.6997 -1.0269 0.9782
-5.3554 0.6658 -1.0257 0.9783
-5.3495 0.5311 -1.0218 0.9783
-5.3470 0.4641 -1.0201 0.9784
-5.3459 0.4307 -1.0194 0.9784
-5.3431 0.3308 -1.0175 0.9784
-5.3423 0.2977 -1.0170 0.9784
-5.3416 0.2645 -1.0165 0.9785
-5.3410 0.2313 -1.0161 0.9785
-5.3405 0.1983 -1.0158 0.9785
-5.3397 0.1321 -1.0152 0.9785
-5.3394 0.0991 -1.0150 0.9785
-5.3392 0.0661 -1.0149 0.9785
-5.4265 -0.0336 -1.0733 0.9781
-5.4267 -0.0671 -1.0733 0.9781
-5.4269 -0.1007 -1.0735 0.9781
-5.4272 -0.1343 -1.0737 0.9781
-5.4286 -0.2352 -1.0747 0.9781
-5.4300 -0.3026 -1.0756 0.9781
-5.4328 -0.4039 -1.0774 0.9780
-5.4339 -0.4378 -1.0782 0.9780
-5.4351 -0.4717 -1.0790 0.9780
-5.4377 -0.5398 -1.0807 0.9780
-5.4407 -0.6082 -1.0827 0.9779
-5.4441 -0.6768 -1.0850 0.9779
-5.4459 -0.7113 -1.0862 0.9779
-5.4478 -0.7458 -1.0875 0.9778
-5.4499 -0.7804 -1.0888 0.9778
-5.4520 -0.8152 -1.0903 0.9778
-5.4542 -0.8500 -1.0917 0.9777
-5.4565 -0.8850 -1.0933 0.9777
-5.4589 -0.9201 -1.0949 0.9777
-5.4694 -1.0616 -1.1019 0.9775
-5.4723 -1.0973 -1.1038 0.9775
-5.4753 -1.1332 -1.1058 0.9775
-5.4815 -1.2054 -1.1100 0.9774
-5.4848 -1.2417 -1.1122 0.9773
-5.5029 -1.4260 -1.1243 0.9771
-5.5068 -1.4634 -1.1269 0.9770
-5.5151 -1.5388 -1.1324 0.9769
-11.4027 -3.5652 -2.3628 0.9525
-11.3578 -3.7059 -2.3628 0.9525
-11.3346 -3.7761 -2.3628 0.9525
-11.2125 -4.1247 -2.3628 0.9525
-11.1867 -4.1940 -2.3628 0.9525
-11.1606 -4.2631 -2.3628 0.9525
-11.1340 -4.3320 -2.3628 0.9525
-11.1070 -4.4008 -2.3628 0.9525
-11.0796 -4.4694 -2.3628 0.9525
-10.9948 -4.6741 -2.3628 0.9525
-10.9656 -4.7421 -2.3628 0.9525
-10.9062 -4.8773 -2.3628 0.9525
-10.8138 -5.0788 -2.3628 0.9525
-10.7177 -5.2786 -2.3628 0.9525
-10.6516 -5.4107 -2.3628 0.9525
-10.5494 -5.6074 -2.3628 0.9525
-10.5145 -5.6725 -2.3628 0.9525
-10.4792 -5.7374 -2.3628 0.9525
-10.4075 -5.8666 -2.3628 0.9525
-10.3710 -5.9309 -2.3628 0.9525
-10.2969 -6.0587 -2.3628 0.9525
-10.2211 -6.1855 -2.3628 0.9525
-10.1046 -6.3741 -2.3628 0.9525
-10.0250 -6.4986 -2.3628 0.9525
-9.9846 -6.5604 -2.3628 0.9525
-9.9439 -6.6221 -2.3628 0.9525
-9.8193 -6.8054 -2.3628 0.9525
-9.7344 -6.9264 -2.3628 0.9525
-9.6914 -6.9864 -2.3628 0.9525
-9.6480 -7.0462 -2.3628 0.9525
-9.5601 -7.1650 -2.3628 0.9525
-9.3340 -7.4572 -2.3628 0.9525
-9.1941 -7.6290 -2.3628 0.9525
-9.0990 -7.7421 -2.3628 0.9525
-9.0509 -7.7983 -2.3628 0.9525
-9.0026 -7.8541 -2.3628 0.9525
-8.8553 -8.0197 -2.3628 0.9525
-8.8055 -8.0744 -2.3628 0.9525
-8.7554 -8.1287 -2.3628 0.9525
-8.7050 -8.1827 -2.3628 0.9525
-8.6542 -8.2363 -2.3628 0.9525
-8.5517 -8.3428 -2.3628 0.9525
-8.4999 -8.3955 -2.3628 0.9525
-8.4478 -8.4479 -2.3628 0.9525
-8.3954 -8.5000 -2.3628 0.9525
-8.3427 -8.5517 -2.3628 0.9525
-8.2897 -8.6031 -2.3628 0.9525
-8.2363 -8.6543 -2.3628 0.9525
-8.1826 -8.7050 -2.3628 0.9525
-8.1286 -8.7554 -2.3628 0.9525
-8.0197 -8.8554 -2.3628 0.9525
-7.9648 -8.9048 -2.3628 0.9525
-7.8541 -9.0026 -2.3628 0.9525
-7.6857 -9.1467 -2.3628 0.9525
-7.3411 -9.4255 -2.3628 0.9525
-7.2240 -9.5156 -2.3628 0.9525
-7.1650 -9.5601 -2.3628 0.9525
-7.0462 -9.6480 -2.3628 0.9525
-6.9864 -9.6914 -2.3628 0.9525
-6.9263 -9.7344 -2.3628 0.9525
-6.8660 -9.7771 -2.3628 0.9525
-6.5604 -9.9847 -2.3628 0.9525
-6.3741 -10.1046 -2.3628 0.9525
-6.2486 -10.1827 -2.3628 0.9525
-6.1222 -10.2592 -2.3628 0.9525
-5.9308 -10.3710 -2.3628 0.9525
-5.5420 -10.5839 -2.3628 0.9525
-5.4764 -10.6180 -2.3628 0.9525
-5.2121 -10.7502 -2.3628 0.9525
-5.0118 -10.8450 -2.3628 0.9525
-4.9446 -10.8758 -2.3628 0.9525
-4.8098 -10.9362 -2.3628 0.9525
-4.6060 -11.0235 -2.3628 0.9525
-4.4694 -11.0796 -2.3628 0.9525
-4.2630 -11.1606 -2.3628 0.9525
-4.1939 -11.1868 -2.3628 0.9525
-4.1247 -11.2125 -2.3628 0.9525
-4.0553 -11.2378 -2.3628 0.9525
-3.9160 -11.2871 -2.3628 0.9525
-3.8461 -11.3111 -2.3628 0.9525
-3.7059 -11.3578 -2.3628 0.9525
-3.6356 -11.3805 -2.3628 0.9525
-3.5651 -11.4028 -2.3628 0.9525
-3.4946 -11.4246 -2.3628 0.9525
-3.1397 -11.5271 -2.3628 0.9525
-2.9253 -11.5834 -2.3628 0.9525
-2.7818 -11.6187 -2.3628 0.9525
-2.5658 -11.6683 -2.3628 0.9525
-2.3489 -11.7139 -2.3628 0.9525
-2.1311 -11.7555 -2.3628 0.9525
-1.9127 -11.7930 -2.3628 0.9525
-1.7667 -11.8157 -2.3628 0.9525
-1.6936 -11.8265 -2.3628 0.9525
-1.6204 -11.8367 -2.3628 0.9525
-1.5472 -11.8465 -2.3628 0.9525
-1.4739 -11.8558 -2.3628 0.9525
-1.2537 -11.8811 -2.3628 0.9525
-1.1067 -11.8957 -2.3628 0.9525
-1.0331 -11.9024 -2.3628 0.9525
-0.9594 -11.9085 -2.3628 0.9525
-0.8858 -11.9142 -2.3628 0.9525
-0.8121 -11.9195 -2.3628 0.9525
-0.7384 -11.9242 -2.3628 0.9525
-0.5908 -11.9325 -2.3628 0.9525
-0.5170 -11.9359 -2.3628 0.9525
-0.4432 -11.9389 -2.3628 0.9525
-0.2955 -11.9435 -2.3628 0.9525
-0.1478 -11.9462 -2.3628 0.9525
-0.0739 -11.9469 -2.3628 0.9525
0.2955 -11.9435 -2.3628 0.9525
0.4432 -11.9389 -2.3628 0.9525
0.5170 -11.9359 -2.3628 0.9525
0.5908 -11.9325 -2.3628 0.9525
0.8858 -11.9142 -2.3628 0.9525
0.9594 -11.9085 -2.3628 0.9525
1.0331 -11.9023 -2.3628 0.9525
1.2537 -11.8811 -2.3628 0.9525
1.3272 -11.8731 -2.3628 0.9525
1.6204 -11.8367 -2.3628 0.9525
1.6936 -11.8264 -2.3628 0.9525
2.2038 -11.7421 -2.3628 0.9525
2.2764 -11.7282 -2.3628 0.9525
2.3489 -11.7139 -2.3628 0.9525
2.4213 -11.6991 -2.3628 0.9525
2.5658 -11.6683 -2.3628 0.9525
2.6379 -11.6522 -2.3628 0.9525
2.7818 -11.6187 -2.3628 0.9525
2.8536 -11.6013 -2.3628 0.9525
2.9253 -11.5834 -2.3628 0.9525
3.1397 -11.5272 -2.3628 0.9525
3.2109 -11.5075 -2.3628 0.9525
3.3530 -11.4669 -2.3628 0.9525
3.5651 -11.4028 -2.3628 0.9525
3.6356 -11.3805 -2.3628 0.9525
3.8461 -11.3111 -2.3628 0.9525
3.9160 -11.2871 -2.3628 0.9525
3.9857 -11.2626 -2.3628 0.9525
4.1247 -11.2125 -2.3628 0.9525
4.3320 -11.1340 -2.3628 0.9525
4.4008 -11.1070 -2.3628 0.9525
4.5378 -11.0518 -2.3628 0.9525
4.6060 -11.0235 -2.3628 0.9525
4.7420 -10.9657 -2.3628 0.9525
4.9446 -10.8758 -2.3628 0.9525
5.2121 -10.7502 -2.3628 0.9525
5.3447 -10.6849 -2.3628 0.9525
5.4107 -10.6517 -2.3628 0.9525
5.5420 -10.5839 -2.3628 0.9525
5.6725 -10.5145 -2.3628 0.9525
5.7374 -10.4793 -2.3628 0.9525
5.8666 -10.4075 -2.3628 0.9525
5.9308 -10.3710 -2.3628 0.9525
6.0586 -10.2969 -2.3628 0.9525
6.4365 -10.0650 -2.3628 0.9525
6.4986 -10.0250 -2.3628 0.9525
6.5604 -9.9846 -2.3628 0.9525
6.7445 -9.8612 -2.3628 0.9525
7.0462 -9.6480 -2.3628 0.9525
7.1057 -9.6043 -2.3628 0.9525
7.1650 -9.5601 -2.3628 0.9525
7.2240 -9.5156 -2.3628 0.9525
7.3411 -9.4256 -2.3628 0.9525
7.3993 -9.3800 -2.3628 0.9525
7.4571 -9.3340 -2.3628 0.9525
7.6290 -9.1941 -2.3628 0.9525
7.8541 -9.0026 -2.3628 0.9525
7.9096 -8.9538 -2.3628 0.9525
8.0743 -8.8056 -2.3628 0.9525
8.1286 -8.7554 -2.3628 0.9525
8.3431 -8.5517 -2.3628 0.9525
8.5517 -8.3427 -2.3628 0.9525
8.6031 -8.2897 -2.3628 0.9525
8.6542 -8.2363 -2.3628 0.9525
8.7050 -8.1827 -2.3628 0.9525
8.7554 -8.1287 -2.3628 0.9525
8.8055 -8.0744 -2.3628 0.9525
8.8553 -8.0198 -2.3628 0.9525
8.9538 -7.9096 -2.3628 0.9525
9.0025 -7.8541 -2.3628 0.9525
9.0509 -7.7983 -2.3628 0.9525
9.0990 -7.7422 -2.3628 0.9525
9.1941 -7.6290 -2.3628 0.9525
9.2411 -7.5721 -2.3628 0.9525
9.3799 -7.3993 -2.3628 0.9525
9.4255 -7.3411 -2.3628 0.9525
9.4707 -7.2827 -2.3628 0.9525
9.5156 -7.2240 -2.3628 0.9525
9.5601 -7.1650 -2.3628 0.9525
9.6042 -7.1058 -2.3628 0.9525
9.7770 -6.8660 -2.3628 0.9525
9.8193 -6.8054 -2.3628 0.9525
9.8612 -6.7446 -2.3628 0.9525
9.9439 -6.6221 -2.3628 0.9525
9.9846 -6.5605 -2.3628 0.9525
10.0250 -6.4986 -2.3628 0.9525
10.0650 -6.4365 -2.3628 0.9525
10.1046 -6.3741 -2.3628 0.9525
10.1438 -6.3115 -2.3628 0.9525
10.1827 -6.2486 -2.3628 0.9525
10.2592 -6.1222 -2.3628 0.9525
10.3341 -5.9949 -2.3628 0.9525
10.4436 -5.8021 -2.3628 0.9525
10.5839 -5.5420 -2.3628 0.9525
10.6179 -5.4764 -2.3628 0.9525
10.6516 -5.4107 -2.3628 0.9525
10.8138 -5.0788 -2.3628 0.9525
10.8758 -4.9447 -2.3628 0.9525
10.9062 -4.8773 -2.3628 0.9525
10.9361 -4.8098 -2.3628 0.9525
10.9948 -4.6742 -2.3628 0.9525
11.0235 -4.6061 -2.3628 0.9525
11.0517 -4.5378 -2.3628 0.9525
11.0796 -4.4694 -2.3628 0.9525
11.1070 -4.4008 -2.3628 0.9525
11.1340 -4.3320 -2.3628 0.9525
11.1606 -4.2631 -2.3628 0.9525
11.1867 -4.1939 -2.3628 0.9525
11.2626 -3.9857 -2.3628 0.9525
11.2871 -3.9160 -2.3628 0.9525
11.3346 -3.7761 -2.3628 0.9525
11.3578 -3.7059 -2.3628 0.9525
11.4459 -3.4239 -2.3628 0.9525
11.5075 -3.2109 -2.3628 0.9525
11.5463 -3.0684 -2.3628 0.9525
11.5651 -2.9969 -2.3628 0.9525
11.5834 -2.9253 -2.3628 0.9525
11.6013 -2.8537 -2.3628 0.9525
11.6187 -2.7819 -2.3628 0.9525
11.6357 -2.7099 -2.3628 0.9525
11.6683 -2.5658 -2.3628 0.9525
11.6991 -2.4213 -2.3628 0.9525
11.7420 -2.2038 -2.3628 0.9525
11.7554 -2.1312 -2.3628 0.9525
11.7930 -1.9127 -2.3628 0.9525
11.8367 -1.6204 -2.3628 0.9525
11.8465 -1.5472 -2.3628 0.9525
11.8647 -1.4006 -2.3628 0.9525
11.8811 -1.2537 -2.3628 0.9525
11.8886 -1.1802 -2.3628 0.9525
11.8957 -1.1067 -2.3628 0.9525
11.9142 -0.8858 -2.3628 0.9525
11.9242 -0.7384 -2.3628 0.9525
11.9286 -0.6646 -2.3628 0.9525
11.9324 -0.5909 -2.3628 0.9525
11.9359 -0.5171 -2.3628 0.9525
11.9388 -0.4432 -2.3628 0.9525
11.9414 -0.3694 -2.3628 0.9525
11.9434 -0.2955 -2.3628 0.9525
11.9450 -0.2217 -2.3628 0.9525
11.9468 -0.0739 -2.3628 0.9525
11.9450 0.2216 -2.3628 0.9525
11.9434 0.2955 -2.3628 0.9525
11.9414 0.3693 -2.3628 0.9525
11.9388 0.4432 -2.3628 0.9525
11.9359 0.5170 -2.3628 0.9525
11.9286 0.6646 -2.3628 0.9525
11.9085 0.9594 -2.3628 0.9525
11.8957 1.1066 -2.3628 0.9525
11.8811 1.2537 -2.3628 0.9525
11.8731 1.3271 -2.3628 0.9525
11.8647 1.4005 -2.3628 0.9525
11.2909 1.4746 -2.2520 0.9546
11.0732 1.5159 -2.2104 0.9555
11.0636 1.5843 -2.2104 0.9555
11.0432 1.7211 -2.2104 0.9555
11.0093 1.9256 -2.2104 0.9555
10.9972 1.9937 -2.2104 0.9555
10.9847 2.0616 -2.2104 0.9555
10.9583 2.1973 -2.2104 0.9555
10.9446 2.2651 -2.2104 0.9555
10.9157 2.4003 -2.2104 0.9555
10.9006 2.4677 -2.2104 0.9555
10.8693 2.6024 -2.2104 0.9555
10.8530 2.6695 -2.2104 0.9555
10.8363 2.7366 -2.2104 0.9555
10.8191 2.8035 -2.2104 0.9555
10.7653 3.0037 -2.2104 0.9555
10.7465 3.0703 -2.2104 0.9555
10.6877 3.2691 -2.2104 0.9555
10.6464 3.4011 -2.2104 0.9555
10.6252 3.4669 -2.2104 0.9555
10.5815 3.5980 -2.2104 0.9555
10.5481 3.7328 -2.2129 0.9554
10.5248 3.7980 -2.2129 0.9554
10.4768 3.9278 -2.2129 0.9554
10.4522 3.9924 -2.2129 0.9554
10.4273 4.0570 -2.2128 0.9554
10.4019 4.1213 -2.2128 0.9554
10.3499 4.2496 -2.2128 0.9554
10.2132 4.5674 -2.2127 0.9554
9.9425 5.1281 -2.2125 0.9554
9.9106 5.1894 -2.2125 0.9554
9.8454 5.3115 -2.2125 0.9554
9.7450 5.4931 -2.2124 0.9554
9.5340 5.8505 -2.2123 0.9554
9.4976 5.9093 -2.2123 0.9554
9.4236 6.0262 -2.2123 0.9554
9.3861 6.0844 -2.2122 0.9554
9.3482 6.1422 -2.2122 0.9554
9.3099 6.1999 -2.2122 0.9554
9.1931 6.3713 -2.2121 0.9554
9.1534 6.4280 -2.2121 0.9554
9.0731 6.5406 -2.2121 0.9554
9.0324 6.5966 -2.2121 0.9554
8.9913 6.6522 -2.2120 0.9554
8.9499 6.7077 -2.2120 0.9554
8.9082 6.7628 -2.2120 0.9554
8.7810 6.9268 -2.2120 0.9554
8.6067 7.1416 -2.2119 0.9554
8.5623 7.1946 -2.2119 0.9554
8.5176 7.2474 -2.2118 0.9554
8.4725 7.2998 -2.2118 0.9554
8.3814 7.4040 -2.2118 0.9554
8.2891 7.5070 -2.2118 0.9554
8.2424 7.5580 -2.2117 0.9554
8.1482 7.6592 -2.2117 0.9554
8.0527 7.7593 -2.2117 0.9554
7.9560 7.8582 -2.2116 0.9554
7.9072 7.9071 -2.2116 0.9554
7.8581 7.9558 -2.2116 0.9554
7.8086 8.0042 -2.2116 0.9554
7.7589 8.0523 -2.2116 0.9554
7.6586 8.1475 -2.2115 0.9554
7.6080 8.1946 -2.2115 0.9554
7.5572 8.2415 -2.2115 0.9554
7.5060 8.2880 -2.2115 0.9554
7.3507 8.4256 -2.2114 0.9554
7.2459 8.5157 -2.2114 0.9554
7.1399 8.6046 -2.2113 0.9554
6.9788 8.7354 -2.2113 0.9554
6.8702 8.8209 -2.2113 0.9554
6.7052 8.9465 -2.2112 0.9554
6.6497 8.9878 -2.2112 0.9554
6.5939 9.0287 -2.2112 0.9554
6.4816 9.1094 -2.2111 0.9554
6.4251 9.1492 -2.2111 0.9554
6.3684 9.1887 -2.2111 0.9554
6.2542 9.2666 -2.2111 0.9554
6.1967 9.3051 -2.2110 0.9554
6.0810 9.3809 -2.2110 0.9554
5.9644 9.4552 -2.2110 0.9554
4.8882 7.8564 -1.8300 0.9630
4.4132 7.1917 -1.6688 0.9662
4.3604 7.2052 -1.6656 0.9662
4.0276 7.0429 -1.6046 0.9675
3.9202 6.9546 -1.5789 0.9680
3.8502 7.0322 -1.5856 0.9678
3.8154 7.0722 -1.5893 0.9678
3.7596 7.0732 -1.5842 0.9679
3.5944 7.0761 -1.5697 0.9682
3.4322 7.0789 -1.5559 0.9684
3.2727 7.0817 -1.5429 0.9687
3.2201 7.0826 -1.5387 0.9688
3.1146 6.9646 -1.5089 0.9694
3.0668 6.9731 -1.5066 0.9694
3.0407 7.0315 -1.5151 0.9692
2.9987 7.0538 -1.5159 0.9692
2.9567 7.0762 -1.5167 0.9692
2.9146 7.0986 -1.5177 0.9692
2.8725 7.1209 -1.5186 0.9692
2.8303 7.1434 -1.5196 0.9692
2.7881 7.1658 -1.5207 0.9691
2.7458 7.1883 -1.5219 0.9691
2.6609 7.2334 -1.5243 0.9691
2.6075 7.2258 -1.5193 0.9692
2.5638 7.2446 -1.5199 0.9692
2.5268 7.2830 -1.5246 0.9691
2.3641 7.7288 -1.5985 0.9676
2.2906 7.8337 -1.6142 0.9673
2.1528 7.9039 -1.6201 0.9671
2.0640 7.9651 -1.6273 0.9670
2.0537 8.3492 -1.7005 0.9655
1.9690 8.4544 -1.7168 0.9652
1.8594 8.4560 -1.7123 0.9653
1.1777 6.2748 -1.2627 0.9743
1.1563 6.3782 -1.2820 0.9739
1.1160 6.3802 -1.2810 0.9739
1.0757 6.3821 -1.2800 0.9740
1.0515 6.4833 -1.2990 0.9736
1.0370 7.2413 -1.4468 0.9706
0.9006 7.2442 -1.4438 0.9707
0.8553 7.2452 -1.4429 0.9707
0.5842 7.2511 -1.4387 0.9708
0.4942 7.2530 -1.4378 0.9708
0.4492 7.2539 -1.4374 0.9708
0.4042 7.2549 -1.4371 0.9708
0.3143 7.2569 -1.4366 0.9708
0.2694 7.2578 -1.4364 0.9708
0.1796 7.2598 -1.4362 0.9708
0.0898 7.2617 -1.4363 0.9708
-0.0449 7.2646 -1.4368 0.9708
-0.1984 6.4158 -1.2695 0.9742
-0.2382 6.4160 -1.2698 0.9742
-0.2779 6.4161 -1.2701 0.9742
-0.3575 6.4163 -1.2709 0.9741
-0.3973 6.4163 -1.2714 0.9741
-0.4771 6.4166 -1.2725 0.9741
-0.5088 6.3149 -1.2530 0.9745
-0.7679 7.2772 -1.4472 0.9706
-0.4348 3.8901 -0.7742 0.9842
-0.4774 3.8398 -0.7653 0.9843
-0.5219 3.8120 -0.7609 0.9844
-0.5689 3.8046 -0.7608 0.9844
-0.5932 3.8060 -0.7618 0.9844
-0.6181 3.8110 -0.7636 0.9844
-0.6434 3.8177 -0.7657 0.9843
-0.6713 3.8379 -0.7706 0.9842
-1.3673 7.2852 -1.4660 0.9702
-1.4611 7.2865 -1.4698 0.9702
-1.5081 7.2871 -1.4718 0.9701
-1.5553 7.2878 -1.4738 0.9701
-1.6027 7.2884 -1.4759 0.9700
-1.6977 7.2896 -1.4803 0.9699
-1.9176 7.2160 -1.4767 0.9700
-1.9203 7.0502 -1.4451 0.9706
-1.9252 6.7384 -1.3860 0.9718
-1.9545 6.3898 -1.3215 0.9731
-1.9973 6.3880 -1.3237 0.9731
-2.0401 6.3862 -1.3259 0.9730
-2.0274 6.0856 -1.2686 0.9742
-1.5684 4.5205 -0.9463 0.9807
-1.6194 4.0873 -0.8695 0.9822
-1.6206 4.0176 -0.8568 0.9825
-1.6218 3.9500 -0.8445 0.9827
-1.6230 3.8842 -0.8326 0.9830
-1.6241 3.8203 -0.8210 0.9832
-1.6252 3.7581 -0.8098 0.9834
-1.6283 3.5814 -0.7781 0.9841
-1.6292 3.5255 -0.7681 0.9843
-1.5917 3.1821 -0.7037 0.9856
-1.6475 3.1464 -0.7024 0.9856
-1.6726 3.1468 -0.7048 0.9856
-1.6952 3.1423 -0.7061 0.9855
-4.0641 7.2098 -1.6368 0.9668
-4.1236 7.2108 -1.6428 0.9667
-4.1836 7.2119 -1.6489 0.9666
-2.6621 4.5243 -1.0382 0.9788
-2.6843 4.4356 -1.0254 0.9791
-2.8704 4.4886 -1.0537 0.9785
-2.9101 4.4893 -1.0581 0.9784
-2.9501 4.4899 -1.0625 0.9783
-2.9905 4.4906 -1.0671 0.9782
-3.0723 4.4921 -1.0763 0.9781
-3.1978 4.4943 -1.0909 0.9778
-3.2404 4.4950 -1.0959 0.9777
-3.2834 4.4958 -1.1010 0.9776
-3.3268 4.4965 -1.1062 0.9775
-3.3706 4.4973 -1.1115 0.9773
-3.4594 4.4988 -1.1224 0.9771
-3.5045 4.4996 -1.1280 0.9770
-3.5501 4.5004 -1.1337 0.9769
-3.6426 4.5020 -1.1453 0.9767
-3.6896 4.5029 -1.1513 0.9765
-3.8630 4.4835 -1.1705 0.9762
-4.0842 4.5097 -1.2033 0.9755
-4.2955 4.5134 -1.2323 0.9749
-4.4050 4.5154 -1.2476 0.9746
-4.4608 4.5163 -1.2555 0.9744
-4.5745 4.5183 -1.2716 0.9741
-4.6325 4.5193 -1.2800 0.9740
-4.7508 4.5214 -1.2971 0.9736
-4.8111 4.5224 -1.3059 0.9734
-4.8750 4.5261 -1.3156 0.9732
-4.8791 4.4739 -1.3093 0.9734
-4.9236 4.2955 -1.2923 0.9737
-4.9245 4.2429 -1.2856 0.9738
-4.9254 4.1909 -1.2790 0.9740
-4.9263 4.1394 -1.2726 0.9741
-4.9272 4.0884 -1.2663 0.9742
-4.9281 4.0380 -1.2600 0.9744
-4.9289 3.9880 -1.2539 0.9745
-4.9179 3.7817 -1.2269 0.9750
-4.8901 3.6650 -1.2086 0.9754
-4.8909 3.6186 -1.2033 0.9755
-4.9932 3.6467 -1.2229 0.9751
-9.1073 6.4801 -2.2106 0.9554
-9.1867 6.3669 -2.2106 0.9554
-9.2647 6.2528 -2.2106 0.9554
-9.3031 6.1953 -2.2106 0.9554
-9.3412 6.1377 -2.2106 0.9554
-9.4164 6.0216 -2.2106 0.9554
-9.4534 5.9632 -2.2105 0.9554
-9.5264 5.8459 -2.2105 0.9554
-9.5623 5.7868 -2.2105 0.9554
-9.7024 5.5484 -2.2105 0.9554
-9.7365 5.4883 -2.2105 0.9554
-9.7702 5.4280 -2.2105 0.9554
-9.8036 5.3675 -2.2105 0.9554
-9.9014 5.1846 -2.2105 0.9555
-9.9332 5.1232 -2.2105 0.9555
-9.9647 5.0617 -2.2104 0.9555
-9.9958 5.0000 -2.2104 0.9555
-10.0568 4.8759 -2.2104 0.9555
-10.0867 4.8136 -2.2104 0.9555
-10.1163 4.7512 -2.2104 0.9555
-10.1455 4.6885 -2.2104 0.9555
-10.2308 4.4995 -2.2104 0.9555
-10.2856 4.3726 -2.2104 0.9555
-10.3650 4.1811 -2.2104 0.9555
-10.3907 4.1169 -2.2104 0.9555
-10.4892 3.8586 -2.2104 0.9555
-10.5129 3.7937 -2.2104 0.9555
-10.5362 3.7286 -2.2104 0.9555
-10.5815 3.5980 -2.2104 0.9555
-10.6673 3.3352 -2.2104 0.9555
-10.6877 3.2691 -2.2104 0.9555
-10.7077 3.2030 -2.2104 0.9555
-10.7273 3.1367 -2.2104 0.9555
-5.5109 1.5010 -1.1296 0.9770
-5.5068 1.4634 -1.1269 0.9770
-5.5029 1.4260 -1.1243 0.9771
-5.4917 1.3149 -1.1168 0.9772
-5.4882 1.2782 -1.1145 0.9773
-5.4784 1.1692 -1.1079 0.9774
-5.4753 1.1332 -1.1058 0.9775
-5.4723 1.0973 -1.1038 0.9775
-5.4694 1.0616 -1.1019 0.9775
-5.4377 0.5398 -1.0807 0.9780
-5.4364 0.5057 -1.0798 0.9780
-5.4351 0.4717 -1.0790 0.9780
-5.4328 0.4039 -1.0774 0.9780
-5.4318 0.3701 -1.0768 0.9780
-5.4300 0.3025 -1.0756 0.9781
-5.4293 0.2688 -1.0751 0.9781
-5.4281 0.2015 -1.0743 0.9781
-5.4272 0.1343 -1.0737 0.9781
-5.5171 0.0000 -1.1338 0.9777
-5.5172 -0.0341 -1.1338 0.9777
-5.5179 -0.1365 -1.1343 0.9777
-5.5183 -0.1707 -1.1346 0.9777
-5.5188 -0.2049 -1.1349 0.9777
-5.5194 -0.2391 -1.1353 0.9777
-5.5201 -0.2733 -1.1358 0.9777
-5.5209 -0.3076 -1.1363 0.9777
-5.5228 -0.3763 -1.1376 0.9776
-5.5239 -0.4107 -1.1383 0.9776
-5.5251 -0.4451 -1.1391 0.9776
-5.5277 -0.5143 -1.1409 0.9776
-5.5292 -0.5489 -1.1418 0.9776
-5.5360 -0.6882 -1.1464 0.9775
-5.5380 -0.7233 -1.1477 0.9775
-5.5401 -0.7584 -1.1491 0.9774
-5.5445 -0.8290 -1.1521 0.9774
-5.5488 -0.9352 -1.1564 0.9773
-5.5498 -0.9707 -1.1578 0.9773
-5.5508 -1.0063 -1.1593 0.9772
-5.5540 -1.1137 -1.1641 0.9771
-5.5551 -1.1497 -1.1658 0.9771
-5.5563 -1.1858 -1.1675 0.9771
-5.5628 -1.3683 -1.1772 0.9769
-5.5671 -1.4794 -1.1838 0.9768
-5.5687 -1.5168 -1.1861 0.9767
-5.5702 -1.5543 -1.1884 0.9767
-11.0156 -3.2951 -2.3628 0.9541
-10.9307 -3.5666 -2.3628 0.9541
-10.9085 -3.6341 -2.3628 0.9541
-10.8858 -3.7015 -2.3628 0.9541
-10.8392 -3.8358 -2.3628 0.9541
-10.7909 -3.9696 -2.3628 0.9541
-10.7661 -4.0363 -2.3628 0.9541
-10.7410 -4.1028 -2.3628 0.9541
-10.5814 -4.4984 -2.3628 0.9541
-10.5534 -4.5638 -2.3628 0.9541
-10.4961 -4.6940 -2.3628 0.9541
-10.4669 -4.7587 -2.3628 0.9541
-10.4373 -4.8234 -2.3628 0.9541
-10.2511 -5.2073 -2.3628 0.9541
-10.2187 -5.2706 -2.3628 0.9541
-10.1859 -5.3337 -2.3628 0.9541
-10.1192 -5.4593 -2.3628 0.9541
-10.0853 -5.5217 -2.3628 0.9541
-10.0509 -5.5840 -2.3628 0.9541
-10.0162 -5.6460 -2.3628 0.9541
-9.9456 -5.7695 -2.3628 0.9541
-9.9097 -5.8309 -2.3628 0.9541
-9.8735 -5.8921 -2.3628 0.9541
-9.8368 -5.9530 -2.3628 0.9541
-9.7998 -6.0137 -2.3628 0.9541
-9.7625 -6.0742 -2.3628 0.9541
-9.7247 -6.1345 -2.3628 0.9541
-9.5304 -6.4322 -2.3628 0.9541
-9.4904 -6.4910 -2.3628 0.9541
-9.4501 -6.5496 -2.3628 0.9541
-9.3684 -6.6659 -2.3628 0.9541
-9.1578 -6.9524 -2.3628 0.9541
-9.1147 -7.0089 -2.3628 0.9541
-8.9831 -7.1768 -2.3628 0.9541
-8.8936 -7.2873 -2.3628 0.9541
-8.8484 -7.3422 -2.3628 0.9541
-8.8028 -7.3968 -2.3628 0.9541
-8.6641 -7.5588 -2.3628 0.9541
-8.5699 -7.6654 -2.3628 0.9541
-8.4745 -7.7708 -2.3628 0.9541
-8.4262 -7.8230 -2.3628 0.9541
-8.3288 -7.9267 -2.3628 0.9541
-8.2302 -8.0291 -2.3628 0.9541
-8.1803 -8.0799 -2.3628 0.9541
-8.1302 -8.1303 -2.3628 0.9541
-8.0798 -8.1804 -2.3628 0.9541
-7.9780 -8.2797 -2.3628 0.9541
-7.9266 -8.3289 -2.3628 0.9541
-7.8230 -8.4263 -2.3628 0.9541
-7.7180 -8.5224 -2.3628 0.9541
-7.6655 -8.5700 -2.3628 0.9541
-7.6122 -8.6172 -2.3628 0.9541
-7.5588 -8.6641 -2.3628 0.9541
-7.5050 -8.7107 -2.3628 0.9541
-7.4510 -8.7569 -2.3628 0.9541
-7.3422 -8.8484 -2.3628 0.9541
-7.2873 -8.8937 -2.3628 0.9541
-7.1768 -8.9831 -2.3628 0.9541
-7.1211 -9.0273 -2.3628 0.9541
-7.0651 -9.0712 -2.3628 0.9541
-7.0089 -9.1147 -2.3628 0.9541
-6.9524 -9.1579 -2.3628 0.9541
-6.8956 -9.2007 -2.3628 0.9541
-6.7813 -9.2853 -2.3628 0.9541
-6.7237 -9.3271 -2.3628 0.9541
-6.6659 -9.3684 -2.3628 0.9541
-6.6079 -9.4095 -2.3628 0.9541
-6.5495 -9.4502 -2.3628 0.9541
-6.4910 -9.4905 -2.3628 0.9541
-5.9530 -9.8369 -2.3628 0.9541
-5.8920 -9.8735 -2.3628 0.9541
-5.8308 -9.9098 -2.3628 0.9541
-5.7694 -9.9456 -2.3628 0.9541
-5.7078 -9.9811 -2.3628 0.9541
-5.5217 -10.0853 -2.3628 0.9541
-5.4592 -10.1192 -2.3628 0.9541
-5.3965 -10.1528 -2.3628 0.9541
-5.3336 -10.1860 -2.3628 0.9541
-5.2706 -10.2188 -2.3628 0.9541
-5.1438 -10.2832 -2.3628 0.9541
-5.0162 -10.3460 -2.3628 0.9541
-4.8878 -10.4072 -2.3628 0.9541
-4.8234 -10.4373 -2.3628 0.9541
-4.7587 -10.4669 -2.3628 0.9541
-4.6939 -10.4961 -2.3628 0.9541
-4.6289 -10.5250 -2.3628 0.9541
-4.5637 -10.5534 -2.3628 0.9541
-4.4984 -10.5814 -2.3628 0.9541
-4.4329 -10.6090 -2.3628 0.9541
-4.3672 -10.6362 -2.3628 0.9541
-4.2353 -10.6895 -2.3628 0.9541
-4.1691 -10.7155 -2.3628 0.9541
-4.1028 -10.7410 -2.3628 0.9541
-3.9696 -10.7909 -2.3628 0.9541
-3.7687 -10.8627 -2.3628 0.9541
-3.6341 -10.9085 -2.3628 0.9541
-3.5666 -10.9308 -2.3628 0.9541
-3.4989 -10.9526 -2.3628 0.9541
-3.4311 -10.9741 -2.3628 0.9541
-3.3632 -10.9950 -2.3628 0.9541
-3.2269 -11.0358 -2.3628 0.9541
-3.1586 -11.0555 -2.3628 0.9541
-3.0902 -11.0749 -2.3628 0.9541
-2.9530 -11.1123 -2.3628 0.9541
-2.8842 -11.1303 -2.3628 0.9541
-2.8153 -11.1479 -2.3628 0.9541
-2.6080 -11.1982 -2.3628 0.9541
-2.5387 -11.2142 -2.3628 0.9541
-2.3998 -11.2447 -2.3628 0.9541
-2.3302 -11.2593 -2.3628 0.9541
-2.2606 -11.2735 -2.3628 0.9541
-2.0510 -11.3135 -2.3628 0.9541
-1.9109 -11.3380 -2.3628 0.9541
-1.7003 -11.3715 -2.3628 0.9541
-1.6299 -11.3818 -2.3628 0.9541
-1.4890 -11.4011 -2.3628 0.9541
-1.3479 -11.4186 -2.3628 0.9541
-1.2773 -11.4268 -2.3628 0.9541
-1.1358 -11.4417 -2.3628 0.9541
-1.0650 -11.4485 -2.3628 0.9541
-0.9942 -11.4549 -2.3628 0.9541
-0.8525 -11.4663 -2.3628 0.9541
-0.7816 -11.4713 -2.3628 0.9541
-0.4976 -11.4871 -2.3628 0.9541
-0.3555 -11.4924 -2.3628 0.9541
-0.2844 -11.4944 -2.3628 0.9541
-0.2133 -11.4959 -2.3628 0.9541
-0.1422 -11.4970 -2.3628 0.9541
-0.0711 -11.4977 -2.3628 0.9541
0.0711 -11.4977 -2.3628 0.9541
0.1422 -11.4970 -2.3628 0.9541
0.2133 -11.4959 -2.3628 0.9541
0.3555 -11.4924 -2.3628 0.9541
0.4265 -11.4900 -2.3628 0.9541
0.6396 -11.4801 -2.3628 0.9541
0.7106 -11.4759 -2.3628 0.9541
0.7816 -11.4713 -2.3628 0.9541
0.9942 -11.4549 -2.3628 0.9541
1.2066 -11.4345 -2.3628 0.9541
1.2773 -11.4267 -2.3628 0.9541
1.3479 -11.4187 -2.3628 0.9541
1.4890 -11.4011 -2.3628 0.9541
1.6299 -11.3818 -2.3628 0.9541
1.7003 -11.3715 -2.3628 0.9541
1.7706 -11.3608 -2.3628 0.9541
2.0510 -11.3135 -2.3628 0.9541
2.1210 -11.3006 -2.3628 0.9541
2.8153 -11.1479 -2.3628 0.9541
3.0902 -11.0749 -2.3628 0.9541
3.1586 -11.0555 -2.3628 0.9541
3.2269 -11.0358 -2.3628 0.9541
3.2951 -11.0156 -2.3628 0.9541
3.3632 -10.9950 -2.3628 0.9541
3.4989 -10.9526 -2.3628 0.9541
3.5666 -10.9308 -2.3628 0.9541
3.6341 -10.9085 -2.3628 0.9541
3.7015 -10.8858 -2.3628 0.9541
3.7687 -10.8627 -2.3628 0.9541
4.0363 -10.7662 -2.3628 0.9541
4.1028 -10.7410 -2.3628 0.9541
4.1691 -10.7154 -2.3628 0.9541
4.2353 -10.6894 -2.3628 0.9541
4.3013 -10.6630 -2.3628 0.9541
4.3672 -10.6362 -2.3628 0.9541
4.5637 -10.5534 -2.3628 0.9541
4.6939 -10.4961 -2.3628 0.9541
4.7587 -10.4669 -2.3628 0.9541
4.8234 -10.4373 -2.3628 0.9541
4.8878 -10.4072 -2.3628 0.9541
5.0801 -10.3148 -2.3628 0.9541
5.1438 -10.2831 -2.3628 0.9541
5.2073 -10.2512 -2.3628 0.9541
5.3336 -10.1860 -2.3628 0.9541
5.3965 -10.1528 -2.3628 0.9541
5.4592 -10.1192 -2.3628 0.9541
5.5217 -10.0853 -2.3628 0.9541
5.6460 -10.0162 -2.3628 0.9541
5.8309 -9.9097 -2.3628 0.9541
5.8920 -9.8735 -2.3628 0.9541
5.9530 -9.8369 -2.3628 0.9541
6.1945 -9.6866 -2.3628 0.9541
6.3731 -9.5701 -2.3628 0.9541
6.4910 -9.4905 -2.3628 0.9541
6.5495 -9.4501 -2.3628 0.9541
6.6078 -9.4095 -2.3628 0.9541
6.9524 -9.1579 -2.3628 0.9541
7.1211 -9.0273 -2.3628 0.9541
7.2322 -8.9385 -2.3628 0.9541
7.3967 -8.8029 -2.3628 0.9541
7.4510 -8.7569 -2.3628 0.9541
7.6122 -8.6172 -2.3628 0.9541
7.8750 -8.3777 -2.3628 0.9541
8.0291 -8.2302 -2.3628 0.9541
8.3288 -7.9267 -2.3628 0.9541
8.4745 -7.7708 -2.3628 0.9541
8.5224 -7.7183 -2.3628 0.9541
8.6172 -7.6122 -2.3628 0.9541
8.6641 -7.5588 -2.3628 0.9541
8.7107 -7.5051 -2.3628 0.9541
8.9385 -7.2322 -2.3628 0.9541
8.9831 -7.1768 -2.3628 0.9541
9.1578 -6.9524 -2.3628 0.9541
9.2007 -6.8956 -2.3628 0.9541
9.2431 -6.8386 -2.3628 0.9541
9.3270 -6.7237 -2.3628 0.9541
9.3684 -6.6659 -2.3628 0.9541
9.4904 -6.4910 -2.3628 0.9541
9.5700 -6.3731 -2.3628 0.9541
9.6092 -6.3138 -2.3628 0.9541
9.6481 -6.2543 -2.3628 0.9541
9.6866 -6.1945 -2.3628 0.9541
9.9097 -5.8309 -2.3628 0.9541
9.9456 -5.7695 -2.3628 0.9541
9.9811 -5.7079 -2.3628 0.9541
10.0509 -5.5840 -2.3628 0.9541
10.1192 -5.4592 -2.3628 0.9541
10.1859 -5.3337 -2.3628 0.9541
10.2187 -5.2706 -2.3628 0.9541
10.2831 -5.1438 -2.3628 0.9541
10.3147 -5.0801 -2.3628 0.9541
10.3460 -5.0162 -2.3628 0.9541
10.4072 -4.8879 -2.3628 0.9541
10.4669 -4.7588 -2.3628 0.9541
10.4961 -4.6939 -2.3628 0.9541
10.5534 -4.5638 -2.3628 0.9541
10.6090 -4.4329 -2.3628 0.9541
10.6630 -4.3013 -2.3628 0.9541
10.7661 -4.0363 -2.3628 0.9541
10.7909 -3.9696 -2.3628 0.9541
10.8152 -3.9028 -2.3628 0.9541
10.8627 -3.7688 -2.3628 0.9541
10.8858 -3.7015 -2.3628 0.9541
10.9085 -3.6341 -2.3628 0.9541
10.9307 -3.5666 -2.3628 0.9541
10.9526 -3.4989 -2.3628 0.9541
10.9740 -3.4311 -2.3628 0.9541
10.9950 -3.3632 -2.3628 0.9541
11.0156 -3.2951 -2.3628 0.9541
11.0358 -3.2270 -2.3628 0.9541
11.0748 -3.0902 -2.3628 0.9541
11.0937 -3.0217 -2.3628 0.9541
11.1122 -2.9530 -2.3628 0.9541
11.1479 -2.8153 -2.3628 0.9541
11.2141 -2.5387 -2.3628 0.9541
11.2296 -2.4693 -2.3628 0.9541
11.2447 -2.3998 -2.3628 0.9541
11.2735 -2.2606 -2.3628 0.9541
11.2872 -2.1908 -2.3628 0.9541
11.3496 -1.8408 -2.3628 0.9541
11.3715 -1.7003 -2.3628 0.9541
11.3916 -1.5595 -2.3628 0.9541
11.4011 -1.4890 -2.3628 0.9541
11.4267 -1.2773 -2.3628 0.9541
11.4484 -1.0651 -2.3628 0.9541
11.4662 -0.8525 -2.3628 0.9541
11.4713 -0.7816 -2.3628 0.9541
11.4801 -0.6396 -2.3628 0.9541
11.4838 -0.5686 -2.3628 0.9541
11.4900 -0.4266 -2.3628 0.9541
11.4959 -0.2134 -2.3628 0.9541
11.4970 -0.1422 -2.3628 0.9541
11.4977 -0.0711 -2.3628 0.9541
11.4977 0.0711 -2.3628 0.9541
11.4959 0.2133 -2.3628 0.9541
11.4924 0.3554 -2.3628 0.9541
11.4900 0.4265 -2.3628 0.9541
11.4871 0.4975 -2.3628 0.9541
11.4838 0.5686 -2.3628 0.9541
11.4801 0.6396 -2.3628 0.9541
11.4713 0.7815 -2.3628 0.9541
11.4607 0.9234 -2.3628 0.9541
11.4548 0.9942 -2.3628 0.9541
11.4416 1.1358 -2.3628 0.9541
11.4344 1.2065 -2.3628 0.9541
11.1899 1.4614 -2.3191 0.9550
10.6175 1.7220 -2.2104 0.9570
10.6067 1.7877 -2.2104 0.9570
10.5592 2.0495 -2.2104 0.9570
10.5463 2.1147 -2.2104 0.9570
10.5331 2.1799 -2.2104 0.9570
10.5194 2.2450 -2.2104 0.9570
10.5053 2.3100 -2.2104 0.9570
10.4606 2.5045 -2.2104 0.9570
10.4289 2.6337 -2.2104 0.9570
10.4124 2.6981 -2.2104 0.9570
10.3782 2.8267 -2.2104 0.9570
10.3605 2.8908 -2.2104 0.9570
10.3424 2.9549 -2.2104 0.9570
10.2662 3.2098 -2.2104 0.9570
10.2257 3.3365 -2.2104 0.9570
10.2049 3.3997 -2.2104 0.9570
10.1401 3.5884 -2.2104 0.9570
10.1290 3.6551 -2.2129 0.9570
10.0828 3.7801 -2.2129 0.9570
10.0592 3.8423 -2.2128 0.9570
10.0351 3.9044 -2.2128 0.9570
10.0107 3.9664 -2.2128 0.9570
9.9859 4.0281 -2.2128 0.9570
9.9607 4.0898 -2.2128 0.9570
9.8291 4.3956 -2.2127 0.9570
9.7457 4.5771 -2.2126 0.9570
9.7171 4.6372 -2.2126 0.9570
9.6882 4.6972 -2.2126 0.9570
9.6292 4.8166 -2.2126 0.9570
9.5991 4.8760 -2.2125 0.9570
9.5687 4.9353 -2.2125 0.9570
9.5379 4.9943 -2.2125 0.9570
9.5068 5.0531 -2.2125 0.9570
9.4112 5.2285 -2.2124 0.9570
9.3786 5.2866 -2.2124 0.9570
9.3123 5.4021 -2.2124 0.9570
9.2446 5.5167 -2.2123 0.9570
9.2103 5.5738 -2.2123 0.9570
9.1755 5.6306 -2.2123 0.9570
9.1405 5.6872 -2.2123 0.9570
9.1051 5.7435 -2.2123 0.9570
9.0693 5.7997 -2.2123 0.9570
8.9599 5.9668 -2.2122 0.9570
8.9228 6.0220 -2.2122 0.9570
8.8853 6.0771 -2.2122 0.9570
8.8475 6.1319 -2.2121 0.9570
8.8093 6.1864 -2.2121 0.9570
8.7708 6.2407 -2.2121 0.9570
8.7320 6.2948 -2.2121 0.9570
8.6928 6.3486 -2.2121 0.9570
8.6533 6.4022 -2.2121 0.9570
8.4509 6.6663 -2.2120 0.9570
8.4095 6.7184 -2.2120 0.9570
8.3677 6.7703 -2.2119 0.9570
8.2832 6.8731 -2.2119 0.9570
8.1974 6.9750 -2.2119 0.9570
8.1540 7.0254 -2.2118 0.9570
8.1104 7.0757 -2.2118 0.9570
7.9775 7.2248 -2.2118 0.9570
7.9326 7.2739 -2.2118 0.9570
7.8874 7.3228 -2.2117 0.9570
7.7036 7.5154 -2.2117 0.9570
7.6100 7.6099 -2.2116 0.9570
7.5627 7.6568 -2.2116 0.9570
7.5152 7.7034 -2.2116 0.9570
7.4192 7.7956 -2.2116 0.9570
7.3708 7.8413 -2.2115 0.9570
7.3221 7.8867 -2.2115 0.9570
7.2239 7.9765 -2.2115 0.9570
7.0745 8.1089 -2.2114 0.9570
7.0241 8.1525 -2.2114 0.9570
6.9227 8.2386 -2.2114 0.9570
6.8715 8.2812 -2.2114 0.9570
6.8201 8.3235 -2.2114 0.9570
6.7685 8.3654 -2.2113 0.9570
6.4532 8.6104 -2.2112 0.9570
6.3998 8.6501 -2.2112 0.9570
6.3461 8.6894 -2.2112 0.9570
6.2922 8.7284 -2.2112 0.9570
6.2381 8.7671 -2.2112 0.9570
6.1291 8.8434 -2.2111 0.9570
6.0742 8.8811 -2.2111 0.9570
6.0191 8.9184 -2.2111 0.9570
5.9638 8.9554 -2.2111 0.9570
5.9083 8.9920 -2.2111 0.9570
5.8525 9.0284 -2.2111 0.9570
5.7965 9.0643 -2.2110 0.9570
5.7403 9.0999 -2.2110 0.9570
4.8882 7.8564 -1.9015 0.9629
4.3604 7.2052 -1.7307 0.9662
4.2748 7.1635 -1.7143 0.9665
4.1909 7.1225 -1.6983 0.9668
4.1085 7.0823 -1.6826 0.9671
3.9202 6.9546 -1.6406 0.9679
3.8616 6.9508 -1.6340 0.9681
3.8502 7.0322 -1.6476 0.9678
3.8154 7.0722 -1.6514 0.9677
3.6492 7.0751 -1.6359 0.9680
3.5944 7.0761 -1.6310 0.9681
3.5269 7.0509 -1.6201 0.9683
3.4821 7.0701 -1.6196 0.9683
3.2727 7.0817 -1.6032 0.9686
3.2201 7.0826 -1.5989 0.9687
3.1146 6.9646 -1.5678 0.9693
3.0407 7.0315 -1.5743 0.9692
2.9987 7.0538 -1.5751 0.9692
2.9146 7.0986 -1.5769 0.9691
2.8725 7.1209 -1.5779 0.9691
2.8303 7.1434 -1.5790 0.9691
2.7034 7.2109 -1.5826 0.9690
2.6075 7.2258 -1.5786 0.9691
2.5417 7.4751 -1.6225 0.9683
2.5069 7.5248 -1.6299 0.9681
2.4361 7.6259 -1.6451 0.9678
2.3853 7.6292 -1.6426 0.9679
2.3641 7.7288 -1.6609 0.9675
2.2533 7.8870 -1.6856 0.9671
2.2137 7.9336 -1.6926 0.9669
2.0981 7.8952 -1.6788 0.9672
2.0640 7.9651 -1.6909 0.9670
2.0733 8.2097 -1.7401 0.9660
1.9141 8.4552 -1.7815 0.9652
1.8594 8.4560 -1.7792 0.9653
1.3091 6.3255 -1.3275 0.9740
1.1914 5.9414 -1.2453 0.9756
1.1737 6.0471 -1.2659 0.9752
1.1884 6.3320 -1.3240 0.9740
1.0682 6.3380 -1.3208 0.9741
1.0954 6.7538 -1.4061 0.9724
1.0370 7.2413 -1.5033 0.9706
0.9915 7.2423 -1.5022 0.9706
0.9460 7.2433 -1.5011 0.9706
0.9006 7.2442 -1.5002 0.9706
0.8553 7.2452 -1.4992 0.9706
0.7647 7.2472 -1.4976 0.9707
0.3994 4.2933 -0.8861 0.9825
0.5842 7.2511 -1.4949 0.9707
0.5392 7.2520 -1.4944 0.9707
0.4942 7.2530 -1.4940 0.9707
0.4492 7.2539 -1.4936 0.9708
0.4042 7.2549 -1.4932 0.9708
0.3143 7.2569 -1.4927 0.9708
0.2245 7.2588 -1.4924 0.9708
0.1347 7.2607 -1.4923 0.9708
0.0898 7.2617 -1.4924 0.9708
0.0449 7.2627 -1.4925 0.9708
0.0000 7.2636 -1.4927 0.9708
-0.0449 7.2646 -1.4929 0.9708
-0.0899 7.2656 -1.4932 0.9708
-0.1348 7.2665 -1.4935 0.9708
-0.1798 7.2675 -1.4939 0.9707
-0.1971 6.3718 -1.3100 0.9743
-0.2365 6.3720 -1.3103 0.9743
-0.3354 6.0199 -1.2390 0.9757
-0.3946 6.3722 -1.3120 0.9743
-0.4342 6.3722 -1.3125 0.9743
-0.5134 6.3726 -1.3138 0.9742
-0.5214 6.0067 -1.2390 0.9757
-0.5929 6.3728 -1.3153 0.9742
-0.6326 6.3728 -1.3161 0.9742
-0.4348 3.8899 -0.8043 0.9841
-0.5218 3.8118 -0.7906 0.9844
-0.5453 3.8081 -0.7906 0.9844
-0.5688 3.8044 -0.7905 0.9844
-0.5931 3.8058 -0.7915 0.9844
-0.6181 3.8109 -0.7934 0.9844
-0.6434 3.8175 -0.7956 0.9843
-0.6713 3.8377 -0.8006 0.9842
-0.7017 3.8703 -0.8083 0.9841
-1.5081 7.2871 -1.5292 0.9701
-1.8352 7.2668 -1.5402 0.9699
-1.9176 7.2160 -1.5344 0.9700
-1.9203 7.0502 -1.5016 0.9706
-1.9229 6.8913 -1.4703 0.9712
-1.9252 6.7385 -1.4402 0.9718
-1.9406 6.3442 -1.3634 0.9733
-2.0682 6.3385 -1.3702 0.9731
-1.5684 4.5205 -0.9833 0.9807
-1.5698 4.4360 -0.9670 0.9810
-1.5746 4.2803 -0.9372 0.9815
-1.6001 4.2681 -0.9367 0.9816
-1.6182 4.1590 -0.9171 0.9819
-1.6194 4.0873 -0.9035 0.9822
-1.6206 4.0176 -0.8903 0.9825
-1.6218 3.9499 -0.8775 0.9827
-1.6230 3.8842 -0.8651 0.9830
-1.6241 3.8203 -0.8531 0.9832
-1.6262 3.6976 -0.8301 0.9836
-1.6273 3.6387 -0.8191 0.9839
-1.6292 3.5255 -0.7981 0.9843
-1.6302 3.4710 -0.7881 0.9845
-1.5843 3.3198 -0.7559 0.9851
-1.5925 3.1351 -0.7226 0.9857
-1.6475 3.1464 -0.7299 0.9856
-1.6952 3.1423 -0.7337 0.9855
-4.0641 7.2098 -1.7008 0.9668
-4.1236 7.2108 -1.7070 0.9666
-2.6621 4.5243 -1.0788 0.9788
-2.6632 4.4628 -1.0680 0.9790
-2.7663 4.4460 -1.0761 0.9788
-2.8310 4.4879 -1.0904 0.9786
-2.8704 4.4886 -1.0949 0.9785
-2.9101 4.4893 -1.0994 0.9784
-2.9905 4.4906 -1.1087 0.9782
-3.0723 4.4921 -1.1184 0.9780
-3.1138 4.4928 -1.1233 0.9779
-3.1556 4.4935 -1.1284 0.9778
-3.1978 4.4943 -1.1335 0.9777
-3.2404 4.4950 -1.1387 0.9776
-3.3706 4.4973 -1.1550 0.9773
-3.5045 4.4996 -1.1721 0.9770
-3.5501 4.5004 -1.1780 0.9769
-3.5961 4.5012 -1.1840 0.9767
-3.6426 4.5020 -1.1901 0.9766
-3.7370 4.5037 -1.2026 0.9764
-3.8630 4.4835 -1.2162 0.9761
-4.1886 4.5116 -1.2651 0.9752
-4.2417 4.5125 -1.2727 0.9750
-4.4050 4.5154 -1.2963 0.9746
-4.4608 4.5163 -1.3045 0.9744
-4.5745 4.5183 -1.3213 0.9741
-4.7508 4.5214 -1.3478 0.9736
-4.8111 4.5224 -1.3569 0.9734
-4.8750 4.5261 -1.3670 0.9732
-4.8791 4.4739 -1.3604 0.9733
-4.9720 4.5029 -1.3785 0.9730
-4.9226 4.3486 -1.3498 0.9735
-4.9254 4.1909 -1.3290 0.9739
-4.9263 4.1394 -1.3223 0.9741
-4.9307 3.8895 -1.2906 0.9747
-4.9179 3.7817 -1.2749 0.9750
-4.9932 3.6467 -1.2706 0.9751
-8.7261 6.2905 -2.2106 0.9570
-8.7649 6.2364 -2.2106 0.9570
-8.8413 6.1275 -2.2106 0.9570
-8.9533 5.9624 -2.2106 0.9570
-8.9900 5.9069 -2.2106 0.9570
-9.0623 5.7952 -2.2106 0.9570
-9.1682 5.6261 -2.2105 0.9570
-9.4981 5.0485 -2.2105 0.9570
-9.6200 4.8120 -2.2104 0.9570
-9.7918 4.4518 -2.2104 0.9570
-9.8727 4.2694 -2.2104 0.9570
-9.9248 4.1469 -2.2104 0.9570
-9.9502 4.0855 -2.2104 0.9570
