ply
format ascii 1.0
element vertex 1575
property float32 x
property float32 y
property float32 z
property float32 I
end_header
6.5820 -10.7261 -2.3920 0.9501
6.6482 -10.6851 -2.3920 0.9501
6.8453 -10.5600 -2.3920 0.9501
6.9754 -10.4745 -2.3920 0.9501
7.0401 -10.4312 -2.3920 0.9501
7.2959 -10.2539 -2.3920 0.9501
7.4222 -10.1628 -2.3920 0.9501
7.5473 -10.0702 -2.3920 0.9501
7.6094 -10.0234 -2.3920 0.9501
7.6713 -9.9761 -2.3920 0.9501
7.7328 -9.9285 -2.3920 0.9501
7.7941 -9.8805 -2.3920 0.9501
7.9157 -9.7833 -2.3920 0.9501
7.9760 -9.7342 -2.3920 0.9501
8.0361 -9.6847 -2.3920 0.9501
8.0958 -9.6348 -2.3920 0.9501
8.1552 -9.5846 -2.3920 0.9501
8.2732 -9.4829 -2.3920 0.9501
8.3898 -9.3799 -2.3920 0.9501
8.4477 -9.3278 -2.3920 0.9501
8.5052 -9.2754 -2.3920 0.9501
8.6193 -9.1695 -2.3920 0.9501
8.6758 -9.1161 -2.3920 0.9501
8.7879 -9.0080 -2.3920 0.9501
8.8434 -8.9535 -2.3920 0.9501
9.0080 -8.7879 -2.3920 0.9501
9.0622 -8.7320 -2.3920 0.9501
9.1160 -8.6758 -2.3920 0.9501
9.2754 -8.5052 -2.3920 0.9501
9.3278 -8.4477 -2.3920 0.9501
9.3799 -8.3899 -2.3920 0.9501
9.4318 -8.3317 -2.3920 0.9501
9.4829 -8.2732 -2.3920 0.9501
9.5339 -8.2144 -2.3920 0.9501
9.5845 -8.1553 -2.3920 0.9501
9.7833 -7.9157 -2.3920 0.9501
9.8321 -7.8551 -2.3920 0.9501
9.8805 -7.7941 -2.3920 0.9501
9.9285 -7.7328 -2.3920 0.9501
10.0233 -7.6095 -2.3920 0.9501
10.1167 -7.4849 -2.3920 0.9501
10.2085 -7.3592 -2.3920 0.9501
10.2538 -7.2959 -2.3920 0.9501
10.2987 -7.2324 -2.3920 0.9501
10.3433 -7.1686 -2.3920 0.9501
10.5174 -6.9105 -2.3920 0.9501
10.6438 -6.7142 -2.3920 0.9501
10.7665 -6.5156 -2.3920 0.9501
10.8066 -6.4489 -2.3920 0.9501
11.0384 -6.0436 -2.3920 0.9501
11.2200 -5.6994 -2.3920 0.9501
11.2550 -5.6299 -2.3920 0.9501
11.4561 -5.2085 -2.3920 0.9501
11.4881 -5.1376 -2.3920 0.9501
11.5197 -5.0664 -2.3920 0.9501
11.5508 -4.9951 -2.3920 0.9501
11.6708 -4.7079 -2.3920 0.9501
11.6997 -4.6356 -2.3920 0.9501
11.7561 -4.4905 -2.3920 0.9501
11.8107 -4.3448 -2.3920 0.9501
11.8636 -4.1984 -2.3920 0.9501
11.8893 -4.1250 -2.3920 0.9501
11.9638 -3.9037 -2.3920 0.9501
11.9877 -3.8296 -2.3920 0.9501
12.0112 -3.7554 -2.3920 0.9501
12.0342 -3.6811 -2.3920 0.9501
12.0567 -3.6066 -2.3920 0.9501
12.0788 -3.5319 -2.3920 0.9501
12.1004 -3.4572 -2.3920 0.9501
12.1422 -3.3072 -2.3920 0.9501
12.1624 -3.2321 -2.3920 0.9501
12.2203 -3.0059 -2.3920 0.9501
12.2386 -2.9303 -2.3920 0.9501
12.2740 -2.7787 -2.3920 0.9501
12.3686 -2.3214 -2.3920 0.9501
12.3964 -2.1683 -2.3920 0.9501
12.4095 -2.0916 -2.3920 0.9501
12.4575 -1.7840 -2.3920 0.9501
12.4683 -1.7069 -2.3920 0.9501
12.4786 -1.6298 -2.3920 0.9501
12.4884 -1.5526 -2.3920 0.9501
12.5304 -1.1658 -2.3920 0.9501
12.5374 -1.0883 -2.3920 0.9501
12.3483 -0.6114 -2.3499 0.9509
12.5807 -0.3113 -2.3920 0.9501
12.5843 -0.0779 -2.3920 0.9501
12.5846 -0.0000 -2.3920 0.9501
12.5807 0.3112 -2.3920 0.9501
12.5785 0.3890 -2.3920 0.9501
12.5691 0.6223 -2.3920 0.9501
12.5651 0.7000 -2.3920 0.9501
12.5554 0.8554 -2.3920 0.9501
12.3352 0.9171 -2.3510 0.9509
12.5304 1.1657 -2.3920 0.9501
12.5151 1.3206 -2.3920 0.9501
12.5067 1.3979 -2.3920 0.9501
11.6835 1.5259 -2.2396 0.9532
11.6638 1.6703 -2.2396 0.9532
11.6532 1.7424 -2.2396 0.9532
11.6189 1.9583 -2.2396 0.9532
11.5938 2.1018 -2.2396 0.9532
11.5805 2.1735 -2.2396 0.9532
11.4919 2.6016 -2.2396 0.9532
11.4756 2.6726 -2.2396 0.9532
11.4589 2.7435 -2.2396 0.9532
11.4417 2.8143 -2.2396 0.9532
11.3294 3.2368 -2.2396 0.9532
11.2885 3.3767 -2.2396 0.9532
11.2674 3.4465 -2.2396 0.9532
11.2459 3.5161 -2.2396 0.9532
11.2239 3.5856 -2.2396 0.9532
11.1917 3.7284 -2.2422 0.9531
11.1683 3.7975 -2.2421 0.9531
11.1203 3.9353 -2.2421 0.9531
11.0706 4.0724 -2.2421 0.9531
11.0451 4.1408 -2.2420 0.9531
10.9929 4.2770 -2.2420 0.9531
10.9661 4.3449 -2.2420 0.9531
10.9389 4.4126 -2.2420 0.9531
10.9113 4.4801 -2.2419 0.9531
10.8833 4.5475 -2.2419 0.9531
10.8261 4.6817 -2.2419 0.9531
10.7968 4.7484 -2.2419 0.9531
10.7671 4.8151 -2.2418 0.9531
10.7371 4.8816 -2.2418 0.9531
10.7066 4.9478 -2.2418 0.9531
10.6127 5.1454 -2.2418 0.9531
10.5480 5.2762 -2.2417 0.9531
10.4818 5.4062 -2.2417 0.9531
10.4481 5.4708 -2.2417 0.9531
10.4139 5.5353 -2.2416 0.9531
10.3445 5.6636 -2.2416 0.9531
10.3092 5.7274 -2.2416 0.9531
10.2735 5.7910 -2.2416 0.9531
10.2374 5.8544 -2.2415 0.9531
10.2009 5.9175 -2.2415 0.9531
10.0510 6.1678 -2.2414 0.9531
10.0126 6.2298 -2.2414 0.9531
9.9738 6.2915 -2.2414 0.9531
9.9346 6.3531 -2.2414 0.9531
9.8951 6.4143 -2.2414 0.9531
9.8148 6.5361 -2.2413 0.9531
9.7741 6.5966 -2.2413 0.9531
9.7330 6.6569 -2.2413 0.9531
9.6916 6.7169 -2.2413 0.9531
9.6498 6.7766 -2.2412 0.9531
9.6076 6.8361 -2.2412 0.9531
9.5651 6.8953 -2.2412 0.9531
9.4353 7.0714 -2.2411 0.9531
9.3913 7.1295 -2.2411 0.9531
9.3022 7.2451 -2.2411 0.9531
9.0734 7.5288 -2.2410 0.9531
8.9319 7.6957 -2.2409 0.9531
8.8841 7.7507 -2.2409 0.9531
8.7385 7.9140 -2.2409 0.9531
8.6893 7.9678 -2.2408 0.9531
8.6398 8.0213 -2.2408 0.9531
8.5900 8.0745 -2.2408 0.9531
8.5398 8.1274 -2.2408 0.9531
8.3873 8.2842 -2.2407 0.9531
8.3359 8.3358 -2.2407 0.9531
8.2841 8.3872 -2.2407 0.9531
8.1269 8.5392 -2.2406 0.9531
7.9669 8.6883 -2.2406 0.9531
7.8041 8.8344 -2.2405 0.9531
7.7493 8.8824 -2.2405 0.9531
7.5830 9.0244 -2.2404 0.9531
7.4140 9.1633 -2.2404 0.9531
7.3000 9.2541 -2.2403 0.9531
7.2426 9.2990 -2.2403 0.9531
7.1849 9.3436 -2.2403 0.9531
7.0102 9.4750 -2.2403 0.9531
6.9514 9.5181 -2.2402 0.9531
6.8923 9.5608 -2.2402 0.9531
6.8330 9.6032 -2.2402 0.9531
6.7734 9.6452 -2.2402 0.9531
6.7136 9.6868 -2.2402 0.9531
6.5326 9.8095 -2.2401 0.9531
6.4107 9.8893 -2.2401 0.9531
6.3493 9.9287 -2.2401 0.9531
4.4132 7.1917 -1.6038 0.9662
4.3604 7.2052 -1.6008 0.9663
4.2748 7.1635 -1.5856 0.9666
4.1909 7.1225 -1.5707 0.9669
4.0276 7.0429 -1.5421 0.9675
3.9202 6.9546 -1.5174 0.9680
3.8502 7.0322 -1.5238 0.9679
3.7042 7.0742 -1.5178 0.9680
3.5944 7.0761 -1.5085 0.9682
3.4821 7.0701 -1.4980 0.9684
3.2727 7.0817 -1.4828 0.9687
3.2201 7.0826 -1.4788 0.9688
3.1146 6.9646 -1.4501 0.9694
2.9987 7.0538 -1.4569 0.9693
2.9567 7.0762 -1.4577 0.9693
2.8303 7.1434 -1.4604 0.9692
2.7881 7.1658 -1.4615 0.9692
2.7034 7.2109 -1.4637 0.9691
2.6075 7.2258 -1.4601 0.9692
2.5638 7.2446 -1.4607 0.9692
2.5268 7.2830 -1.4652 0.9691
2.4717 7.5751 -1.5145 0.9681
2.4361 7.6259 -1.5216 0.9679
2.3275 7.7810 -1.5437 0.9675
2.2906 7.8337 -1.5513 0.9673
2.2137 7.9336 -1.5655 0.9670
2.0981 7.8952 -1.5527 0.9673
2.0640 7.9651 -1.5639 0.9671
2.0240 8.4535 -1.6522 0.9652
1.9690 8.4544 -1.6499 0.9653
1.9141 8.4552 -1.6478 0.9653
1.8049 8.4569 -1.6436 0.9654
1.3330 6.4406 -1.2501 0.9736
1.2919 6.4428 -1.2490 0.9736
1.2509 6.4449 -1.2478 0.9736
1.1830 6.3033 -1.2190 0.9742
1.1691 6.4489 -1.2457 0.9737
1.1283 6.4509 -1.2447 0.9737
1.0876 6.4528 -1.2438 0.9737
1.1013 7.0663 -1.3593 0.9713
1.0633 7.4247 -1.4256 0.9699
0.9700 7.4267 -1.4236 0.9700
0.8305 7.4297 -1.4210 0.9700
0.7378 7.4317 -1.4195 0.9700
0.6915 7.4327 -1.4188 0.9701
0.5990 7.4347 -1.4177 0.9701
0.4606 7.4377 -1.4164 0.9701
0.1842 7.4436 -1.4153 0.9701
0.0921 7.4456 -1.4153 0.9701
0.0461 7.4466 -1.4154 0.9701
-0.0921 7.4496 -1.4161 0.9701
-0.1382 7.4506 -1.4164 0.9701
-0.3140 6.3424 -1.2070 0.9745
-0.3614 6.4871 -1.2349 0.9739
-0.4823 6.4875 -1.2365 0.9739
-0.5110 6.3431 -1.2095 0.9744
-0.5506 6.3431 -1.2102 0.9744
-0.6036 6.4880 -1.2385 0.9738
-0.6441 6.4880 -1.2392 0.9738
-0.4349 3.8905 -0.7441 0.9842
-0.4774 3.8401 -0.7355 0.9844
-0.4996 3.8256 -0.7333 0.9844
-0.5219 3.8123 -0.7314 0.9845
-0.5454 3.8086 -0.7313 0.9845
-0.6182 3.8114 -0.7339 0.9844
-0.6714 3.8384 -0.7406 0.9843
-1.3896 7.4041 -1.4319 0.9698
-1.4354 7.3955 -1.4319 0.9698
-1.4812 7.3868 -1.4320 0.9698
-1.5725 7.3683 -1.4320 0.9698
-1.6637 7.3488 -1.4321 0.9698
-1.7091 7.3386 -1.4322 0.9698
-1.7545 7.3281 -1.4322 0.9698
-1.8451 7.3063 -1.4323 0.9698
-1.9251 6.7382 -1.3320 0.9719
-1.8908 6.4664 -1.2805 0.9729
-1.9335 6.4637 -1.2823 0.9729
-2.0599 6.3130 -1.2622 0.9733
-2.1504 6.4548 -1.2932 0.9727
-2.8404 8.3536 -1.6770 0.9647
-1.5684 4.5205 -0.9095 0.9807
-1.5665 4.3409 -0.8772 0.9814
-1.5746 4.2803 -0.8669 0.9816
-1.6001 4.2681 -0.8664 0.9816
-1.6169 4.2330 -0.8613 0.9817
-1.6194 4.0873 -0.8356 0.9823
-1.6218 3.9499 -0.8116 0.9828
-1.6252 3.7581 -0.7782 0.9835
-1.6273 3.6387 -0.7576 0.9839
-1.6292 3.5255 -0.7382 0.9843
-1.6302 3.4710 -0.7289 0.9845
-1.5843 3.3198 -0.6992 0.9851
-1.5909 3.2302 -0.6844 0.9854
-1.5917 3.1821 -0.6763 0.9856
-1.5925 3.1351 -0.6684 0.9858
-1.6084 3.1184 -0.6669 0.9858
-1.6475 3.1464 -0.6751 0.9856
-1.6726 3.1468 -0.6774 0.9856
-1.6952 3.1423 -0.6786 0.9856
-1.7083 3.1202 -0.6761 0.9856
-3.9375 7.0873 -1.5410 0.9675
-4.0641 7.2098 -1.5731 0.9669
-2.6632 4.4628 -0.9878 0.9791
-2.6843 4.4356 -0.9854 0.9791
-2.8310 4.4879 -1.0085 0.9786
-2.9905 4.4906 -1.0255 0.9783
-3.0313 4.4914 -1.0299 0.9782
-3.2404 4.4950 -1.0532 0.9777
-3.2834 4.4958 -1.0581 0.9776
-3.4594 4.4988 -1.0787 0.9772
-3.5045 4.4996 -1.0840 0.9770
-3.5501 4.5004 -1.0895 0.9769
-3.5961 4.5012 -1.0951 0.9768
-3.7906 4.4550 -1.1118 0.9765
-3.8630 4.4835 -1.1249 0.9762
-3.8881 4.4567 -1.1241 0.9762
-3.9822 4.5080 -1.1433 0.9758
-4.0329 4.5088 -1.1498 0.9757
-4.1361 4.5106 -1.1632 0.9754
-4.1886 4.5116 -1.1701 0.9752
-4.2955 4.5134 -1.1843 0.9749
-4.4050 4.5154 -1.1990 0.9746
-4.4608 4.5163 -1.2066 0.9745
-4.5173 4.5173 -1.2143 0.9743
-4.5745 4.5183 -1.2221 0.9742
-4.6325 4.5193 -1.2301 0.9740
-4.6912 4.5203 -1.2383 0.9738
-4.7508 4.5214 -1.2466 0.9737
-4.9226 4.3486 -1.2484 0.9736
-4.9236 4.2955 -1.2419 0.9737
-4.9263 4.1394 -1.2230 0.9741
-4.9281 4.0380 -1.2110 0.9744
-4.9289 3.9880 -1.2051 0.9745
-4.9298 3.9385 -1.1993 0.9746
-4.9112 3.8251 -1.1832 0.9750
-4.8893 3.7118 -1.1668 0.9753
-4.8901 3.6650 -1.1615 0.9754
-4.9932 3.6467 -1.1752 0.9751
-9.3540 6.5689 -2.1725 0.9545
-9.3557 6.4841 -2.1636 0.9547
-9.3576 6.4001 -2.1548 0.9549
-9.3594 6.3168 -2.1462 0.9551
-9.3631 6.1521 -2.1294 0.9554
-9.5748 6.1229 -2.1602 0.9548
-9.9662 6.2867 -2.2397 0.9532
-10.0048 6.2249 -2.2397 0.9532
-10.0431 6.1629 -2.2397 0.9532
-10.0810 6.1007 -2.2397 0.9532
-10.1185 6.0382 -2.2396 0.9532
-10.1556 5.9755 -2.2396 0.9532
-10.2287 5.8494 -2.2396 0.9532
-10.2646 5.7860 -2.2396 0.9532
-10.3002 5.7224 -2.2396 0.9532
-10.3353 5.6586 -2.2396 0.9532
-10.3701 5.5946 -2.2396 0.9532
-10.4720 5.4012 -2.2396 0.9532
-10.5052 5.3362 -2.2396 0.9532
-10.5703 5.2059 -2.2396 0.9532
-10.6339 5.0748 -2.2396 0.9532
-10.7262 4.8766 -2.2396 0.9532
-10.7562 4.8102 -2.2396 0.9532
-10.7857 4.7436 -2.2396 0.9532
-10.8148 4.6768 -2.2396 0.9532
-10.8436 4.6098 -2.2396 0.9532
-10.8719 4.5427 -2.2396 0.9532
-10.8997 4.4754 -2.2396 0.9532
-10.9542 4.3402 -2.2396 0.9532
-10.9809 4.2724 -2.2396 0.9532
-11.1077 3.9308 -2.2396 0.9532
-11.1555 3.7932 -2.2396 0.9532
-11.2885 3.3767 -2.2396 0.9532
-11.3092 3.3068 -2.2396 0.9532
-5.4254 1.5501 -1.0725 0.9773
-5.4175 1.4756 -1.0672 0.9774
-5.4101 1.4019 -1.0623 0.9775
-5.4031 1.3290 -1.0576 0.9776
-5.3997 1.2928 -1.0553 0.9776
-5.3902 1.1853 -1.0490 0.9778
-5.3844 1.1143 -1.0451 0.9779
-5.3790 1.0440 -1.0415 0.9779
-5.3764 1.0091 -1.0397 0.9780
-5.3692 0.9049 -1.0349 0.9781
-5.3669 0.8704 -1.0334 0.9781
-5.3648 0.8361 -1.0320 0.9781
-5.3627 0.8018 -1.0306 0.9782
-5.3608 0.7677 -1.0293 0.9782
-5.3589 0.7336 -1.0281 0.9782
-5.3571 0.6997 -1.0269 0.9782
-5.3554 0.6658 -1.0257 0.9783
-5.3523 0.5983 -1.0237 0.9783
-5.3495 0.5311 -1.0218 0.9783
-5.3459 0.4307 -1.0194 0.9784
-5.3449 0.3974 -1.0187 0.9784
-5.3440 0.3641 -1.0181 0.9784
-5.3423 0.2977 -1.0170 0.9784
-5.3410 0.2313 -1.0161 0.9785
-5.3401 0.1652 -1.0155 0.9785
-5.3394 0.0991 -1.0150 0.9785
-5.3391 0.0330 -1.0148 0.9785
-5.4265 -0.0336 -1.0733 0.9781
-5.4269 -0.1007 -1.0735 0.9781
-5.4272 -0.1343 -1.0737 0.9781
-5.4276 -0.1679 -1.0740 0.9781
-5.4286 -0.2352 -1.0747 0.9781
-5.4293 -0.2688 -1.0751 0.9781
-5.4309 -0.3363 -1.0761 0.9781
-5.4328 -0.4039 -1.0774 0.9780
-5.4351 -0.4717 -1.0790 0.9780
-5.4363 -0.5057 -1.0798 0.9780
-5.4392 -0.5739 -1.0817 0.9779
-5.4424 -0.6424 -1.0838 0.9779
-5.4459 -0.7113 -1.0862 0.9779
-5.4499 -0.7804 -1.0888 0.9778
-5.4565 -0.8850 -1.0933 0.9777
-5.4613 -0.9552 -1.0965 0.9776
-5.4639 -0.9906 -1.0982 0.9776
-5.4666 -1.0260 -1.1000 0.9776
-5.4694 -1.0616 -1.1019 0.9775
-5.4723 -1.0973 -1.1038 0.9775
-5.4815 -1.2054 -1.1100 0.9774
-5.4882 -1.2782 -1.1145 0.9773
-5.4954 -1.3517 -1.1192 0.9772
-5.4991 -1.3887 -1.1217 0.9771
-5.5029 -1.4260 -1.1243 0.9771
-5.5068 -1.4634 -1.1269 0.9770
-5.5151 -1.5388 -1.1324 0.9769
-11.5870 -3.4661 -2.3920 0.9519
-11.5433 -3.6091 -2.3920 0.9519
-11.4505 -3.8936 -2.3920 0.9519
-11.4262 -3.9643 -2.3920 0.9519
-11.4015 -4.0348 -2.3920 0.9519
-11.3763 -4.1053 -2.3920 0.9519
-11.3507 -4.1756 -2.3920 0.9519
-11.3246 -4.2457 -2.3920 0.9519
-11.2982 -4.3156 -2.3920 0.9519
-11.2713 -4.3854 -2.3920 0.9519
-11.2162 -4.5246 -2.3920 0.9519
-11.1880 -4.5938 -2.3920 0.9519
-11.1594 -4.6629 -2.3920 0.9519
-11.1303 -4.7318 -2.3920 0.9519
-11.0709 -4.8690 -2.3920 0.9519
-11.0406 -4.9375 -2.3920 0.9519
-11.0099 -5.0056 -2.3920 0.9519
-10.9787 -5.0736 -2.3920 0.9519
-10.9471 -5.1414 -2.3920 0.9519
-10.8166 -5.4106 -2.3920 0.9519
-10.7488 -5.5440 -2.3920 0.9519
-10.6084 -5.8082 -2.3920 0.9519
-10.4615 -6.0688 -2.3920 0.9519
-10.4238 -6.1334 -2.3920 0.9519
-10.3082 -6.3257 -2.3920 0.9519
-10.2292 -6.4527 -2.3920 0.9519
-10.1891 -6.5158 -2.3920 0.9519
-9.9404 -6.8893 -2.3920 0.9519
-9.8976 -6.9507 -2.3920 0.9519
-9.8544 -7.0118 -2.3920 0.9519
-9.8108 -7.0725 -2.3920 0.9519
-9.7669 -7.1331 -2.3920 0.9519
-9.7226 -7.1934 -2.3920 0.9519
-9.6779 -7.2533 -2.3920 0.9519
-9.6329 -7.3130 -2.3920 0.9519
-9.5417 -7.4316 -2.3920 0.9519
-9.4491 -7.5491 -2.3920 0.9519
-9.3550 -7.6654 -2.3920 0.9519
-9.3074 -7.7230 -2.3920 0.9519
-9.2595 -7.7805 -2.3920 0.9519
-9.2112 -7.8376 -2.3920 0.9519
-9.1625 -7.8944 -2.3920 0.9519
-9.1135 -7.9509 -2.3920 0.9519
-9.0642 -8.0071 -2.3920 0.9519
-9.0145 -8.0630 -2.3920 0.9519
-8.9141 -8.1739 -2.3920 0.9519
-8.8634 -8.2289 -2.3920 0.9519
-8.8123 -8.2836 -2.3920 0.9519
-8.7092 -8.3919 -2.3920 0.9519
-8.6571 -8.4456 -2.3920 0.9519
-8.6047 -8.4990 -2.3920 0.9519
-8.5520 -8.5520 -2.3920 0.9519
-8.4456 -8.6571 -2.3920 0.9519
-8.3919 -8.7092 -2.3920 0.9519
-8.2289 -8.8634 -2.3920 0.9519
-8.1186 -8.9645 -2.3920 0.9519
-8.0071 -9.0642 -2.3920 0.9519
-7.9509 -9.1136 -2.3920 0.9519
-7.8944 -9.1626 -2.3920 0.9519
-7.8376 -9.2112 -2.3920 0.9519
-7.7805 -9.2595 -2.3920 0.9519
-7.7230 -9.3075 -2.3920 0.9519
-7.6653 -9.3550 -2.3920 0.9519
-7.6073 -9.4022 -2.3920 0.9519
-7.4905 -9.4956 -2.3920 0.9519
-7.3130 -9.6329 -2.3920 0.9519
-7.2533 -9.6780 -2.3920 0.9519
-7.1933 -9.7226 -2.3920 0.9519
-7.1331 -9.7670 -2.3920 0.9519
-6.7658 -10.0249 -2.3920 0.9519
-6.7037 -10.0665 -2.3920 0.9519
-6.5158 -10.1891 -2.3920 0.9519
-6.4527 -10.2292 -2.3920 0.9519
-6.3256 -10.3082 -2.3920 0.9519
-6.1333 -10.4238 -2.3920 0.9519
-6.0039 -10.4989 -2.3920 0.9519
-5.6765 -10.6795 -2.3920 0.9519
-5.4106 -10.8166 -2.3920 0.9519
-5.2764 -10.8827 -2.3920 0.9519
-5.0056 -11.0099 -2.3920 0.9519
-4.5937 -11.1880 -2.3920 0.9519
-4.4550 -11.2439 -2.3920 0.9519
-4.2456 -11.3247 -2.3920 0.9519
-4.1052 -11.3763 -2.3920 0.9519
-3.9642 -11.4262 -2.3920 0.9519
-3.8935 -11.4505 -2.3920 0.9519
-3.8226 -11.4744 -2.3920 0.9519
-3.6804 -11.5208 -2.3920 0.9519
-3.6091 -11.5433 -2.3920 0.9519
-3.5376 -11.5654 -2.3920 0.9519
-3.4660 -11.5871 -2.3920 0.9519
-3.3943 -11.6083 -2.3920 0.9519
-3.3225 -11.6291 -2.3920 0.9519
-3.2505 -11.6494 -2.3920 0.9519
-3.1784 -11.6693 -2.3920 0.9519
-3.0338 -11.7077 -2.3920 0.9519
-2.8888 -11.7443 -2.3920 0.9519
-2.7433 -11.7791 -2.3920 0.9519
-2.5974 -11.8121 -2.3920 0.9519
-2.5243 -11.8280 -2.3920 0.9519
-2.4511 -11.8434 -2.3920 0.9519
-2.3044 -11.8728 -2.3920 0.9519
-2.0838 -11.9135 -2.3920 0.9519
-2.0101 -11.9262 -2.3920 0.9519
-1.9363 -11.9383 -2.3920 0.9519
-1.8624 -11.9501 -2.3920 0.9519
-1.7885 -11.9614 -2.3920 0.9519
-1.6404 -11.9826 -2.3920 0.9519
-1.3435 -12.0195 -2.3920 0.9519
-1.2692 -12.0276 -2.3920 0.9519
-1.0453 -12.0491 -2.3920 0.9519
-0.8221 -12.0664 -2.3920 0.9519
-0.6728 -12.0757 -2.3920 0.9519
-0.5981 -12.0796 -2.3920 0.9519
-0.4483 -12.0860 -2.3920 0.9519
-0.3738 -12.0886 -2.3920 0.9519
-0.2990 -12.0907 -2.3920 0.9519
-0.1494 -12.0935 -2.3920 0.9519
0.0002 -12.0944 -2.3920 0.9519
0.0751 -12.0941 -2.3920 0.9519
0.1498 -12.0935 -2.3920 0.9519
0.2994 -12.0907 -2.3920 0.9519
0.5237 -12.0831 -2.3920 0.9519
0.8219 -12.0664 -2.3920 0.9519
1.2690 -12.0276 -2.3920 0.9519
1.3433 -12.0195 -2.3920 0.9519
1.4182 -12.0110 -2.3920 0.9519
1.5662 -11.9925 -2.3920 0.9519
1.7885 -11.9614 -2.3920 0.9519
1.8624 -11.9501 -2.3920 0.9519
2.0838 -11.9135 -2.3920 0.9519
2.1574 -11.9004 -2.3920 0.9519
2.2310 -11.8868 -2.3920 0.9519
2.4511 -11.8434 -2.3920 0.9519
2.5243 -11.8280 -2.3920 0.9519
2.5974 -11.8121 -2.3920 0.9519
2.7433 -11.7791 -2.3920 0.9519
2.8161 -11.7620 -2.3920 0.9519
2.8888 -11.7443 -2.3920 0.9519
2.9614 -11.7262 -2.3920 0.9519
3.0338 -11.7077 -2.3920 0.9519
3.1784 -11.6693 -2.3920 0.9519
3.2505 -11.6494 -2.3920 0.9519
3.3225 -11.6290 -2.3920 0.9519
3.5376 -11.5654 -2.3920 0.9519
3.8226 -11.4744 -2.3920 0.9519
3.9642 -11.4262 -2.3920 0.9519
4.0348 -11.4015 -2.3920 0.9519
4.2456 -11.3246 -2.3920 0.9519
4.3156 -11.2982 -2.3920 0.9519
4.5937 -11.1880 -2.3920 0.9519
4.7317 -11.1304 -2.3920 0.9519
4.8005 -11.1009 -2.3920 0.9519
4.9374 -11.0406 -2.3920 0.9519
5.0056 -11.0099 -2.3920 0.9519
5.0736 -10.9787 -2.3920 0.9519
5.2090 -10.9152 -2.3920 0.9519
5.3436 -10.8499 -2.3920 0.9519
5.4774 -10.7830 -2.3920 0.9519
5.5440 -10.7489 -2.3920 0.9519
5.8081 -10.6085 -2.3920 0.9519
5.9389 -10.5358 -2.3920 0.9519
6.0688 -10.4616 -2.3920 0.9519
6.1333 -10.4238 -2.3920 0.9519
6.1977 -10.3857 -2.3920 0.9519
6.3893 -10.2689 -2.3920 0.9519
6.4527 -10.2292 -2.3920 0.9519
6.5158 -10.1891 -2.3920 0.9519
6.5787 -10.1486 -2.3920 0.9519
6.6413 -10.1078 -2.3920 0.9519
6.7037 -10.0665 -2.3920 0.9519
6.7658 -10.0248 -2.3920 0.9519
6.8277 -9.9828 -2.3920 0.9519
6.9506 -9.8976 -2.3920 0.9519
7.0117 -9.8544 -2.3920 0.9519
7.1331 -9.7670 -2.3920 0.9519
7.1933 -9.7227 -2.3920 0.9519
7.3130 -9.6329 -2.3920 0.9519
7.3725 -9.5875 -2.3920 0.9519
7.4905 -9.4956 -2.3920 0.9519
7.6653 -9.3550 -2.3920 0.9519
7.7230 -9.3074 -2.3920 0.9519
7.8376 -9.2112 -2.3920 0.9519
7.8944 -9.1625 -2.3920 0.9519
7.9509 -9.1136 -2.3920 0.9519
8.0071 -9.0642 -2.3920 0.9519
8.2835 -8.8123 -2.3920 0.9519
8.3919 -8.7092 -2.3920 0.9519
8.5523 -8.5520 -2.3920 0.9519
8.7093 -8.3919 -2.3920 0.9519
8.7606 -8.3379 -2.3920 0.9519
8.8123 -8.2835 -2.3920 0.9519
8.8634 -8.2289 -2.3920 0.9519
9.0145 -8.0630 -2.3920 0.9519
9.1625 -7.8944 -2.3920 0.9519
9.2112 -7.8376 -2.3920 0.9519
9.2595 -7.7805 -2.3920 0.9519
9.3550 -7.6654 -2.3920 0.9519
9.4022 -7.6074 -2.3920 0.9519
9.4491 -7.5491 -2.3920 0.9519
9.4956 -7.4905 -2.3920 0.9519
9.5417 -7.4316 -2.3920 0.9519
9.6779 -7.2533 -2.3920 0.9519
9.7669 -7.1331 -2.3920 0.9519
9.8976 -6.9507 -2.3920 0.9519
9.9828 -6.8277 -2.3920 0.9519
10.1077 -6.6414 -2.3920 0.9519
10.1486 -6.5787 -2.3920 0.9519
10.1891 -6.5158 -2.3920 0.9519
10.2689 -6.3893 -2.3920 0.9519
10.3471 -6.2618 -2.3920 0.9519
10.3857 -6.1977 -2.3920 0.9519
10.4238 -6.1333 -2.3920 0.9519
10.4615 -6.0688 -2.3920 0.9519
10.4988 -6.0040 -2.3920 0.9519
10.5358 -5.9389 -2.3920 0.9519
10.5723 -5.8736 -2.3920 0.9519
10.6794 -5.6765 -2.3920 0.9519
10.7143 -5.6104 -2.3920 0.9519
10.7829 -5.4774 -2.3920 0.9519
10.8498 -5.3436 -2.3920 0.9519
10.8827 -5.2764 -2.3920 0.9519
10.9151 -5.2090 -2.3920 0.9519
10.9471 -5.1414 -2.3920 0.9519
10.9787 -5.0736 -2.3920 0.9519
11.0406 -4.9374 -2.3920 0.9519
11.0709 -4.8691 -2.3920 0.9519
11.1008 -4.8005 -2.3920 0.9519
11.1594 -4.6629 -2.3920 0.9519
11.1880 -4.5938 -2.3920 0.9519
11.2162 -4.5245 -2.3920 0.9519
11.2713 -4.3854 -2.3920 0.9519
11.2982 -4.3156 -2.3920 0.9519
11.3246 -4.2457 -2.3920 0.9519
11.3763 -4.1053 -2.3920 0.9519
11.4015 -4.0349 -2.3920 0.9519
11.4262 -3.9643 -2.3920 0.9519
11.4505 -3.8935 -2.3920 0.9519
11.5433 -3.6091 -2.3920 0.9519
11.5654 -3.5377 -2.3920 0.9519
11.6494 -3.2505 -2.3920 0.9519
11.6692 -3.1784 -2.3920 0.9519
11.7262 -2.9614 -2.3920 0.9519
11.7443 -2.8888 -2.3920 0.9519
11.7619 -2.8161 -2.3920 0.9519
11.7791 -2.7433 -2.3920 0.9519
11.8121 -2.5974 -2.3920 0.9519
11.8280 -2.5243 -2.3920 0.9519
11.8434 -2.4511 -2.3920 0.9519
11.8868 -2.2310 -2.3920 0.9519
11.9135 -2.0838 -2.3920 0.9519
11.9261 -2.0101 -2.3920 0.9519
11.9383 -1.9363 -2.3920 0.9519
11.9501 -1.8625 -2.3920 0.9519
11.9826 -1.6404 -2.3920 0.9519
11.9925 -1.5663 -2.3920 0.9519
12.0109 -1.4178 -2.3920 0.9519
12.0195 -1.3436 -2.3920 0.9519
12.0276 -1.2692 -2.3920 0.9519
12.0352 -1.1948 -2.3920 0.9519
12.0423 -1.1204 -2.3920 0.9519
12.0553 -0.9713 -2.3920 0.9519
12.0611 -0.8967 -2.3920 0.9519
12.0664 -0.8222 -2.3920 0.9519
12.0712 -0.7475 -2.3920 0.9519
12.0795 -0.5981 -2.3920 0.9519
12.0830 -0.5234 -2.3920 0.9519
12.0886 -0.3739 -2.3920 0.9519
12.0906 -0.2992 -2.3920 0.9519
12.0923 -0.2244 -2.3920 0.9519
12.0943 -0.0000 -2.3920 0.9519
12.0906 0.2991 -2.3920 0.9519
12.0795 0.5981 -2.3920 0.9519
12.0756 0.6728 -2.3920 0.9519
12.0664 0.8221 -2.3920 0.9519
12.0490 1.0458 -2.3920 0.9519
12.0423 1.1203 -2.3920 0.9519
12.0352 1.1947 -2.3920 0.9519
12.0109 1.4178 -2.3920 0.9519
11.2094 1.6052 -2.2396 0.9549
11.1887 1.7437 -2.2396 0.9549
11.1544 1.9510 -2.2396 0.9549
11.1421 2.0199 -2.2396 0.9549
11.1294 2.0888 -2.2396 0.9549
11.1027 2.2263 -2.2396 0.9549
11.0888 2.2949 -2.2396 0.9549
11.0744 2.3634 -2.2396 0.9549
11.0595 2.4319 -2.2396 0.9549
11.0125 2.6366 -2.2396 0.9549
10.9791 2.7727 -2.2396 0.9549
10.9257 2.9759 -2.2396 0.9549
10.9071 3.0434 -2.2396 0.9549
10.8687 3.1780 -2.2396 0.9549
10.8285 3.3122 -2.2396 0.9549
10.8078 3.3791 -2.2396 0.9549
10.7867 3.4459 -2.2396 0.9549
10.7652 3.5125 -2.2396 0.9549
10.6633 3.8480 -2.2421 0.9548
10.6392 3.9138 -2.2420 0.9548
10.6148 3.9795 -2.2420 0.9548
10.5645 4.1104 -2.2420 0.9548
10.5127 4.2406 -2.2419 0.9548
10.4593 4.3703 -2.2419 0.9548
10.4043 4.4993 -2.2419 0.9548
10.3762 4.5635 -2.2419 0.9548
10.2895 4.7551 -2.2418 0.9548
10.2598 4.8186 -2.2418 0.9548
10.2297 4.8819 -2.2418 0.9548
9.9415 5.4430 -2.2416 0.9548
9.8035 5.6870 -2.2415 0.9548
9.7681 5.7475 -2.2415 0.9548
9.7323 5.8078 -2.2415 0.9548
9.6595 5.9276 -2.2414 0.9548
9.5853 6.0465 -2.2414 0.9548
9.3539 6.3976 -2.2413 0.9548
9.2739 6.5127 -2.2412 0.9548
9.1097 6.7398 -2.2412 0.9548
8.7647 7.1816 -2.2410 0.9548
8.7200 7.2356 -2.2410 0.9548
8.4452 7.5538 -2.2409 0.9549
8.2555 7.7601 -2.2408 0.9549
8.1099 7.9117 -2.2408 0.9549
8.0607 7.9616 -2.2407 0.9549
7.9615 8.0606 -2.2407 0.9549
7.9115 8.1096 -2.2407 0.9549
7.8611 8.1583 -2.2407 0.9549
7.8104 8.2067 -2.2407 0.9549
7.7595 8.2548 -2.2406 0.9549
7.5527 8.4439 -2.2406 0.9549
7.3945 8.5824 -2.2405 0.9549
7.3413 8.6279 -2.2405 0.9549
7.1798 8.7624 -2.2404 0.9549
6.9052 8.9798 -2.2403 0.9549
6.8494 9.0223 -2.2403 0.9549
6.7372 9.1061 -2.2403 0.9549
6.5670 9.2293 -2.2402 0.9549
6.4522 9.3097 -2.2402 0.9549
6.3365 9.3886 -2.2402 0.9549
6.2783 9.4276 -2.2402 0.9549
6.2198 9.4661 -2.2401 0.9549
6.1611 9.5044 -2.2401 0.9549
6.0430 9.5797 -2.2401 0.9549
4.3604 7.2052 -1.6656 0.9662
4.2748 7.1635 -1.6498 0.9666
3.9202 6.9546 -1.5789 0.9680
3.8502 7.0322 -1.5856 0.9678
3.8154 7.0722 -1.5893 0.9678
3.7596 7.0732 -1.5842 0.9679
3.6492 7.0751 -1.5744 0.9681
3.5944 7.0761 -1.5697 0.9682
3.4322 7.0789 -1.5559 0.9684
3.3787 7.0798 -1.5515 0.9685
3.2727 7.0817 -1.5429 0.9687
3.2201 7.0826 -1.5387 0.9688
3.0668 6.9731 -1.5066 0.9694
3.0407 7.0315 -1.5151 0.9692
2.9567 7.0762 -1.5167 0.9692
2.9146 7.0986 -1.5177 0.9692
2.8303 7.1434 -1.5196 0.9692
2.7458 7.1883 -1.5219 0.9691
2.7034 7.2109 -1.5231 0.9691
2.6609 7.2334 -1.5243 0.9691
2.6075 7.2258 -1.5193 0.9692
2.5268 7.2830 -1.5246 0.9691
2.3853 7.6292 -1.5809 0.9679
2.2906 7.8337 -1.6142 0.9673
2.2533 7.8870 -1.6223 0.9671
2.2137 7.9336 -1.6290 0.9670
2.0981 7.8952 -1.6157 0.9672
2.0733 8.2097 -1.6747 0.9661
2.0537 8.3492 -1.7005 0.9655
1.9690 8.4544 -1.7168 0.9652
1.9141 8.4552 -1.7145 0.9653
1.3237 6.3957 -1.2917 0.9737
1.2829 6.3978 -1.2905 0.9737
1.2146 6.2575 -1.2607 0.9743
1.1205 6.4061 -1.2862 0.9738
1.0826 7.2403 -1.4479 0.9706
0.9915 7.2423 -1.4457 0.9706
0.9460 7.2433 -1.4447 0.9707
0.9006 7.2442 -1.4438 0.9707
0.8553 7.2452 -1.4429 0.9707
0.4942 7.2530 -1.4378 0.9708
0.4042 7.2549 -1.4371 0.9708
0.3593 7.2559 -1.4368 0.9708
0.2694 7.2578 -1.4364 0.9708
0.2245 7.2588 -1.4363 0.9708
0.1796 7.2598 -1.4362 0.9708
0.1347 7.2607 -1.4362 0.9708
0.0898 7.2617 -1.4363 0.9708
0.0449 7.2627 -1.4364 0.9708
-0.0449 7.2646 -1.4368 0.9708
-0.1348 7.2665 -1.4374 0.9708
-0.2391 6.4420 -1.2749 0.9741
-0.2791 6.4421 -1.2753 0.9741
-0.3119 6.2987 -1.2473 0.9746
-0.4790 6.4426 -1.2777 0.9740
-0.5088 6.3149 -1.2530 0.9745
-0.5467 6.2993 -1.2505 0.9745
-0.5994 6.4431 -1.2798 0.9740
-0.6396 6.4431 -1.2805 0.9739
-0.7679 7.2772 -1.4472 0.9706
-0.4348 3.8903 -0.7742 0.9842
-0.4558 3.8615 -0.7690 0.9843
-0.4774 3.8400 -0.7653 0.9843
-0.4996 3.8254 -0.7630 0.9844
-0.5454 3.8084 -0.7609 0.9844
-0.5689 3.8047 -0.7608 0.9844
-0.6435 3.8179 -0.7657 0.9843
-0.6713 3.8381 -0.7706 0.9842
-0.7018 3.8712 -0.7781 0.9841
-1.3673 7.2852 -1.4660 0.9702
-1.4611 7.2865 -1.4698 0.9702
-1.5553 7.2878 -1.4738 0.9701
-1.6977 7.2896 -1.4803 0.9699
-1.8896 7.2922 -1.4899 0.9698
-1.9176 7.2160 -1.4767 0.9700
-1.9228 6.8913 -1.4150 0.9712
-1.9197 6.4175 -1.3248 0.9731
-2.0054 6.4139 -1.3291 0.9730
-2.0253 6.2070 -1.2913 0.9737
-2.0642 6.0707 -1.2681 0.9742
-1.5698 4.4360 -0.9306 0.9810
-1.6001 4.2681 -0.9015 0.9816
-1.6194 4.0873 -0.8695 0.9822
-1.6206 4.0176 -0.8568 0.9825
-1.6230 3.8842 -0.8326 0.9830
-1.6252 3.7581 -0.8098 0.9834
-1.6302 3.4710 -0.7584 0.9845
-1.5970 3.2939 -0.7240 0.9852
-1.5925 3.1351 -0.6955 0.9858
-1.6475 3.1464 -0.7024 0.9856
-1.6952 3.1423 -0.7061 0.9855
-1.7083 3.1202 -0.7035 0.9856
-4.1236 7.2108 -1.6428 0.9667
-4.1836 7.2119 -1.6489 0.9666
-2.6843 4.4356 -1.0254 0.9791
-2.7663 4.4459 -1.0356 0.9789
-2.8310 4.4879 -1.0494 0.9786
-2.8704 4.4886 -1.0537 0.9785
-2.9101 4.4893 -1.0581 0.9784
-2.9501 4.4899 -1.0625 0.9783
-3.0313 4.4914 -1.0717 0.9781
-3.0723 4.4921 -1.0763 0.9781
-3.1138 4.4928 -1.0811 0.9780
-3.2404 4.4950 -1.0959 0.9777
-3.3268 4.4965 -1.1062 0.9775
-3.3706 4.4973 -1.1115 0.9773
-3.4148 4.4981 -1.1169 0.9772
-3.5045 4.4996 -1.1280 0.9770
-3.5501 4.5004 -1.1337 0.9769
-3.5961 4.5012 -1.1394 0.9768
-3.6426 4.5020 -1.1453 0.9767
-3.6896 4.5029 -1.1513 0.9765
-3.7370 4.5037 -1.1574 0.9764
-3.7693 4.4858 -1.1588 0.9764
-3.7906 4.4550 -1.1568 0.9764
-3.8630 4.4835 -1.1705 0.9762
-3.8881 4.4567 -1.1697 0.9762
-3.9822 4.5080 -1.1896 0.9758
-4.0842 4.5097 -1.2033 0.9755
-4.1361 4.5106 -1.2104 0.9754
-4.1886 4.5116 -1.2175 0.9752
-4.2955 4.5134 -1.2323 0.9749
-4.4050 4.5154 -1.2476 0.9746
-4.5173 4.5173 -1.2635 0.9743
-4.6325 4.5193 -1.2800 0.9740
-4.6912 4.5203 -1.2884 0.9738
-4.8111 4.5224 -1.3059 0.9734
-4.8791 4.4739 -1.3093 0.9734
-4.9226 4.3486 -1.2990 0.9736
-4.9245 4.2429 -1.2856 0.9738
-4.9263 4.1394 -1.2726 0.9741
-4.9272 4.0884 -1.2663 0.9742
-4.9281 4.0380 -1.2600 0.9744
-4.9289 3.9880 -1.2539 0.9745
-4.9298 3.9385 -1.2479 0.9746
-4.9307 3.8895 -1.2420 0.9747
-4.9179 3.7817 -1.2269 0.9750
-4.8901 3.6650 -1.2086 0.9754
-9.1865 6.6224 -2.2397 0.9549
-9.2273 6.5655 -2.2397 0.9549
-9.3474 6.3931 -2.2397 0.9549
-9.3596 6.3169 -2.2332 0.9550
-9.5404 6.1010 -2.2397 0.9549
-9.5780 6.0418 -2.2397 0.9549
-9.6151 5.9825 -2.2397 0.9549
-9.8648 5.5606 -2.2396 0.9549
-10.0641 5.1907 -2.2396 0.9549
-10.1586 5.0031 -2.2396 0.9549
-10.2196 4.8771 -2.2395 0.9549
-10.3084 4.6866 -2.2396 0.9549
-10.3372 4.6228 -2.2396 0.9549
-10.3936 4.4946 -2.2396 0.9549
-10.4212 4.4303 -2.2396 0.9549
-10.4484 4.3657 -2.2396 0.9549
-10.4752 4.3010 -2.2396 0.9549
-10.5276 4.1712 -2.2396 0.9549
-10.6275 3.9094 -2.2396 0.9549
-10.6515 3.8437 -2.2396 0.9549
-10.6750 3.7777 -2.2396 0.9549
-10.7433 3.5790 -2.2396 0.9549
-10.7652 3.5125 -2.2396 0.9549
-10.8488 3.2452 -2.2396 0.9549
-10.8881 3.1108 -2.2396 0.9549
-5.5151 1.5388 -1.1324 0.9769
-5.4991 1.3887 -1.1217 0.9771
-5.4917 1.3149 -1.1168 0.9772
-5.4882 1.2782 -1.1145 0.9773
-5.4815 1.2054 -1.1100 0.9774
-5.4784 1.1692 -1.1079 0.9774
-5.4639 0.9906 -1.0982 0.9776
-5.4613 0.9553 -1.0965 0.9776
-5.4589 0.9201 -1.0949 0.9777
-5.4565 0.8850 -1.0933 0.9777
-5.4542 0.8500 -1.0917 0.9777
-5.4520 0.8152 -1.0903 0.9778
-5.4459 0.7113 -1.0862 0.9779
-5.4407 0.6081 -1.0827 0.9779
-5.4392 0.5739 -1.0817 0.9779
-5.4339 0.4378 -1.0782 0.9780
-5.4318 0.3701 -1.0768 0.9780
-5.4309 0.3363 -1.0761 0.9781
-5.4293 0.2688 -1.0751 0.9781
-5.4281 0.2015 -1.0743 0.9781
-5.4276 0.1679 -1.0740 0.9781
-5.4272 0.1343 -1.0737 0.9781
-5.4267 0.0671 -1.0733 0.9781
-5.4265 0.0336 -1.0733 0.9781
-5.5171 0.0000 -1.1338 0.9777
-5.5172 -0.0341 -1.1338 0.9777
-5.5175 -0.1024 -1.1341 0.9777
-5.5179 -0.1365 -1.1343 0.9777
-5.5183 -0.1707 -1.1346 0.9777
-5.5194 -0.2391 -1.1353 0.9777
-5.5201 -0.2733 -1.1358 0.9777
-5.5239 -0.4107 -1.1383 0.9776
-5.5251 -0.4451 -1.1391 0.9776
-5.5263 -0.4797 -1.1399 0.9776
-5.5277 -0.5143 -1.1409 0.9776
-5.5292 -0.5489 -1.1418 0.9776
-5.5307 -0.5836 -1.1429 0.9775
-5.5324 -0.6184 -1.1440 0.9775
-5.5342 -0.6533 -1.1452 0.9775
-5.5422 -0.7937 -1.1506 0.9774
-5.5468 -0.8645 -1.1536 0.9773
-5.5479 -0.8998 -1.1550 0.9773
-5.5488 -0.9352 -1.1564 0.9773
-5.5498 -0.9707 -1.1578 0.9773
-5.5508 -1.0063 -1.1593 0.9772
-5.5529 -1.0778 -1.1624 0.9772
-5.5540 -1.1137 -1.1641 0.9771
-5.5551 -1.1497 -1.1658 0.9771
-5.5563 -1.1858 -1.1675 0.9771
-5.5601 -1.2949 -1.1732 0.9770
-5.5614 -1.3316 -1.1752 0.9769
-5.5628 -1.3683 -1.1772 0.9769
-5.5642 -1.4052 -1.1793 0.9768
-5.5656 -1.4422 -1.1815 0.9768
-5.5687 -1.5168 -1.1861 0.9767
-5.5702 -1.5543 -1.1884 0.9767
-11.1918 -3.1976 -2.3920 0.9536
-11.1718 -3.2667 -2.3920 0.9536
-11.0200 -3.7471 -2.3920 0.9536
-10.9728 -3.8832 -2.3920 0.9536
-10.9486 -3.9509 -2.3920 0.9536
-10.9239 -4.0186 -2.3920 0.9536
-10.8989 -4.0861 -2.3920 0.9536
-10.8734 -4.1534 -2.3920 0.9536
-10.7945 -4.3543 -2.3920 0.9536
-10.7673 -4.4210 -2.3920 0.9536
-10.6835 -4.6201 -2.3920 0.9536
-10.5047 -5.0131 -2.3920 0.9536
-10.3775 -5.2714 -2.3920 0.9536
-10.2779 -5.4631 -2.3920 0.9536
-10.2439 -5.5265 -2.3920 0.9536
-10.1041 -5.7782 -2.3920 0.9536
-9.9952 -5.9647 -2.3920 0.9536
-9.8828 -6.1491 -2.3920 0.9536
-9.8446 -6.2101 -2.3920 0.9536
-9.8060 -6.2709 -2.3920 0.9536
-9.7670 -6.3314 -2.3920 0.9536
-9.6479 -6.5115 -2.3920 0.9536
-9.6074 -6.5710 -2.3920 0.9536
-9.4839 -6.7481 -2.3920 0.9536
-9.4420 -6.8066 -2.3920 0.9536
-9.3997 -6.8649 -2.3920 0.9536
-9.3571 -6.9229 -2.3920 0.9536
-9.3141 -6.9806 -2.3920 0.9536
-9.2707 -7.0381 -2.3920 0.9536
-9.1830 -7.1522 -2.3920 0.9536
-9.0487 -7.3214 -2.3920 0.9536
-8.9113 -7.4880 -2.3920 0.9536
-8.8648 -7.5429 -2.3920 0.9536
-8.8180 -7.5976 -2.3920 0.9536
-8.6756 -7.7599 -2.3920 0.9536
-8.6274 -7.8134 -2.3920 0.9536
-8.5789 -7.8666 -2.3920 0.9536
-8.5301 -7.9195 -2.3920 0.9536
-8.4810 -7.9721 -2.3920 0.9536
-8.3817 -8.0764 -2.3920 0.9536
-8.3316 -8.1281 -2.3920 0.9536
-8.2812 -8.1795 -2.3920 0.9536
-8.2305 -8.2305 -2.3920 0.9536
-8.0763 -8.3818 -2.3920 0.9536
-8.0244 -8.4315 -2.3920 0.9536
-7.8134 -8.6274 -2.3920 0.9536
-7.7599 -8.6756 -2.3920 0.9536
-7.6520 -8.7709 -2.3920 0.9536
-7.5429 -8.8649 -2.3920 0.9536
-7.4879 -8.9114 -2.3920 0.9536
-7.4327 -8.9575 -2.3920 0.9536
-7.2088 -9.1386 -2.3920 0.9536
-7.0953 -9.2271 -2.3920 0.9536
-7.0381 -9.2708 -2.3920 0.9536
-6.9806 -9.3141 -2.3920 0.9536
-6.9229 -9.3571 -2.3920 0.9536
-6.8066 -9.4420 -2.3920 0.9536
-6.7481 -9.4839 -2.3920 0.9536
-6.6303 -9.5667 -2.3920 0.9536
-6.3916 -9.7277 -2.3920 0.9536
-6.0878 -9.9207 -2.3920 0.9536
-5.9027 -10.0319 -2.3920 0.9536
-5.8406 -10.0682 -2.3920 0.9536
-5.7782 -10.1042 -2.3920 0.9536
-5.7156 -10.1397 -2.3920 0.9536
-5.4631 -10.2780 -2.3920 0.9536
-5.1427 -10.4420 -2.3920 0.9536
-5.0780 -10.4736 -2.3920 0.9536
-5.0131 -10.5048 -2.3920 0.9536
-4.9481 -10.5355 -2.3920 0.9536
-4.8828 -10.5660 -2.3920 0.9536
-4.8174 -10.5960 -2.3920 0.9536
-4.2205 -10.8476 -2.3920 0.9536
-4.0860 -10.8989 -2.3920 0.9536
-4.0185 -10.9240 -2.3920 0.9536
-3.9509 -10.9486 -2.3920 0.9536
-3.8152 -10.9966 -2.3920 0.9536
-3.6105 -11.0655 -2.3920 0.9536
-3.5420 -11.0877 -2.3920 0.9536
-3.4734 -11.1093 -2.3920 0.9536
-3.4046 -11.1306 -2.3920 0.9536
-3.2667 -11.1718 -2.3920 0.9536
-3.1976 -11.1918 -2.3920 0.9536
-3.1283 -11.2114 -2.3920 0.9536
-2.8500 -11.2854 -2.3920 0.9536
-2.6402 -11.3363 -2.3920 0.9536
-2.5700 -11.3524 -2.3920 0.9536
-2.2884 -11.4125 -2.3920 0.9536
-2.2178 -11.4264 -2.3920 0.9536
-1.7212 -11.5117 -2.3920 0.9536
-1.6500 -11.5221 -2.3920 0.9536
-1.5787 -11.5321 -2.3920 0.9536
-1.5074 -11.5416 -2.3920 0.9536
-1.0065 -11.5961 -2.3920 0.9536
-0.7912 -11.6128 -2.3920 0.9536
-0.7194 -11.6174 -2.3920 0.9536
-0.5756 -11.6254 -2.3920 0.9536
-0.5037 -11.6287 -2.3920 0.9536
-0.3599 -11.6341 -2.3920 0.9536
-0.2159 -11.6376 -2.3920 0.9536
-0.1440 -11.6388 -2.3920 0.9536
-0.0720 -11.6395 -2.3920 0.9536
-0.0000 -11.6397 -2.3920 0.9536
0.0720 -11.6394 -2.3920 0.9536
0.1440 -11.6388 -2.3920 0.9536
0.3599 -11.6341 -2.3920 0.9536
0.4318 -11.6316 -2.3920 0.9536
0.6475 -11.6216 -2.3920 0.9536
0.7912 -11.6127 -2.3920 0.9536
0.9348 -11.6021 -2.3920 0.9536
1.0065 -11.5961 -2.3920 0.9536
1.0782 -11.5896 -2.3920 0.9536
1.2214 -11.5754 -2.3920 0.9536
1.3645 -11.5594 -2.3920 0.9536
1.5074 -11.5416 -2.3920 0.9536
1.5787 -11.5321 -2.3920 0.9536
1.6500 -11.5221 -2.3920 0.9536
1.9345 -11.4778 -2.3920 0.9536
2.0054 -11.4656 -2.3920 0.9536
2.1471 -11.4399 -2.3920 0.9536
2.2178 -11.4264 -2.3920 0.9536
2.2884 -11.4125 -2.3920 0.9536
2.4294 -11.3833 -2.3920 0.9536
2.5700 -11.3524 -2.3920 0.9536
2.6402 -11.3363 -2.3920 0.9536
2.7802 -11.3028 -2.3920 0.9536
2.9197 -11.2675 -2.3920 0.9536
3.0589 -11.2305 -2.3920 0.9536
3.1975 -11.1919 -2.3920 0.9536
3.3357 -11.1514 -2.3920 0.9536
3.4734 -11.1093 -2.3920 0.9536
3.6105 -11.0655 -2.3920 0.9536
3.6789 -11.0430 -2.3920 0.9536
3.7471 -11.0200 -2.3920 0.9536
3.9509 -10.9486 -2.3920 0.9536
4.0860 -10.8989 -2.3920 0.9536
4.2875 -10.8212 -2.3920 0.9536
4.4210 -10.7674 -2.3920 0.9536
4.6200 -10.6835 -2.3920 0.9536
4.6860 -10.6547 -2.3920 0.9536
4.7518 -10.6255 -2.3920 0.9536
4.8828 -10.5660 -2.3920 0.9536
5.0131 -10.5048 -2.3920 0.9536
5.0780 -10.4736 -2.3920 0.9536
5.2072 -10.4099 -2.3920 0.9536
5.2714 -10.3776 -2.3920 0.9536
5.3994 -10.3116 -2.3920 0.9536
5.5898 -10.2096 -2.3920 0.9536
5.6528 -10.1748 -2.3920 0.9536
5.7156 -10.1397 -2.3920 0.9536
5.9027 -10.0319 -2.3920 0.9536
6.0878 -9.9207 -2.3920 0.9536
6.1491 -9.8828 -2.3920 0.9536
6.2101 -9.8446 -2.3920 0.9536
6.2708 -9.8061 -2.3920 0.9536
6.3916 -9.7278 -2.3920 0.9536
6.4517 -9.6880 -2.3920 0.9536
6.6303 -9.5667 -2.3920 0.9536
6.6893 -9.5255 -2.3920 0.9536
6.7481 -9.4839 -2.3920 0.9536
6.8066 -9.4420 -2.3920 0.9536
6.8649 -9.3997 -2.3920 0.9536
6.9806 -9.3141 -2.3920 0.9536
7.0381 -9.2708 -2.3920 0.9536
7.0953 -9.2270 -2.3920 0.9536
7.2088 -9.1386 -2.3920 0.9536
7.2652 -9.0938 -2.3920 0.9536
7.3213 -9.0487 -2.3920 0.9536
7.4327 -8.9575 -2.3920 0.9536
7.4879 -8.9113 -2.3920 0.9536
7.5429 -8.8649 -2.3920 0.9536
7.5976 -8.8181 -2.3920 0.9536
7.7061 -8.7234 -2.3920 0.9536
7.8134 -8.6274 -2.3920 0.9536
7.8666 -8.5790 -2.3920 0.9536
7.9197 -8.5301 -2.3920 0.9536
8.1282 -8.3317 -2.3920 0.9536
8.2305 -8.2305 -2.3920 0.9536
8.2812 -8.1795 -2.3920 0.9536
8.3817 -8.0764 -2.3920 0.9536
8.5789 -7.8666 -2.3920 0.9536
8.7234 -7.7061 -2.3920 0.9536
8.8180 -7.5976 -2.3920 0.9536
8.8649 -7.5429 -2.3920 0.9536
9.0033 -7.3772 -2.3920 0.9536
9.2270 -7.0953 -2.3920 0.9536
9.2707 -7.0381 -2.3920 0.9536
9.4420 -6.8067 -2.3920 0.9536
9.4839 -6.7481 -2.3920 0.9536
9.5254 -6.6893 -2.3920 0.9536
9.6880 -6.4517 -2.3920 0.9536
9.8446 -6.2101 -2.3920 0.9536
9.9581 -6.0264 -2.3920 0.9536
10.0319 -5.9028 -2.3920 0.9536
10.0682 -5.8406 -2.3920 0.9536
10.1041 -5.7782 -2.3920 0.9536
10.1748 -5.6528 -2.3920 0.9536
10.2096 -5.5898 -2.3920 0.9536
10.2439 -5.5265 -2.3920 0.9536
10.4100 -5.2072 -2.3920 0.9536
10.5047 -5.0132 -2.3920 0.9536
10.5659 -4.8829 -2.3920 0.9536
10.6547 -4.6860 -2.3920 0.9536
10.7398 -4.4876 -2.3920 0.9536
10.8734 -4.1534 -2.3920 0.9536
10.8989 -4.0861 -2.3920 0.9536
10.9239 -4.0186 -2.3920 0.9536
10.9728 -3.8832 -2.3920 0.9536
10.9966 -3.8152 -2.3920 0.9536
11.0429 -3.6789 -2.3920 0.9536
11.1093 -3.4734 -2.3920 0.9536
11.1718 -3.2667 -2.3920 0.9536
11.1918 -3.1976 -2.3920 0.9536
11.2114 -3.1283 -2.3920 0.9536
11.2305 -3.0589 -2.3920 0.9536
11.2492 -2.9894 -2.3920 0.9536
11.2853 -2.8501 -2.3920 0.9536
11.3027 -2.7802 -2.3920 0.9536
11.3362 -2.6402 -2.3920 0.9536
11.3524 -2.5700 -2.3920 0.9536
11.3680 -2.4998 -2.3920 0.9536
11.3833 -2.4294 -2.3920 0.9536
11.4124 -2.2884 -2.3920 0.9536
11.4264 -2.2179 -2.3920 0.9536
11.4529 -2.0763 -2.3920 0.9536
11.4656 -2.0055 -2.3920 0.9536
11.4895 -1.8635 -2.3920 0.9536
11.5507 -1.4360 -2.3920 0.9536
11.5676 -1.2930 -2.3920 0.9536
11.5827 -1.1499 -2.3920 0.9536
11.5960 -1.0065 -2.3920 0.9536
11.6076 -0.8630 -2.3920 0.9536
11.6174 -0.7194 -2.3920 0.9536
11.6216 -0.6475 -2.3920 0.9536
11.6341 -0.3599 -2.3920 0.9536
11.6387 -0.1440 -2.3920 0.9536
11.6394 -0.0720 -2.3920 0.9536
11.6396 -0.0000 -2.3920 0.9536
11.6376 0.2159 -2.3920 0.9536
11.6341 0.3598 -2.3920 0.9536
11.6316 0.4318 -2.3920 0.9536
11.6287 0.5037 -2.3920 0.9536
11.6254 0.5756 -2.3920 0.9536
11.6127 0.7912 -2.3920 0.9536
11.6076 0.8629 -2.3920 0.9536
11.5896 1.0782 -2.3920 0.9536
11.5827 1.1498 -2.3920 0.9536
11.5754 1.2214 -2.3920 0.9536
11.5676 1.2930 -2.3920 0.9536
11.5507 1.4360 -2.3920 0.9536
11.2234 1.4658 -2.3260 0.9548
10.8354 1.4833 -2.2475 0.9563
10.7782 1.6115 -2.2396 0.9565
10.7680 1.6782 -2.2396 0.9565
10.7350 1.8776 -2.2396 0.9565
10.7232 1.9440 -2.2396 0.9565
10.7110 2.0102 -2.2396 0.9565
10.6580 2.2746 -2.2396 0.9565
10.6291 2.4062 -2.2396 0.9565
10.6140 2.4719 -2.2396 0.9565
10.5826 2.6030 -2.2396 0.9565
10.5496 2.7337 -2.2396 0.9565
10.4600 3.0586 -2.2396 0.9565
10.4409 3.1232 -2.2396 0.9565
10.4214 3.1877 -2.2396 0.9565
10.3812 3.3163 -2.2396 0.9565
10.3605 3.3805 -2.2396 0.9565
10.3179 3.5083 -2.2396 0.9565
10.2960 3.5721 -2.2396 0.9565
10.2156 3.8298 -2.2420 0.9564
10.0660 4.2059 -2.2419 0.9564
9.9860 4.3919 -2.2418 0.9564
9.9585 4.4535 -2.2418 0.9564
9.9307 4.5150 -2.2418 0.9564
9.9025 4.5762 -2.2418 0.9564
9.8740 4.6374 -2.2418 0.9564
9.8450 4.6983 -2.2417 0.9564
9.7860 4.8196 -2.2417 0.9564
9.7559 4.8800 -2.2417 0.9564
9.6947 5.0002 -2.2417 0.9564
9.6635 5.0601 -2.2416 0.9564
9.5351 5.2973 -2.2416 0.9564
9.5020 5.3562 -2.2415 0.9564
9.4687 5.4148 -2.2415 0.9564
9.4349 5.4732 -2.2415 0.9564
9.3664 5.5894 -2.2415 0.9564
9.3315 5.6471 -2.2415 0.9564
9.2249 5.8191 -2.2414 0.9564
9.1521 5.9327 -2.2414 0.9564
9.1152 5.9891 -2.2413 0.9564
9.0403 6.1013 -2.2413 0.9564
9.0023 6.1571 -2.2413 0.9564
8.9640 6.2126 -2.2413 0.9564
8.8863 6.3229 -2.2412 0.9564
8.8073 6.4322 -2.2412 0.9564
8.7269 6.5405 -2.2412 0.9564
8.6862 6.5943 -2.2411 0.9564
8.5202 6.8069 -2.2411 0.9564
8.4352 6.9117 -2.2410 0.9564
8.3489 7.0154 -2.2410 0.9564
8.3053 7.0668 -2.2410 0.9564
8.2614 7.1180 -2.2410 0.9564
8.0825 7.3199 -2.2409 0.9564
8.0371 7.3697 -2.2409 0.9564
7.9452 7.4684 -2.2408 0.9564
7.8988 7.5173 -2.2408 0.9564
7.8521 7.5659 -2.2408 0.9564
7.7578 7.6624 -2.2408 0.9564
7.7102 7.7102 -2.2408 0.9564
7.6623 7.7576 -2.2407 0.9565
7.5169 7.8983 -2.2407 0.9565
7.4678 7.9445 -2.2407 0.9565
7.4185 7.9905 -2.2406 0.9565
7.3689 8.0361 -2.2406 0.9565
7.2688 8.1265 -2.2406 0.9565
7.1676 8.2157 -2.2406 0.9565
6.9620 8.3902 -2.2405 0.9565
6.9099 8.4330 -2.2405 0.9565
6.8050 8.5177 -2.2404 0.9565
6.5920 8.6832 -2.2404 0.9565
6.4840 8.7639 -2.2403 0.9565
6.3202 8.8825 -2.2403 0.9565
6.1542 8.9980 -2.2402 0.9565
6.0423 9.0733 -2.2402 0.9565
5.9861 9.1104 -2.2402 0.9565
5.8729 9.1837 -2.2402 0.9565
4.4132 7.1917 -1.7340 0.9661
4.3604 7.2052 -1.7307 0.9662
4.2748 7.1635 -1.7143 0.9665
4.1909 7.1225 -1.6983 0.9668
4.1085 7.0823 -1.6826 0.9671
4.0276 7.0429 -1.6673 0.9674
3.8616 6.9508 -1.6340 0.9681
3.8154 7.0722 -1.6514 0.9677
3.7596 7.0732 -1.6461 0.9678
3.7042 7.0742 -1.6410 0.9679
3.6492 7.0751 -1.6359 0.9680
3.5269 7.0509 -1.6201 0.9683
3.4821 7.0701 -1.6196 0.9683
3.4322 7.0789 -1.6167 0.9684
3.3787 7.0798 -1.6121 0.9685
3.3255 7.0808 -1.6076 0.9686
3.2727 7.0817 -1.6032 0.9686
3.2201 7.0826 -1.5989 0.9687
3.0407 7.0315 -1.5743 0.9692
2.9567 7.0762 -1.5760 0.9692
2.9146 7.0986 -1.5769 0.9691
2.8725 7.1209 -1.5779 0.9691
2.7458 7.1883 -1.5813 0.9691
2.7034 7.2109 -1.5826 0.9690
2.6609 7.2334 -1.5839 0.9690
2.6075 7.2258 -1.5786 0.9691
2.5268 7.2830 -1.5842 0.9690
2.3275 7.7810 -1.6690 0.9674
2.2533 7.8870 -1.6856 0.9671
2.0640 7.9651 -1.6909 0.9670
1.8594 8.4560 -1.7792 0.9653
1.8049 8.4570 -1.7771 0.9653
1.1758 6.0579 -1.2681 0.9751
1.1127 6.3618 -1.3272 0.9740
1.1013 7.0665 -1.4697 0.9712
1.0370 7.2413 -1.5033 0.9706
0.9915 7.2423 -1.5022 0.9706
0.8553 7.2452 -1.4992 0.9706
0.8100 7.2462 -1.4984 0.9707
0.7647 7.2472 -1.4976 0.9707
0.6744 7.2491 -1.4961 0.9707
0.4942 7.2530 -1.4940 0.9707
0.4492 7.2539 -1.4936 0.9708
0.3593 7.2559 -1.4929 0.9708
0.2245 7.2588 -1.4924 0.9708
0.1796 7.2598 -1.4923 0.9708
0.0898 7.2617 -1.4924 0.9708
0.0000 7.2636 -1.4927 0.9708
-0.0899 7.2656 -1.4932 0.9708
-0.1348 7.2665 -1.4935 0.9708
-0.2375 6.3978 -1.3157 0.9742
-0.4359 6.3981 -1.3179 0.9742
-0.4757 6.3983 -1.3185 0.9741
-0.6352 6.3987 -1.3214 0.9741
-0.4348 3.8901 -0.8044 0.9841
-0.4774 3.8398 -0.7952 0.9843
-0.5219 3.8119 -0.7907 0.9844
-0.5932 3.8060 -0.7916 0.9844
-0.7017 3.8707 -0.8084 0.9841
-1.4142 7.2859 -1.5252 0.9701
-1.4611 7.2865 -1.5272 0.9701
-1.6027 7.2884 -1.5336 0.9700
-1.6977 7.2896 -1.5381 0.9699
-1.7455 7.2903 -1.5405 0.9699
-1.9252 6.7385 -1.4402 0.9718
-1.8908 6.4665 -1.3845 0.9729
-1.9060 6.3717 -1.3667 0.9732
-2.0337 6.3662 -1.3734 0.9731
-2.0766 6.3642 -1.3757 0.9730
-2.0439 6.1352 -1.3289 0.9739
-1.5665 4.3409 -0.9484 0.9813
-1.5746 4.2803 -0.9372 0.9815
-1.6001 4.2681 -0.9367 0.9816
-1.6182 4.1590 -0.9171 0.9819
-1.6194 4.0873 -0.9035 0.9822
-1.6206 4.0176 -0.8903 0.9825
-1.6218 3.9499 -0.8775 0.9827
-1.6230 3.8842 -0.8651 0.9830
-1.6241 3.8203 -0.8531 0.9832
-1.6262 3.6976 -0.8301 0.9836
-1.6273 3.6387 -0.8191 0.9839
-1.6292 3.5255 -0.7981 0.9843
-1.5917 3.1821 -0.7312 0.9856
-1.5925 3.1351 -0.7226 0.9857
-1.6475 3.1464 -0.7299 0.9856
-3.9375 7.0873 -1.6661 0.9674
-4.0641 7.2098 -1.7008 0.9668
-2.7663 4.4460 -1.0761 0.9788
-2.9501 4.4899 -1.1040 0.9783
-3.1978 4.4943 -1.1335 0.9777
-3.2404 4.4950 -1.1387 0.9776
-3.2834 4.4958 -1.1440 0.9775
-3.3706 4.4973 -1.1550 0.9773
-3.4148 4.4981 -1.1606 0.9772
-3.4594 4.4988 -1.1663 0.9771
-3.5045 4.4996 -1.1721 0.9770
-3.5501 4.5004 -1.1780 0.9769
-3.5961 4.5012 -1.1840 0.9767
-3.7370 4.5037 -1.2026 0.9764
-3.7906 4.4550 -1.2021 0.9764
-3.8630 4.4835 -1.2162 0.9761
-3.8881 4.4567 -1.2154 0.9761
-4.0329 4.5088 -1.2431 0.9756
-4.0842 4.5097 -1.2503 0.9755
-4.3499 4.5144 -1.2883 0.9747
-4.4050 4.5154 -1.2963 0.9746
-4.5745 4.5183 -1.3213 0.9741
-4.6325 4.5193 -1.3300 0.9739
-4.6912 4.5203 -1.3388 0.9737
-4.7508 4.5214 -1.3478 0.9736
-4.8750 4.5261 -1.3670 0.9732
-4.8791 4.4739 -1.3604 0.9733
-4.9720 4.5029 -1.3785 0.9730
-4.9039 4.3863 -1.3521 0.9735
-4.9226 4.3486 -1.3498 0.9735
-4.9245 4.2429 -1.3358 0.9738
-4.9263 4.1394 -1.3223 0.9741
-4.9281 4.0380 -1.3093 0.9743
-4.9298 3.9385 -1.2967 0.9746
-4.9112 3.8251 -1.2793 0.9749
-4.8893 3.7118 -1.2615 0.9752
-4.9932 3.6467 -1.2706 0.9751
-8.8411 6.3734 -2.2397 0.9565
-8.9192 6.2636 -2.2397 0.9565
-8.9960 6.1528 -2.2397 0.9565
-9.0713 6.0409 -2.2397 0.9565
-9.1085 5.9847 -2.2397 0.9565
-9.1817 5.8716 -2.2397 0.9565
-9.2536 5.7575 -2.2397 0.9565
-9.4607 5.4102 -2.2396 0.9565
-9.4939 5.3516 -2.2396 0.9565
-9.5268 5.2927 -2.2396 0.9565
-9.5593 5.2337 -2.2396 0.9565
-9.5915 5.1745 -2.2396 0.9565
-9.6233 5.1151 -2.2396 0.9565
-9.6857 4.9956 -2.2396 0.9565
-9.7467 4.8754 -2.2396 0.9565
-9.7767 4.8150 -2.2396 0.9565
-9.8354 4.6937 -2.2396 0.9565
-9.8642 4.6328 -2.2395 0.9565
-9.8927 4.5717 -2.2396 0.9565
-9.9759 4.3874 -2.2396 0.9565
-10.0028 4.3256 -2.2396 0.9565
-10.0294 4.2637 -2.2396 0.9565
-10.1318 4.0143 -2.2396 0.9565
-10.1564 3.9516 -2.2396 0.9565
-10.2045 3.8256 -2.2396 0.9565
-10.2279 3.7625 -2.2396 0.9565
-10.2737 3.6357 -2.2396 0.9565
-10.2960 3.5721 -2.2396 0.9565
-10.3605 3.3805 -2.2396 0.9565
-10.4015 3.2521 -2.2396 0.9565
-10.4787 2.9938 -2.2396 0.9565
-5.5687 1.5167 -1.1861 0.9767
-5.5656 1.4422 -1.1815 0.9768
-5.5642 1.4052 -1.1793 0.9768
-5.5628 1.3683 -1.1772 0.9769
-5.5614 1.3315 -1.1752 0.9769
-5.5551 1.1497 -1.1658 0.9771
-5.5540 1.1137 -1.1641 0.9771
-5.5508 1.0063 -1.1593 0.9772
-5.5498 0.9707 -1.1578 0.9773
-5.5380 0.7233 -1.1477 0.9775
-5.5360 0.6882 -1.1464 0.9775
-5.5342 0.6533 -1.1452 0.9775
-5.5324 0.6184 -1.1440 0.9775
-5.5251 0.4452 -1.1391 0.9776
-5.5228 0.3763 -1.1376 0.9776
-5.5209 0.3076 -1.1363 0.9777
-5.5201 0.2733 -1.1358 0.9777
-5.5188 0.2048 -1.1349 0.9777
-5.5183 0.1707 -1.1346 0.9777
-5.5179 0.1365 -1.1343 0.9777
-5.5175 0.1024 -1.1341 0.9777
-5.5698 -0.0345 -1.1878 0.9775
-5.5701 -0.1378 -1.1882 0.9775
-5.5702 -0.1723 -1.1884 0.9775
-5.5707 -0.2413 -1.1891 0.9775
-5.5709 -0.2759 -1.1895 0.9774
-5.5712 -0.3104 -1.1899 0.9774
-5.5719 -0.3796 -1.1910 0.9774
-5.5733 -0.4837 -1.1930 0.9774
-5.5738 -0.5186 -1.1938 0.9774
-5.5749 -0.5883 -1.1955 0.9773
-5.5756 -0.6232 -1.1964 0.9773
-5.5762 -0.6583 -1.1974 0.9773
-5.5785 -0.7637 -1.2007 0.9772
-5.5810 -0.8698 -1.2045 0.9772
-5.5829 -0.9410 -1.2074 0.9771
-5.5849 -1.0125 -1.2104 0.9771
-5.5871 -1.0844 -1.2137 0.9770
-5.5907 -1.1932 -1.2191 0.9769
-5.5920 -1.2296 -1.2210 0.9769
-5.5947 -1.3030 -1.2250 0.9768
-5.5961 -1.3398 -1.2271 0.9767
-5.5975 -1.3769 -1.2293 0.9767
-5.5990 -1.4140 -1.2315 0.9767
-5.6005 -1.4513 -1.2338 0.9766
-5.6021 -1.4887 -1.2361 0.9766
-5.6037 -1.5263 -1.2385 0.9765
-10.8039 -3.0147 -2.3920 0.9552
-10.7851 -3.0813 -2.3920 0.9552
-10.7658 -3.1480 -2.3920 0.9552
-10.7461 -3.2145 -2.3920 0.9552
-10.7056 -3.3472 -2.3920 0.9552
-10.6847 -3.4133 -2.3920 0.9552
-10.6416 -3.5452 -2.3920 0.9552
-10.5970 -3.6765 -2.3920 0.9552
-10.5740 -3.7420 -2.3920 0.9552
-10.5507 -3.8074 -2.3920 0.9552
-10.5028 -3.9376 -2.3920 0.9552
-10.4782 -4.0024 -2.3920 0.9552
-10.4533 -4.0671 -2.3920 0.9552
-10.3495 -4.3245 -2.3920 0.9552
-10.3225 -4.3884 -2.3920 0.9552
-10.2952 -4.4521 -2.3920 0.9552
-10.2675 -4.5157 -2.3920 0.9552
-10.2393 -4.5791 -2.3920 0.9552
-10.2108 -4.6424 -2.3920 0.9552
-10.1819 -4.7054 -2.3920 0.9552
-10.0929 -4.8935 -2.3920 0.9552
-10.0624 -4.9558 -2.3920 0.9552
-10.0316 -5.0179 -2.3920 0.9552
-9.8716 -5.3257 -2.3920 0.9552
-9.8385 -5.3866 -2.3920 0.9552
-9.8050 -5.4474 -2.3920 0.9552
-9.7369 -5.5683 -2.3920 0.9552
-9.6673 -5.6882 -2.3920 0.9552
-9.6319 -5.7479 -2.3920 0.9552
-9.5962 -5.8074 -2.3920 0.9552
-9.5601 -5.8666 -2.3920 0.9552
-9.4868 -5.9844 -2.3920 0.9552
-9.4121 -6.1013 -2.3920 0.9552
-9.2583 -6.3322 -2.3920 0.9552
-9.1793 -6.4462 -2.3920 0.9552
-9.1392 -6.5029 -2.3920 0.9552
-9.0581 -6.6154 -2.3920 0.9552
-9.0170 -6.6713 -2.3920 0.9552
-8.9756 -6.7269 -2.3920 0.9552
-8.9338 -6.7823 -2.3920 0.9552
-8.8917 -6.8374 -2.3920 0.9552
-8.8492 -6.8923 -2.3920 0.9552
-8.8064 -6.9469 -2.3920 0.9552
-8.7633 -7.0012 -2.3920 0.9552
-8.6319 -7.1626 -2.3920 0.9552
-8.5875 -7.2158 -2.3920 0.9552
-8.5427 -7.2688 -2.3920 0.9552
-8.4976 -7.3215 -2.3920 0.9552
-8.4064 -7.4260 -2.3920 0.9552
-8.3603 -7.4779 -2.3920 0.9552
-7.8821 -7.9803 -2.3920 0.9552
-7.8326 -8.0289 -2.3920 0.9552
-7.7828 -8.0771 -2.3920 0.9552
-7.6317 -8.2201 -2.3920 0.9552
-7.5807 -8.2672 -2.3920 0.9552
-7.5294 -8.3139 -2.3920 0.9552
-7.4778 -8.3603 -2.3920 0.9552
-7.3738 -8.4522 -2.3920 0.9552
-7.2158 -8.5875 -2.3920 0.9552
-7.1625 -8.6320 -2.3920 0.9552
-7.1090 -8.6761 -2.3920 0.9552
-7.0012 -8.7634 -2.3920 0.9552
-6.8374 -8.8917 -2.3920 0.9552
-6.7269 -8.9756 -2.3920 0.9552
-6.5592 -9.0988 -2.3920 0.9552
-6.2748 -9.2973 -2.3920 0.9552
-6.2172 -9.3359 -2.3920 0.9552
-6.1593 -9.3742 -2.3920 0.9552
-6.1012 -9.4121 -2.3920 0.9552
-6.0429 -9.4497 -2.3920 0.9552
-5.9256 -9.5237 -2.3920 0.9552
-5.7479 -9.6320 -2.3920 0.9552
-5.6283 -9.7023 -2.3920 0.9552
-5.5682 -9.7369 -2.3920 0.9552
-5.5079 -9.7712 -2.3920 0.9552
-5.4474 -9.8051 -2.3920 0.9552
-5.1416 -9.9688 -2.3920 0.9552
-5.0179 -10.0316 -2.3920 0.9552
-4.9558 -10.0625 -2.3920 0.9552
-4.8310 -10.1230 -2.3920 0.9552
-4.7683 -10.1527 -2.3920 0.9552
-4.4521 -10.2952 -2.3920 0.9552
