ply
format ascii 1.0
element vertex 1593
property float32 x
property float32 y
property float32 z
property float32 I
end_header
-0.3696 3.9730 -1.2960 0.9834
-0.4011 3.8011 -1.2414 0.9841
-0.4230 3.7842 -1.2368 0.9841
-0.4483 3.7979 -1.2421 0.9840
-0.5183 3.7859 -1.2411 0.9841
-0.5648 3.7776 -1.2406 0.9841
-0.5886 3.7769 -1.2415 0.9841
-0.6381 3.7861 -1.2471 0.9840
-0.6641 3.7966 -1.2519 0.9839
-0.6913 3.8133 -1.2587 0.9838
-0.7337 3.7800 -1.2507 0.9839
-1.3244 6.3992 -2.1225 0.9729
-1.4428 6.3734 -2.1224 0.9729
-1.4840 6.3718 -2.1249 0.9729
-1.5676 6.3729 -2.1316 0.9728
-1.6940 6.3746 -2.1423 0.9726
-1.7364 6.3752 -2.1461 0.9726
-1.7790 6.3758 -2.1499 0.9725
-1.8217 6.3764 -2.1539 0.9725
-1.8646 6.3769 -2.1579 0.9724
-1.9077 6.3775 -2.1621 0.9724
-1.9318 6.3155 -2.1451 0.9726
-1.9335 6.1839 -2.1044 0.9731
-1.9351 6.0575 -2.0654 0.9736
-1.9527 5.9846 -2.0447 0.9739
-1.5665 4.3409 -1.4989 0.9808
-1.5746 4.2803 -1.4813 0.9810
-1.6001 4.2681 -1.4805 0.9810
-1.6194 4.0873 -1.4279 0.9817
-1.6206 4.0176 -1.4071 0.9819
-1.6218 3.9499 -1.3869 0.9822
-1.6273 3.6387 -1.2946 0.9834
-1.6302 3.4710 -1.2455 0.9840
-1.5970 3.2939 -1.1890 0.9847
-1.5925 3.1351 -1.1421 0.9853
-1.6726 3.1468 -1.1575 0.9851
-1.6952 3.1423 -1.1596 0.9851
-1.7083 3.1202 -1.1554 0.9852
-3.3486 6.0272 -2.2395 0.9714
-2.6632 4.4628 -1.6880 0.9784
-2.6843 4.4356 -1.6840 0.9784
-2.7393 4.4639 -1.7011 0.9782
-3.6787 5.8316 -2.2395 0.9714
-3.7505 5.7857 -2.2395 0.9714
-3.8218 5.7388 -2.2395 0.9714
-2.8676 4.1375 -1.6351 0.9791
-2.8950 4.1224 -1.6361 0.9790
-2.9242 4.1097 -1.6382 0.9790
-2.9826 4.0839 -1.6425 0.9790
-3.0702 4.0441 -1.6491 0.9789
-3.0993 4.0305 -1.6514 0.9788
-3.1951 3.9993 -1.6626 0.9787
-3.4077 3.9552 -1.6957 0.9783
-3.5927 3.9670 -1.7383 0.9777
-4.6600 5.0820 -2.2395 0.9714
-4.6913 5.0530 -2.2395 0.9714
-4.7843 4.9651 -2.2395 0.9714
-4.8454 4.9056 -2.2395 0.9714
-4.9057 4.8453 -2.2395 0.9714
-4.8741 4.5816 -2.1727 0.9723
-4.8750 4.5261 -2.1606 0.9724
-4.8791 4.4739 -2.1501 0.9725
-4.9720 4.5029 -2.1787 0.9722
-5.1394 4.5968 -2.2395 0.9714
-5.1677 4.5650 -2.2396 0.9714
-5.1958 4.5329 -2.2396 0.9714
-5.2238 4.5007 -2.2396 0.9714
-5.2515 4.4684 -2.2396 0.9714
-5.3064 4.4031 -2.2396 0.9714
-5.3335 4.3702 -2.2396 0.9714
-5.3872 4.3039 -2.2396 0.9714
-5.4400 4.2369 -2.2396 0.9714
-4.8893 3.7118 -1.9938 0.9745
-4.9932 3.6467 -2.0082 0.9743
-5.6184 3.9976 -2.2396 0.9714
-5.6430 3.9628 -2.2396 0.9714
-5.6674 3.9278 -2.2396 0.9714
-5.6916 3.8927 -2.2396 0.9714
-5.7393 3.8221 -2.2396 0.9714
-5.7629 3.7865 -2.2396 0.9714
-5.7862 3.7508 -2.2397 0.9714
-5.8548 3.6428 -2.2397 0.9714
-5.8772 3.6065 -2.2397 0.9714
-5.9214 3.5336 -2.2397 0.9714
-5.9425 3.4965 -2.2394 0.9714
-5.9640 3.4597 -2.2394 0.9714
-5.9853 3.4227 -2.2394 0.9714
-6.0063 3.3857 -2.2394 0.9714
-6.0271 3.3485 -2.2394 0.9714
-6.0681 3.2736 -2.2394 0.9714
-6.1081 3.1984 -2.2394 0.9714
-6.2041 3.0080 -2.2394 0.9714
-6.3114 2.7758 -2.2394 0.9714
-6.3284 2.7367 -2.2394 0.9714
-6.3452 2.6975 -2.2394 0.9714
-6.5139 2.2599 -2.2394 0.9714
-6.5278 2.2196 -2.2394 0.9714
-4.4370 1.3572 -1.5070 0.9807
-4.4385 1.3277 -1.5047 0.9807
-4.4429 1.2397 -1.4982 0.9808
-4.4443 1.2105 -1.4961 0.9808
-4.4470 1.1524 -1.4921 0.9809
-4.4483 1.1234 -1.4901 0.9809
-4.4495 1.0945 -1.4883 0.9809
-4.4519 1.0368 -1.4847 0.9810
-4.4531 1.0081 -1.4829 0.9810
-4.4542 0.9794 -1.4813 0.9810
-4.4553 0.9509 -1.4797 0.9810
-4.4563 0.9223 -1.4781 0.9810
-4.4574 0.8938 -1.4766 0.9811
-4.4602 0.8086 -1.4723 0.9811
-4.4964 0.7865 -1.4826 0.9810
-4.6662 0.7865 -1.5370 0.9803
-5.0463 0.7865 -1.6588 0.9787
-5.2599 0.7865 -1.7274 0.9779
-7.3078 0.9085 -2.3918 0.9695
-7.3185 0.8180 -2.3918 0.9695
-7.3234 0.7727 -2.3918 0.9695
-7.3324 0.6821 -2.3918 0.9695
-7.3365 0.6367 -2.3918 0.9695
-7.3438 0.5460 -2.3918 0.9695
-7.3470 0.5005 -2.3918 0.9695
-7.3500 0.4551 -2.3918 0.9695
-7.3527 0.4096 -2.3918 0.9695
-7.3605 0.2276 -2.3918 0.9695
-7.3618 0.1821 -2.3918 0.9695
-7.3635 0.0910 -2.3918 0.9695
-7.3639 0.0455 -2.3918 0.9695
-7.1821 -0.0001 -2.3918 0.9702
-7.1820 -0.0444 -2.3918 0.9702
-7.1809 -0.1333 -2.3918 0.9702
-7.1799 -0.1777 -2.3918 0.9702
-7.1733 -0.3552 -2.3918 0.9702
-7.1623 -0.5326 -2.3918 0.9702
-7.1589 -0.5768 -2.3918 0.9702
-7.1512 -0.6653 -2.3918 0.9702
-7.1424 -0.7537 -2.3918 0.9702
-7.1326 -0.8420 -2.3918 0.9702
-7.1157 -0.9742 -2.3918 0.9702
-4.4965 -0.7865 -1.5202 0.9809
-4.4380 -0.8614 -1.5055 0.9811
-4.4370 -0.8897 -1.5070 0.9811
-4.4360 -0.9181 -1.5086 0.9811
-4.4323 -1.0323 -1.5156 0.9810
-4.4315 -1.0900 -1.5198 0.9809
-4.4306 -1.1481 -1.5242 0.9809
-4.4297 -1.2065 -1.5289 0.9808
-4.4282 -1.2948 -1.5364 0.9807
-4.4277 -1.3245 -1.5391 0.9807
-4.4271 -1.3542 -1.5418 0.9807
-4.4260 -1.4139 -1.5474 0.9806
-4.4254 -1.4440 -1.5503 0.9806
-6.7706 -2.3961 -2.3918 0.9702
-6.7557 -2.4379 -2.3918 0.9702
-6.7405 -2.4796 -2.3918 0.9702
-6.7250 -2.5213 -2.3918 0.9702
-6.7093 -2.5628 -2.3918 0.9702
-6.6606 -2.6869 -2.3918 0.9702
-6.5564 -2.9321 -2.3918 0.9702
-6.5381 -2.9726 -2.3918 0.9702
-6.5196 -3.0129 -2.3918 0.9702
-6.5008 -3.0532 -2.3918 0.9702
-6.4626 -3.1334 -2.3918 0.9702
-6.4431 -3.1733 -2.3918 0.9702
-6.4233 -3.2131 -2.3918 0.9702
-6.4033 -3.2527 -2.3918 0.9702
-6.3831 -3.2923 -2.3918 0.9702
-6.3626 -3.3317 -2.3918 0.9702
-6.3419 -3.3710 -2.3918 0.9702
-6.3209 -3.4101 -2.3918 0.9702
-6.2783 -3.4880 -2.3918 0.9702
-6.2566 -3.5268 -2.3918 0.9702
-6.1445 -3.7186 -2.3918 0.9702
-6.1214 -3.7565 -2.3918 0.9702
-6.0745 -3.8319 -2.3918 0.9702
-6.0266 -3.9067 -2.3918 0.9702
-5.9779 -3.9810 -2.3918 0.9702
-5.9282 -4.0546 -2.3918 0.9702
-5.7737 -4.2717 -2.3918 0.9702
-5.7472 -4.3073 -2.3918 0.9702
-5.6663 -4.4132 -2.3918 0.9702
-5.6389 -4.4482 -2.3918 0.9702
-5.6112 -4.4829 -2.3918 0.9702
-5.5834 -4.5176 -2.3918 0.9702
-5.4986 -4.6204 -2.3918 0.9702
-5.4700 -4.6543 -2.3918 0.9702
-5.4411 -4.6880 -2.3918 0.9702
-5.4120 -4.7216 -2.3918 0.9702
-5.2026 -4.9514 -2.3918 0.9702
-5.1098 -5.0471 -2.3918 0.9702
-5.0785 -5.0786 -2.3918 0.9702
-5.0470 -5.1099 -2.3918 0.9702
-4.9834 -5.1719 -2.3918 0.9702
-4.9191 -5.2331 -2.3918 0.9702
-4.8540 -5.2936 -2.3918 0.9702
-4.7216 -5.4120 -2.3918 0.9702
-4.6543 -5.4700 -2.3918 0.9702
-4.6204 -5.4987 -2.3918 0.9702
-4.5863 -5.5271 -2.3918 0.9702
-4.5175 -5.5835 -2.3918 0.9702
-4.4829 -5.6113 -2.3918 0.9702
-4.4481 -5.6389 -2.3918 0.9702
-4.4132 -5.6663 -2.3918 0.9702
-4.3073 -5.7472 -2.3918 0.9702
-4.2359 -5.8000 -2.3918 0.9702
-4.2000 -5.8261 -2.3918 0.9702
-4.0911 -5.9030 -2.3918 0.9702
-4.0546 -5.9282 -2.3918 0.9702
-4.0178 -5.9532 -2.3918 0.9702
-3.9809 -5.9779 -2.3918 0.9702
-3.8693 -6.0507 -2.3918 0.9702
-3.7564 -6.1215 -2.3918 0.9702
-3.7185 -6.1446 -2.3918 0.9702
-3.6804 -6.1674 -2.3918 0.9702
-3.6039 -6.2125 -2.3918 0.9702
-3.5268 -6.2566 -2.3918 0.9702
-3.4491 -6.2997 -2.3918 0.9702
-3.3709 -6.3420 -2.3918 0.9702
-3.2922 -6.3831 -2.3918 0.9702
-3.0129 -6.5196 -2.3918 0.9702
-2.7690 -6.6269 -2.3918 0.9702
-2.6868 -6.6606 -2.3918 0.9702
-2.6042 -6.6934 -2.3918 0.9702
-2.5628 -6.7094 -2.3918 0.9702
-2.5212 -6.7251 -2.3918 0.9702
-2.3960 -6.7707 -2.3918 0.9702
-2.3121 -6.7998 -2.3918 0.9702
-2.2700 -6.8139 -2.3918 0.9702
-2.2278 -6.8279 -2.3918 0.9702
-2.1432 -6.8549 -2.3918 0.9702
-2.1008 -6.8680 -2.3918 0.9702
-2.0583 -6.8809 -2.3918 0.9702
-2.0157 -6.8935 -2.3918 0.9702
-1.8875 -6.9297 -2.3918 0.9702
-1.6291 -6.9949 -2.3918 0.9702
-1.5424 -7.0146 -2.3918 0.9702
-1.3685 -7.0505 -2.3918 0.9702
-1.3248 -7.0589 -2.3918 0.9702
-1.0621 -7.1032 -2.3918 0.9702
-1.0181 -7.1096 -2.3918 0.9702
-0.8420 -7.1326 -2.3918 0.9702
-0.7978 -7.1377 -2.3918 0.9702
-0.7537 -7.1425 -2.3918 0.9702
-0.7095 -7.1470 -2.3918 0.9702
-0.6653 -7.1513 -2.3918 0.9702
-0.4882 -7.1655 -2.3918 0.9702
-0.4439 -7.1684 -2.3918 0.9702
-0.3108 -7.1754 -2.3918 0.9702
-0.2220 -7.1787 -2.3918 0.9702
-0.1332 -7.1809 -2.3918 0.9702
-0.0444 -7.1820 -2.3918 0.9702
0.0000 -7.1821 -2.3918 0.9702
0.0888 -7.1816 -2.3918 0.9702
0.1332 -7.1809 -2.3918 0.9702
0.1776 -7.1799 -2.3918 0.9702
0.2220 -7.1787 -2.3918 0.9702
0.3552 -7.1733 -2.3918 0.9702
0.3995 -7.1710 -2.3918 0.9702
0.4439 -7.1684 -2.3918 0.9702
0.4882 -7.1655 -2.3918 0.9702
0.5325 -7.1624 -2.3918 0.9702
0.7095 -7.1470 -2.3918 0.9702
0.7537 -7.1425 -2.3918 0.9702
0.7978 -7.1377 -2.3918 0.9702
0.8420 -7.1326 -2.3918 0.9702
0.8861 -7.1273 -2.3918 0.9702
0.9741 -7.1158 -2.3918 0.9702
1.1060 -7.0964 -2.3918 0.9702
1.1937 -7.0823 -2.3918 0.9702
1.2374 -7.0747 -2.3918 0.9702
1.3249 -7.0589 -2.3918 0.9702
1.4556 -7.0331 -2.3918 0.9702
1.5424 -7.0146 -2.3918 0.9702
1.5858 -7.0048 -2.3918 0.9702
1.6723 -6.9847 -2.3918 0.9702
1.7155 -6.9743 -2.3918 0.9702
1.8016 -6.9525 -2.3918 0.9702
1.8446 -6.9413 -2.3918 0.9702
1.8875 -6.9297 -2.3918 0.9702
1.9730 -6.9058 -2.3918 0.9702
2.1856 -6.8415 -2.3918 0.9702
2.2278 -6.8279 -2.3918 0.9702
2.2700 -6.8140 -2.3918 0.9702
2.3121 -6.7998 -2.3918 0.9702
2.3541 -6.7854 -2.3918 0.9702
2.4379 -6.7557 -2.3918 0.9702
2.5628 -6.7093 -2.3918 0.9702
2.6042 -6.6934 -2.3918 0.9702
2.6456 -6.6771 -2.3918 0.9702
2.7279 -6.6439 -2.3918 0.9702
2.8099 -6.6097 -2.3918 0.9702
2.9320 -6.5564 -2.3918 0.9702
2.9725 -6.5381 -2.3918 0.9702
3.0129 -6.5196 -2.3918 0.9702
3.1333 -6.4626 -2.3918 0.9702
3.2130 -6.4233 -2.3918 0.9702
3.2527 -6.4034 -2.3918 0.9702
3.3316 -6.3626 -2.3918 0.9702
3.4491 -6.2997 -2.3918 0.9702
3.4880 -6.2783 -2.3918 0.9702
3.5654 -6.2347 -2.3918 0.9702
3.6039 -6.2125 -2.3918 0.9702
3.6422 -6.1901 -2.3918 0.9702
3.7185 -6.1446 -2.3918 0.9702
3.8319 -6.0746 -2.3918 0.9702
3.8693 -6.0507 -2.3918 0.9702
3.9067 -6.0267 -2.3918 0.9702
3.9439 -6.0024 -2.3918 0.9702
3.9809 -5.9779 -2.3918 0.9702
4.0178 -5.9532 -2.3918 0.9702
4.0546 -5.9282 -2.3918 0.9702
4.0911 -5.9030 -2.3918 0.9702
4.2359 -5.8000 -2.3918 0.9702
4.2717 -5.7737 -2.3918 0.9702
4.3073 -5.7472 -2.3918 0.9702
4.3428 -5.7204 -2.3918 0.9702
4.3781 -5.6935 -2.3918 0.9702
4.4481 -5.6389 -2.3918 0.9702
4.5175 -5.5835 -2.3918 0.9702
4.6543 -5.4700 -2.3918 0.9702
4.6880 -5.4411 -2.3918 0.9702
4.7549 -5.3827 -2.3918 0.9702
4.8540 -5.2936 -2.3918 0.9702
4.9513 -5.2026 -2.3918 0.9702
5.0153 -5.1410 -2.3918 0.9702
5.0785 -5.0786 -2.3918 0.9702
5.1098 -5.0470 -2.3918 0.9702
5.1409 -5.0154 -2.3918 0.9702
5.1719 -4.9835 -2.3918 0.9702
5.2331 -4.9191 -2.3918 0.9702
5.2634 -4.8867 -2.3918 0.9702
5.2935 -4.8541 -2.3918 0.9702
5.3235 -4.8212 -2.3918 0.9702
5.3532 -4.7882 -2.3918 0.9702
5.4120 -4.7216 -2.3918 0.9702
5.4411 -4.6880 -2.3918 0.9702
5.4986 -4.6204 -2.3918 0.9702
5.5554 -4.5520 -2.3918 0.9702
5.6112 -4.4830 -2.3918 0.9702
5.6663 -4.4132 -2.3918 0.9702
5.6934 -4.3781 -2.3918 0.9702
5.7204 -4.3428 -2.3918 0.9702
5.7472 -4.3073 -2.3918 0.9702
5.8000 -4.2359 -2.3918 0.9702
5.8261 -4.2000 -2.3918 0.9702
5.8519 -4.1639 -2.3918 0.9702
5.8776 -4.1276 -2.3918 0.9702
5.9030 -4.0912 -2.3918 0.9702
5.9282 -4.0546 -2.3918 0.9702
6.0266 -3.9067 -2.3918 0.9702
6.0507 -3.8694 -2.3918 0.9702
6.0745 -3.8319 -2.3918 0.9702
6.1214 -3.7565 -2.3918 0.9702
6.1674 -3.6805 -2.3918 0.9702
6.1901 -3.6423 -2.3918 0.9702
6.2346 -3.5654 -2.3918 0.9702
6.2566 -3.5268 -2.3918 0.9702
6.2783 -3.4880 -2.3918 0.9702
6.3419 -3.3710 -2.3918 0.9702
6.3831 -3.2923 -2.3918 0.9702
6.4818 -3.0933 -2.3918 0.9702
6.5196 -3.0129 -2.3918 0.9702
6.5381 -2.9725 -2.3918 0.9702
6.5564 -2.9321 -2.3918 0.9702
6.5744 -2.8915 -2.3918 0.9702
6.5921 -2.8507 -2.3918 0.9702
6.6439 -2.7280 -2.3918 0.9702
6.6606 -2.6869 -2.3918 0.9702
6.6771 -2.6456 -2.3918 0.9702
6.7557 -2.4379 -2.3918 0.9702
6.7706 -2.3961 -2.3918 0.9702
6.7998 -2.3122 -2.3918 0.9702
6.8139 -2.2701 -2.3918 0.9702
6.8278 -2.2279 -2.3918 0.9702
6.8415 -2.1856 -2.3918 0.9702
6.8680 -2.1008 -2.3918 0.9702
6.9058 -1.9730 -2.3918 0.9702
6.9297 -1.8875 -2.3918 0.9702
6.9412 -1.8446 -2.3918 0.9702
6.9635 -1.7586 -2.3918 0.9702
6.9742 -1.7155 -2.3918 0.9702
6.9847 -1.6724 -2.3918 0.9702
7.0239 -1.4991 -2.3918 0.9702
7.0589 -1.3249 -2.3918 0.9702
7.0669 -1.2812 -2.3918 0.9702
7.0747 -1.2375 -2.3918 0.9702
7.0822 -1.1937 -2.3918 0.9702
7.0895 -1.1499 -2.3918 0.9702
7.0964 -1.1060 -2.3918 0.9702
7.1096 -1.0182 -2.3918 0.9702
7.1157 -0.9742 -2.3918 0.9702
7.1272 -0.8861 -2.3918 0.9702
7.1589 -0.5768 -2.3918 0.9702
7.1684 -0.4439 -2.3918 0.9702
7.1710 -0.3996 -2.3918 0.9702
7.1733 -0.3552 -2.3918 0.9702
7.1754 -0.3108 -2.3918 0.9702
7.1772 -0.2665 -2.3918 0.9702
7.1799 -0.1777 -2.3918 0.9702
7.1816 -0.0889 -2.3918 0.9702
7.1821 -0.0000 -2.3918 0.9702
7.1816 0.0888 -2.3918 0.9702
7.1799 0.1776 -2.3918 0.9702
7.1772 0.2664 -2.3918 0.9702
7.1754 0.3108 -2.3918 0.9702
7.1733 0.3551 -2.3918 0.9702
7.1684 0.4438 -2.3918 0.9702
7.1655 0.4882 -2.3918 0.9702
7.1589 0.5768 -2.3918 0.9702
7.1552 0.6210 -2.3918 0.9702
7.1470 0.7095 -2.3918 0.9702
7.1377 0.7978 -2.3918 0.9702
7.1326 0.8419 -2.3918 0.9702
7.1216 0.9301 -2.3918 0.9702
7.1157 0.9741 -2.3918 0.9702
7.1031 1.0620 -2.3918 0.9702
7.0964 1.1060 -2.3918 0.9702
7.0895 1.1498 -2.3918 0.9702
7.0588 1.3248 -2.3918 0.9702
7.0505 1.3685 -2.3918 0.9702
6.9030 1.4286 -2.3476 0.9707
6.5585 1.4847 -2.2394 0.9720
6.5492 1.5253 -2.2394 0.9720
6.5397 1.5657 -2.2394 0.9720
6.5298 1.6062 -2.2394 0.9720
6.5198 1.6465 -2.2394 0.9720
6.5095 1.6868 -2.2394 0.9720
6.4989 1.7270 -2.2394 0.9720
6.4881 1.7672 -2.2394 0.9720
6.4771 1.8072 -2.2394 0.9720
6.4658 1.8473 -2.2394 0.9720
6.4542 1.8872 -2.2394 0.9720
6.4424 1.9271 -2.2394 0.9720
6.4056 2.0463 -2.2394 0.9720
6.3928 2.0859 -2.2394 0.9720
6.3798 2.1254 -2.2394 0.9720
6.3665 2.1647 -2.2394 0.9720
6.3530 2.2041 -2.2394 0.9720
6.3392 2.2434 -2.2394 0.9720
6.3252 2.2825 -2.2394 0.9720
6.3110 2.3216 -2.2394 0.9720
6.2818 2.3995 -2.2394 0.9720
6.2516 2.4770 -2.2394 0.9720
6.2362 2.5156 -2.2394 0.9720
6.1386 2.7452 -2.2394 0.9720
6.1215 2.7831 -2.2394 0.9720
6.0866 2.8586 -2.2394 0.9720
6.0688 2.8962 -2.2394 0.9720
6.0325 2.9710 -2.2394 0.9720
5.9953 3.0454 -2.2394 0.9720
5.9764 3.0824 -2.2394 0.9720
5.9572 3.1193 -2.2394 0.9720
5.9378 3.1561 -2.2394 0.9720
5.9182 3.1928 -2.2394 0.9720
5.8374 3.3382 -2.2394 0.9720
5.7957 3.4101 -2.2394 0.9720
5.7530 3.4815 -2.2394 0.9720
5.6874 3.5877 -2.2394 0.9720
5.6698 3.6258 -2.2413 0.9720
5.6473 3.6607 -2.2413 0.9720
5.6245 3.6956 -2.2413 0.9720
5.6015 3.7303 -2.2412 0.9720
5.5783 3.7648 -2.2412 0.9720
5.5549 3.7992 -2.2412 0.9720
5.5313 3.8335 -2.2412 0.9720
5.5074 3.8676 -2.2412 0.9720
5.4834 3.9016 -2.2412 0.9720
5.4591 3.9354 -2.2412 0.9720
5.4100 4.0026 -2.2412 0.9720
5.3851 4.0359 -2.2411 0.9720
5.3092 4.1351 -2.2411 0.9720
5.2835 4.1678 -2.2411 0.9720
5.0980 4.3924 -2.2410 0.9720
5.0707 4.4238 -2.2410 0.9720
5.0432 4.4551 -2.2410 0.9720
4.9877 4.5171 -2.2410 0.9720
4.9597 4.5478 -2.2410 0.9720
4.9314 4.5784 -2.2410 0.9720
4.8744 4.6389 -2.2409 0.9720
4.8166 4.6989 -2.2409 0.9720
4.7874 4.7285 -2.2409 0.9720
4.7285 4.7873 -2.2409 0.9720
4.6988 4.8164 -2.2409 0.9720
4.6689 4.8454 -2.2409 0.9720
4.6388 4.8741 -2.2408 0.9720
4.5167 4.9873 -2.2408 0.9720
4.4234 5.0702 -2.2408 0.9720
4.2644 5.2044 -2.2407 0.9720
4.1014 5.3336 -2.2407 0.9720
4.0350 5.3839 -2.2406 0.9720
4.0017 5.4087 -2.2406 0.9720
3.9681 5.4333 -2.2406 0.9720
3.9344 5.4577 -2.2406 0.9720
3.9006 5.4819 -2.2406 0.9720
3.8666 5.5059 -2.2406 0.9720
3.8324 5.5297 -2.2406 0.9720
3.7982 5.5533 -2.2406 0.9720
3.7637 5.5766 -2.2406 0.9720
3.6596 5.6454 -2.2405 0.9720
3.6246 5.6679 -2.2405 0.9720
3.5894 5.6902 -2.2405 0.9720
3.5187 5.7341 -2.2405 0.9720
3.4832 5.7557 -2.2405 0.9720
3.4475 5.7771 -2.2405 0.9720
3.4117 5.7983 -2.2405 0.9720
3.3035 5.8605 -2.2404 0.9720
3.1575 5.9404 -2.2404 0.9720
3.0838 5.9789 -2.2404 0.9720
3.0096 6.0165 -2.2404 0.9720
2.9723 6.0350 -2.2403 0.9720
2.9349 6.0533 -2.2403 0.9720
2.8974 6.0713 -2.2403 0.9720
2.8598 6.0890 -2.2403 0.9720
2.8220 6.1066 -2.2403 0.9720
2.7082 6.1578 -2.2403 0.9720
2.6701 6.1744 -2.2403 0.9720
2.6318 6.1908 -2.2403 0.9720
2.5935 6.2069 -2.2403 0.9720
2.5551 6.2228 -2.2402 0.9720
2.5165 6.2385 -2.2402 0.9720
2.4779 6.2539 -2.2402 0.9720
2.3614 6.2987 -2.2402 0.9720
2.0073 6.4200 -2.2401 0.9720
1.9675 6.4323 -2.2401 0.9720
1.9277 6.4444 -2.2401 0.9720
1.8878 6.4561 -2.2401 0.9720
1.8078 6.4789 -2.2401 0.9720
1.7275 6.5008 -2.2401 0.9720
1.6873 6.5113 -2.2401 0.9720
1.5662 6.5414 -2.2400 0.9720
1.4851 6.5602 -2.2400 0.9720
1.2648 5.9265 -2.0181 0.9748
1.2267 5.9272 -2.0157 0.9748
1.1507 5.9287 -2.0113 0.9749
1.1129 5.9294 -2.0091 0.9749
1.0793 5.9534 -2.0150 0.9748
1.0845 6.2003 -2.0962 0.9738
1.0661 6.3256 -2.1363 0.9733
1.0261 6.3264 -2.1344 0.9733
0.9861 6.3273 -2.1326 0.9734
0.9462 6.3282 -2.1309 0.9734
0.9063 6.3290 -2.1292 0.9734
0.8666 6.3299 -2.1277 0.9734
0.7475 6.3324 -2.1235 0.9735
0.2915 3.6186 -1.2090 0.9848
0.2466 3.6194 -1.2081 0.9848
0.2241 3.6198 -1.2078 0.9848
0.1120 3.6218 -1.2067 0.9848
0.0896 3.6221 -1.2066 0.9848
0.0672 3.6225 -1.2066 0.9848
0.0448 3.6229 -1.2066 0.9848
0.0000 3.6237 -1.2068 0.9848
-0.0224 3.6241 -1.2069 0.9848
-0.0673 3.6249 -1.2074 0.9848
-0.2578 5.9522 -1.9841 0.9752
-0.4057 5.9542 -1.9875 0.9752
-0.4427 5.9548 -1.9886 0.9751
-0.4798 5.9557 -1.9898 0.9751
-0.3613 3.8837 -1.2989 0.9837
-0.4010 3.8002 -1.2726 0.9840
-0.4471 3.7873 -1.2700 0.9841
-0.4724 3.8000 -1.2752 0.9840
-0.4946 3.7868 -1.2718 0.9840
-0.5874 3.7689 -1.2703 0.9840
-0.6120 3.7735 -1.2731 0.9840
-0.6623 3.7864 -1.2801 0.9839
-0.7329 3.7762 -1.2810 0.9839
-0.7583 3.7818 -1.2845 0.9839
-0.7890 3.8125 -1.2966 0.9837
-1.4009 6.3707 -2.1723 0.9729
-1.4424 6.3713 -2.1755 0.9728
-1.4840 6.3718 -2.1788 0.9728
-1.5257 6.3724 -2.1821 0.9728
-1.6096 6.3735 -2.1892 0.9727
-1.7790 6.3758 -2.2044 0.9725
-1.9335 6.1840 -2.1577 0.9731
-1.9351 6.0573 -2.1177 0.9735
-2.0363 5.9885 -2.1065 0.9737
-1.5684 4.5205 -1.5935 0.9800
-1.5698 4.4360 -1.5671 0.9804
-1.5665 4.3409 -1.5369 0.9807
-1.5746 4.2803 -1.5188 0.9810
-1.6001 4.2681 -1.5180 0.9810
-1.6169 4.2330 -1.5090 0.9811
-1.6182 4.1590 -1.4862 0.9814
-1.6206 4.0176 -1.4427 0.9819
-1.6218 3.9500 -1.4220 0.9822
-1.6230 3.8842 -1.4019 0.9824
-1.6273 3.6387 -1.3274 0.9833
-1.6283 3.5814 -1.3102 0.9836
-1.5843 3.3198 -1.2250 0.9846
-1.5970 3.2939 -1.2191 0.9847
-1.5917 3.1821 -1.1849 0.9851
-1.5925 3.1351 -1.1711 0.9853
-1.6084 3.1184 -1.1685 0.9853
-1.6726 3.1468 -1.1868 0.9851
-1.7083 3.1202 -1.1846 0.9851
-2.6621 4.5243 -1.7482 0.9781
-2.6632 4.4628 -1.7307 0.9783
-2.6843 4.4356 -1.7266 0.9784
-2.7663 4.4459 -1.7438 0.9782
-3.5879 5.6876 -2.2395 0.9720
-3.6579 5.6429 -2.2395 0.9720
-3.7274 5.5972 -2.2395 0.9720
-3.7964 5.5507 -2.2395 0.9720
-3.8306 5.5271 -2.2395 0.9720
-2.8435 4.0490 -1.6477 0.9794
-2.9007 4.0238 -1.6519 0.9793
-2.9319 4.0145 -1.6555 0.9793
-2.9944 3.9954 -1.6628 0.9792
-3.0904 3.9679 -1.6749 0.9790
-3.1623 3.9583 -1.6872 0.9789
-3.2721 3.9433 -1.7064 0.9786
-3.3152 3.9454 -1.7162 0.9785
-3.3668 3.9569 -1.7302 0.9783
-3.4194 3.9687 -1.7446 0.9782
-4.4522 5.0400 -2.2395 0.9720
-4.6961 4.8136 -2.2396 0.9720
-4.7257 4.7845 -2.2396 0.9720
-4.8137 4.6960 -2.2396 0.9720
-4.8714 4.6362 -2.2396 0.9720
-4.9284 4.5756 -2.2396 0.9720
-5.0675 4.4211 -2.2396 0.9720
-5.0948 4.3896 -2.2396 0.9720
-5.1219 4.3580 -2.2396 0.9720
-5.1487 4.3263 -2.2396 0.9720
-5.1754 4.2944 -2.2396 0.9720
-5.2542 4.1976 -2.2396 0.9720
-5.2801 4.1651 -2.2396 0.9720
-5.3057 4.1323 -2.2396 0.9720
-4.8893 3.7118 -2.0443 0.9745
-4.8909 3.6186 -2.0261 0.9747
-4.9932 3.6467 -2.0591 0.9743
-5.4797 3.8989 -2.2397 0.9720
-5.5037 3.8650 -2.2397 0.9720
-5.5511 3.7966 -2.2397 0.9720
-5.6206 3.6930 -2.2397 0.9720
-5.6433 3.6582 -2.2397 0.9720
-5.6882 3.5881 -2.2397 0.9720
-5.7314 3.5171 -2.2394 0.9720
-5.7745 3.4459 -2.2394 0.9720
-5.7957 3.4101 -2.2394 0.9720
-5.8166 3.3742 -2.2394 0.9720
-5.8782 3.2657 -2.2394 0.9720
-5.9182 3.1928 -2.2394 0.9720
-5.9572 3.1193 -2.2394 0.9720
-5.9953 3.0454 -2.2394 0.9720
-6.0325 2.9710 -2.2394 0.9720
-6.0866 2.8586 -2.2394 0.9720
-6.1042 2.8209 -2.2394 0.9720
-6.1555 2.7072 -2.2394 0.9720
-6.1885 2.6308 -2.2394 0.9720
-6.2362 2.5156 -2.2394 0.9720
-6.2818 2.3995 -2.2394 0.9720
-6.3530 2.2041 -2.2394 0.9720
-6.3665 2.1648 -2.2394 0.9720
-4.4249 1.4741 -1.5532 0.9805
-4.4254 1.4440 -1.5503 0.9806
-4.4266 1.3840 -1.5445 0.9806
-4.4271 1.3542 -1.5418 0.9807
-4.4277 1.3245 -1.5391 0.9807
-4.4282 1.2948 -1.5364 0.9807
-4.4287 1.2653 -1.5339 0.9808
-4.4292 1.2359 -1.5314 0.9808
-4.4297 1.2065 -1.5289 0.9808
-4.4302 1.1773 -1.5266 0.9809
-4.4311 1.1190 -1.5220 0.9809
-4.4315 1.0900 -1.5198 0.9809
-4.4323 1.0323 -1.5156 0.9810
-4.4338 0.9749 -1.5118 0.9810
-4.4349 0.9465 -1.5102 0.9811
-4.4964 0.7865 -1.5201 0.9809
-4.6662 0.7865 -1.5759 0.9802
-4.8490 0.7865 -1.6359 0.9795
-5.2599 0.7865 -1.7711 0.9778
-5.4919 0.7865 -1.8476 0.9769
-7.1272 0.8860 -2.3918 0.9702
-7.1377 0.7978 -2.3918 0.9702
-7.1470 0.7095 -2.3918 0.9702
-7.1512 0.6653 -2.3918 0.9702
-7.1589 0.5767 -2.3918 0.9702
-7.1623 0.5325 -2.3918 0.9702
-7.1655 0.4881 -2.3918 0.9702
-7.1772 0.2664 -2.3918 0.9702
-7.1809 0.1332 -2.3918 0.9702
-7.1816 0.0888 -2.3918 0.9702
-7.1820 0.0444 -2.3918 0.9702
-7.0081 -0.0000 -2.3918 0.9708
-7.0080 -0.0434 -2.3918 0.9708
-7.0076 -0.0867 -2.3918 0.9708
-7.0069 -0.1301 -2.3918 0.9708
-7.0033 -0.2600 -2.3918 0.9708
-7.0015 -0.3033 -2.3918 0.9708
-6.9888 -0.5196 -2.3918 0.9708
-6.9855 -0.5628 -2.3918 0.9708
-6.9780 -0.6492 -2.3918 0.9708
-6.9694 -0.7354 -2.3918 0.9708
-6.9647 -0.7786 -2.3918 0.9708
-6.9598 -0.8216 -2.3918 0.9708
-6.9491 -0.9076 -2.3918 0.9708
-6.9433 -0.9506 -2.3918 0.9708
-5.4920 -0.7865 -1.8935 0.9768
-5.2600 -0.7865 -1.8152 0.9778
-5.0464 -0.7865 -1.7431 0.9786
-4.4283 -0.8028 -1.5360 0.9812
-4.4276 -0.8594 -1.5393 0.9811
-4.4269 -0.9162 -1.5429 0.9811
-4.4265 -0.9447 -1.5448 0.9811
-4.4240 -1.1172 -1.5573 0.9809
-4.4236 -1.1463 -1.5596 0.9809
-4.4211 -1.2928 -1.5721 0.9807
-4.4206 -1.3223 -1.5748 0.9807
-4.4189 -1.4117 -1.5832 0.9806
-4.4177 -1.4718 -1.5892 0.9805
-6.6209 -2.2971 -2.3918 0.9708
-6.6066 -2.3380 -2.3918 0.9708
-6.5920 -2.3788 -2.3918 0.9708
-6.5772 -2.4196 -2.3918 0.9708
-6.5621 -2.4602 -2.3918 0.9708
-6.5312 -2.5412 -2.3918 0.9708
-6.5153 -2.5815 -2.3918 0.9708
-6.4993 -2.6217 -2.3918 0.9708
-6.4663 -2.7019 -2.3918 0.9708
-6.4495 -2.7419 -2.3918 0.9708
-6.4324 -2.7817 -2.3918 0.9708
-6.4151 -2.8214 -2.3918 0.9708
-6.3975 -2.8610 -2.3918 0.9708
-6.3797 -2.9005 -2.3918 0.9708
-6.3616 -2.9399 -2.3918 0.9708
-6.3433 -2.9793 -2.3918 0.9708
-6.3248 -3.0184 -2.3918 0.9708
-6.2870 -3.0964 -2.3918 0.9708
-6.2285 -3.2125 -2.3918 0.9708
-6.1882 -3.2893 -2.3918 0.9708
-6.1678 -3.3275 -2.3918 0.9708
-6.1471 -3.3656 -2.3918 0.9708
-6.1050 -3.4413 -2.3918 0.9708
-6.0401 -3.5540 -2.3918 0.9708
-5.9503 -3.7023 -2.3918 0.9708
-5.8806 -3.8121 -2.3918 0.9708
-5.8569 -3.8484 -2.3918 0.9708
-5.8330 -3.8845 -2.3918 0.9708
-5.8089 -3.9205 -2.3918 0.9708
-5.7845 -3.9563 -2.3918 0.9708
-5.7600 -3.9921 -2.3918 0.9708
-5.7352 -4.0276 -2.3918 0.9708
-5.6849 -4.0982 -2.3918 0.9708
-5.6595 -4.1333 -2.3918 0.9708
-5.5818 -4.2376 -2.3918 0.9708
-5.5555 -4.2720 -2.3918 0.9708
-5.5290 -4.3063 -2.3918 0.9708
-5.4753 -4.3744 -2.3918 0.9708
-5.4208 -4.4417 -2.3918 0.9708
-5.3932 -4.4752 -2.3918 0.9708
-5.3654 -4.5085 -2.3918 0.9708
-5.3374 -4.5416 -2.3918 0.9708
-5.3093 -4.5745 -2.3918 0.9708
-5.2809 -4.6072 -2.3918 0.9708
-5.1653 -4.7364 -2.3918 0.9708
-5.1359 -4.7683 -2.3918 0.9708
-5.0765 -4.8314 -2.3918 0.9708
-5.0466 -4.8627 -2.3918 0.9708
-5.0164 -4.8939 -2.3918 0.9708
-4.9555 -4.9555 -2.3918 0.9708
-4.9247 -4.9861 -2.3918 0.9708
-4.8938 -5.0164 -2.3918 0.9708
-4.8627 -5.0466 -2.3918 0.9708
-4.7999 -5.1064 -2.3918 0.9708
-4.7682 -5.1359 -2.3918 0.9708
-4.7044 -5.1945 -2.3918 0.9708
-4.6721 -5.2235 -2.3918 0.9708
-4.6397 -5.2523 -2.3918 0.9708
-4.6072 -5.2809 -2.3918 0.9708
-4.5744 -5.3093 -2.3918 0.9708
-4.4417 -5.4208 -2.3918 0.9708
-4.3404 -5.5022 -2.3918 0.9708
-4.3063 -5.5290 -2.3918 0.9708
-4.2376 -5.5819 -2.3918 0.9708
-4.1333 -5.6595 -2.3918 0.9708
-4.0982 -5.6850 -2.3918 0.9708
-3.9920 -5.7600 -2.3918 0.9708
-3.9563 -5.7846 -2.3918 0.9708
-3.6284 -5.9957 -2.3918 0.9708
-3.5166 -6.0620 -2.3918 0.9708
-3.4035 -6.1262 -2.3918 0.9708
-3.3655 -6.1471 -2.3918 0.9708
-3.2509 -6.2085 -2.3918 0.9708
-3.1739 -6.2482 -2.3918 0.9708
-3.0574 -6.3061 -2.3918 0.9708
-3.0184 -6.3248 -2.3918 0.9708
-2.9792 -6.3434 -2.3918 0.9708
-2.9005 -6.3797 -2.3918 0.9708
-2.8214 -6.4151 -2.3918 0.9708
-2.7418 -6.4495 -2.3918 0.9708
-2.7019 -6.4664 -2.3918 0.9708
-2.4601 -6.5621 -2.3918 0.9708
-2.3788 -6.5921 -2.3918 0.9708
-2.3380 -6.6067 -2.3918 0.9708
-2.2561 -6.6351 -2.3918 0.9708
-2.2150 -6.6489 -2.3918 0.9708
-2.1739 -6.6624 -2.3918 0.9708
-2.1326 -6.6758 -2.3918 0.9708
-2.0913 -6.6888 -2.3918 0.9708
-2.0084 -6.7142 -2.3918 0.9708
-1.9669 -6.7265 -2.3918 0.9708
-1.9252 -6.7385 -2.3918 0.9708
-1.7160 -6.7948 -2.3918 0.9708
-1.6739 -6.8053 -2.3918 0.9708
-1.5896 -6.8255 -2.3918 0.9708
-1.5051 -6.8446 -2.3918 0.9708
-1.4203 -6.8627 -2.3918 0.9708
-1.3353 -6.8798 -2.3918 0.9708
-1.2927 -6.8879 -2.3918 0.9708
-1.1648 -6.9107 -2.3918 0.9708
-1.1220 -6.9178 -2.3918 0.9708
-1.0792 -6.9245 -2.3918 0.9708
-1.0363 -6.9311 -2.3918 0.9708
-0.9935 -6.9373 -2.3918 0.9708
-0.9505 -6.9434 -2.3918 0.9708
-0.9076 -6.9491 -2.3918 0.9708
-0.8216 -6.9598 -2.3918 0.9708
-0.7785 -6.9648 -2.3918 0.9708
-0.7354 -6.9694 -2.3918 0.9708
-0.6060 -6.9819 -2.3918 0.9708
-0.4764 -6.9919 -2.3918 0.9708
-0.3033 -7.0016 -2.3918 0.9708
-0.2167 -7.0048 -2.3918 0.9708
-0.1300 -7.0069 -2.3918 0.9708
0.0433 -7.0080 -2.3918 0.9708
0.0867 -7.0076 -2.3918 0.9708
0.1733 -7.0060 -2.3918 0.9708
0.2167 -7.0048 -2.3918 0.9708
0.3033 -7.0016 -2.3918 0.9708
0.3466 -6.9996 -2.3918 0.9708
0.4331 -6.9948 -2.3918 0.9708
0.5196 -6.9889 -2.3918 0.9708
0.6492 -6.9780 -2.3918 0.9708
0.6923 -6.9739 -2.3918 0.9708
0.7785 -6.9648 -2.3918 0.9708
0.8646 -6.9546 -2.3918 0.9708
0.9505 -6.9434 -2.3918 0.9708
0.9935 -6.9374 -2.3918 0.9708
1.0363 -6.9311 -2.3918 0.9708
1.0792 -6.9246 -2.3918 0.9708
1.1220 -6.9178 -2.3918 0.9708
1.2501 -6.8957 -2.3918 0.9708
1.2928 -6.8879 -2.3918 0.9708
1.3779 -6.8713 -2.3918 0.9708
1.4627 -6.8538 -2.3918 0.9708
1.5051 -6.8446 -2.3918 0.9708
1.5474 -6.8352 -2.3918 0.9708
1.5896 -6.8255 -2.3918 0.9708
1.6318 -6.8155 -2.3918 0.9708
1.6739 -6.8053 -2.3918 0.9708
1.7580 -6.7841 -2.3918 0.9708
1.8417 -6.7618 -2.3918 0.9708
1.9252 -6.7385 -2.3918 0.9708
2.0499 -6.7016 -2.3918 0.9708
2.0913 -6.6888 -2.3918 0.9708
2.1326 -6.6758 -2.3918 0.9708
2.2150 -6.6489 -2.3918 0.9708
2.3788 -6.5921 -2.3918 0.9708
2.4195 -6.5772 -2.3918 0.9708
2.5007 -6.5468 -2.3918 0.9708
2.5815 -6.5154 -2.3918 0.9708
2.7019 -6.4663 -2.3918 0.9708
2.7418 -6.4496 -2.3918 0.9708
2.7817 -6.4325 -2.3918 0.9708
2.9005 -6.3797 -2.3918 0.9708
2.9792 -6.3434 -2.3918 0.9708
3.0184 -6.3248 -2.3918 0.9708
3.0964 -6.2870 -2.3918 0.9708
3.1352 -6.2677 -2.3918 0.9708
3.1739 -6.2482 -2.3918 0.9708
3.2125 -6.2285 -2.3918 0.9708
3.2509 -6.2085 -2.3918 0.9708
3.4035 -6.1262 -2.3918 0.9708
3.4413 -6.1050 -2.3918 0.9708
3.5166 -6.0620 -2.3918 0.9708
3.5540 -6.0401 -2.3918 0.9708
3.5913 -6.0180 -2.3918 0.9708
3.6654 -5.9732 -2.3918 0.9708
3.7390 -5.9274 -2.3918 0.9708
3.7756 -5.9041 -2.3918 0.9708
3.8120 -5.8806 -2.3918 0.9708
3.9563 -5.7846 -2.3918 0.9708
3.9920 -5.7600 -2.3918 0.9708
4.0276 -5.7352 -2.3918 0.9708
4.0630 -5.7102 -2.3918 0.9708
4.2720 -5.5555 -2.3918 0.9708
4.4081 -5.4482 -2.3918 0.9708
4.4417 -5.4208 -2.3918 0.9708
4.4751 -5.3932 -2.3918 0.9708
4.5415 -5.3375 -2.3918 0.9708
4.6721 -5.2235 -2.3918 0.9708
4.7044 -5.1945 -2.3918 0.9708
4.7364 -5.1654 -2.3918 0.9708
4.7682 -5.1360 -2.3918 0.9708
4.8627 -5.0466 -2.3918 0.9708
4.8938 -5.0164 -2.3918 0.9708
4.9247 -4.9861 -2.3918 0.9708
4.9555 -4.9555 -2.3918 0.9708
5.0164 -4.8939 -2.3918 0.9708
5.0466 -4.8627 -2.3918 0.9708
5.0765 -4.8314 -2.3918 0.9708
5.2523 -4.6398 -2.3918 0.9708
5.2809 -4.6072 -2.3918 0.9708
5.3093 -4.5745 -2.3918 0.9708
5.3374 -4.5415 -2.3918 0.9708
5.3654 -4.5084 -2.3918 0.9708
5.4208 -4.4417 -2.3918 0.9708
5.4481 -4.4081 -2.3918 0.9708
5.5022 -4.3404 -2.3918 0.9708
5.6595 -4.1333 -2.3918 0.9708
5.6849 -4.0982 -2.3918 0.9708
5.7102 -4.0630 -2.3918 0.9708
5.7352 -4.0276 -2.3918 0.9708
5.8089 -3.9205 -2.3918 0.9708
5.8569 -3.8483 -2.3918 0.9708
5.8806 -3.8121 -2.3918 0.9708
5.9041 -3.7756 -2.3918 0.9708
5.9273 -3.7390 -2.3918 0.9708
5.9731 -3.6654 -2.3918 0.9708
5.9957 -3.6285 -2.3918 0.9708
6.0620 -3.5166 -2.3918 0.9708
6.1050 -3.4413 -2.3918 0.9708
6.1262 -3.4035 -2.3918 0.9708
6.2085 -3.2510 -2.3918 0.9708
6.2870 -3.0964 -2.3918 0.9708
6.3060 -3.0575 -2.3918 0.9708
6.3433 -2.9792 -2.3918 0.9708
6.3797 -2.9005 -2.3918 0.9708
6.3975 -2.8611 -2.3918 0.9708
6.4324 -2.7817 -2.3918 0.9708
6.4663 -2.7019 -2.3918 0.9708
6.5153 -2.5815 -2.3918 0.9708
6.5312 -2.5412 -2.3918 0.9708
6.5920 -2.3788 -2.3918 0.9708
6.6066 -2.3380 -2.3918 0.9708
6.6209 -2.2971 -2.3918 0.9708
6.6350 -2.2561 -2.3918 0.9708
6.6757 -2.1326 -2.3918 0.9708
6.7142 -2.0085 -2.3918 0.9708
6.7264 -1.9669 -2.3918 0.9708
6.7503 -1.8836 -2.3918 0.9708
6.7948 -1.7160 -2.3918 0.9708
6.8053 -1.6740 -2.3918 0.9708
6.8446 -1.5051 -2.3918 0.9708
6.8538 -1.4628 -2.3918 0.9708
6.8627 -1.4204 -2.3918 0.9708
6.8878 -1.2928 -2.3918 0.9708
6.9177 -1.1220 -2.3918 0.9708
6.9245 -1.0792 -2.3918 0.9708
6.9373 -0.9935 -2.3918 0.9708
6.9491 -0.9076 -2.3918 0.9708
6.9546 -0.8646 -2.3918 0.9708
6.9598 -0.8216 -2.3918 0.9708
6.9647 -0.7785 -2.3918 0.9708
6.9694 -0.7355 -2.3918 0.9708
6.9819 -0.6060 -2.3918 0.9708
6.9855 -0.5628 -2.3918 0.9708
6.9947 -0.4331 -2.3918 0.9708
6.9973 -0.3899 -2.3918 0.9708
6.9995 -0.3466 -2.3918 0.9708
7.0015 -0.3033 -2.3918 0.9708
7.0033 -0.2600 -2.3918 0.9708
7.0060 -0.1734 -2.3918 0.9708
7.0069 -0.1301 -2.3918 0.9708
7.0076 -0.0867 -2.3918 0.9708
7.0080 -0.0434 -2.3918 0.9708
7.0081 -0.0001 -2.3918 0.9708
7.0080 0.0433 -2.3918 0.9708
7.0076 0.0866 -2.3918 0.9708
7.0069 0.1300 -2.3918 0.9708
7.0060 0.1733 -2.3918 0.9708
6.9738 0.6923 -2.3918 0.9708
6.9694 0.7354 -2.3918 0.9708
6.9647 0.7785 -2.3918 0.9708
6.9598 0.8215 -2.3918 0.9708
6.9546 0.8646 -2.3918 0.9708
6.9491 0.9075 -2.3918 0.9708
6.9433 0.9505 -2.3918 0.9708
6.9311 1.0363 -2.3918 0.9708
6.9245 1.0791 -2.3918 0.9708
6.9106 1.1647 -2.3918 0.9708
6.9033 1.2074 -2.3918 0.9708
6.8957 1.2501 -2.3918 0.9708
6.8878 1.2927 -2.3918 0.9708
6.8797 1.3353 -2.3918 0.9708
6.8621 1.4202 -2.3916 0.9708
6.6960 1.4290 -2.3368 0.9715
6.5374 1.4375 -2.2845 0.9721
6.3905 1.4883 -2.2394 0.9726
6.3812 1.5278 -2.2394 0.9726
6.3716 1.5672 -2.2394 0.9726
6.3618 1.6066 -2.2394 0.9726
6.3518 1.6459 -2.2394 0.9726
6.3309 1.7244 -2.2394 0.9726
6.3202 1.7635 -2.2394 0.9726
6.2979 1.8415 -2.2394 0.9726
6.2746 1.9193 -2.2394 0.9726
6.2504 1.9967 -2.2394 0.9726
6.2252 2.0739 -2.2394 0.9726
6.2123 2.1123 -2.2394 0.9726
6.1857 2.1890 -2.2394 0.9726
6.1002 2.4170 -2.2394 0.9726
6.0698 2.4922 -2.2394 0.9726
6.0226 2.6044 -2.2394 0.9726
5.9042 2.8626 -2.2394 0.9726
5.8864 2.8991 -2.2394 0.9726
5.8316 3.0078 -2.2394 0.9726
5.7748 3.1154 -2.2394 0.9726
5.7554 3.1511 -2.2394 0.9726
5.7160 3.2220 -2.2394 0.9726
5.6960 3.2573 -2.2394 0.9726
5.6757 3.2925 -2.2394 0.9726
5.6346 3.3624 -2.2394 0.9726
5.6137 3.3972 -2.2394 0.9726
5.5925 3.4319 -2.2394 0.9726
5.5712 3.4664 -2.2394 0.9726
5.5497 3.5007 -2.2394 0.9726
5.4203 3.7072 -2.2412 0.9726
5.3973 3.7406 -2.2412 0.9726
5.3505 3.8071 -2.2412 0.9726
5.3269 3.8400 -2.2412 0.9726
5.2789 3.9056 -2.2412 0.9726
5.2302 3.9706 -2.2411 0.9726
5.1302 4.0986 -2.2411 0.9726
5.0532 4.1930 -2.2411 0.9726
5.0010 4.2552 -2.2410 0.9726
4.9479 4.3166 -2.2410 0.9726
4.9211 4.3472 -2.2410 0.9726
4.8941 4.3775 -2.2410 0.9726
4.7842 4.4971 -2.2410 0.9726
4.7563 4.5266 -2.2409 0.9726
4.6999 4.5851 -2.2409 0.9726
4.6428 4.6428 -2.2409 0.9726
4.6140 4.6713 -2.2409 0.9726
4.5850 4.6998 -2.2409 0.9726
4.5558 4.7280 -2.2409 0.9726
4.5264 4.7561 -2.2409 0.9726
4.4969 4.7840 -2.2408 0.9726
4.4672 4.8117 -2.2408 0.9726
4.4374 4.8392 -2.2408 0.9726
4.3162 4.9473 -2.2408 0.9726
4.2547 5.0003 -2.2408 0.9726
4.1925 5.0525 -2.2407 0.9726
4.1611 5.0783 -2.2407 0.9726
4.0979 5.1293 -2.2407 0.9726
4.0020 5.2044 -2.2407 0.9726
3.9047 5.2777 -2.2406 0.9726
3.8720 5.3017 -2.2406 0.9726
3.8061 5.3491 -2.2406 0.9726
3.7396 5.3958 -2.2406 0.9726
3.7062 5.4188 -2.2406 0.9726
3.6388 5.4642 -2.2406 0.9726
3.5709 5.5087 -2.2405 0.9726
3.5368 5.5306 -2.2405 0.9726
3.5025 5.5524 -2.2405 0.9726
3.4681 5.5739 -2.2405 0.9726
3.3291 5.6579 -2.2405 0.9726
3.2588 5.6986 -2.2405 0.9726
3.1881 5.7384 -2.2404 0.9726
3.1525 5.7580 -2.2404 0.9726
3.0451 5.8154 -2.2404 0.9726
2.9729 5.8526 -2.2404 0.9726
2.9367 5.8708 -2.2404 0.9726
2.9003 5.8888 -2.2404 0.9726
2.8272 5.9242 -2.2403 0.9726
2.7905 5.9416 -2.2403 0.9726
2.7537 5.9587 -2.2403 0.9726
2.7168 5.9756 -2.2403 0.9726
2.6427 6.0087 -2.2403 0.9726
2.6054 6.0249 -2.2403 0.9726
2.5681 6.0408 -2.2403 0.9726
2.5307 6.0566 -2.2403 0.9726
2.4932 6.0721 -2.2403 0.9726
2.3422 6.1318 -2.2402 0.9726
2.2662 6.1603 -2.2402 0.9726
2.2280 6.1741 -2.2402 0.9726
2.0360 6.2399 -2.2402 0.9726
1.9974 6.2524 -2.2402 0.9726
1.9587 6.2646 -2.2401 0.9726
1.9199 6.2766 -2.2401 0.9726
1.8810 6.2883 -2.2401 0.9726
1.8421 6.2998 -2.2401 0.9726
1.8031 6.3111 -2.2401 0.9726
1.7640 6.3221 -2.2401 0.9726
1.7249 6.3328 -2.2401 0.9726
1.6857 6.3434 -2.2401 0.9726
1.6464 6.3536 -2.2401 0.9726
1.5677 6.3735 -2.2401 0.9726
1.5283 6.3830 -2.2401 0.9726
1.4887 6.3923 -2.2401 0.9726
1.4492 6.4014 -2.2400 0.9726
1.4096 6.4102 -2.2400 0.9726
1.1891 5.9303 -2.0642 0.9748
1.1512 5.9310 -2.0620 0.9748
1.0845 6.2004 -2.1483 0.9737
0.9861 6.3273 -2.1855 0.9733
0.9063 6.3290 -2.1821 0.9733
0.8666 6.3299 -2.1805 0.9734
0.8268 6.3307 -2.1790 0.9734
0.4043 3.6167 -1.2420 0.9847
0.3817 3.6171 -1.2413 0.9847
0.3591 3.6174 -1.2407 0.9848
0.3366 3.6178 -1.2401 0.9848
0.3140 3.6182 -1.2395 0.9848
0.2691 3.6190 -1.2386 0.9848
0.2466 3.6194 -1.2381 0.9848
0.2241 3.6198 -1.2378 0.9848
0.2017 3.6202 -1.2375 0.9848
0.1793 3.6206 -1.2372 0.9848
0.1569 3.6210 -1.2370 0.9848
0.0896 3.6221 -1.2366 0.9848
0.0448 3.6229 -1.2366 0.9848
0.0224 3.6233 -1.2366 0.9848
-0.0673 3.6249 -1.2374 0.9848
-0.2579 5.9544 -2.0341 0.9751
-0.2948 5.9549 -2.0349 0.9751
-0.3318 5.9554 -2.0357 0.9751
-0.3688 5.9559 -2.0366 0.9751
-0.4671 3.7573 -1.2922 0.9841
-0.4907 3.7568 -1.2931 0.9841
-0.5142 3.7562 -1.2939 0.9841
-0.5378 3.7556 -1.2949 0.9841
-0.5615 3.7550 -1.2958 0.9841
-0.5849 3.7527 -1.2962 0.9841
-0.6082 3.7500 -1.2966 0.9841
-0.6792 3.7462 -1.2994 0.9840
-0.7030 3.7454 -1.3006 0.9840
-0.7520 3.7504 -1.3055 0.9840
-0.7797 3.7671 -1.3130 0.9839
-1.4009 6.3707 -2.2262 0.9728
-1.4424 6.3713 -2.2295 0.9728
-1.5257 6.3724 -2.2363 0.9727
-1.6068 6.3624 -2.2396 0.9726
-1.6461 6.3523 -2.2396 0.9726
-1.7245 6.3315 -2.2396 0.9726
-1.7637 6.3207 -2.2396 0.9726
-1.8027 6.3096 -2.2396 0.9726
-1.8417 6.2983 -2.2396 0.9726
-1.8806 6.2869 -2.2396 0.9726
-1.9335 6.1840 -2.2113 0.9730
-1.9351 6.0573 -2.1703 0.9735
-1.9543 5.9895 -2.1502 0.9737
-2.0371 5.9909 -2.1596 0.9736
-1.5684 4.5205 -1.6330 0.9800
-1.5698 4.4360 -1.6060 0.9803
-1.5665 4.3409 -1.5750 0.9807
-1.6001 4.2681 -1.5557 0.9809
-1.6169 4.2330 -1.5465 0.9810
-1.6182 4.1590 -1.5231 0.9813
-1.6194 4.0873 -1.5005 0.9816
-1.6206 4.0176 -1.4785 0.9819
-1.6252 3.7581 -1.3974 0.9828
-1.6262 3.6976 -1.3786 0.9831
-1.6273 3.6387 -1.3604 0.9833
-1.6283 3.5814 -1.3427 0.9835
-1.6302 3.4710 -1.3088 0.9839
-1.5843 3.3198 -1.2554 0.9846
-1.6084 3.1184 -1.1975 0.9853
-1.6475 3.1464 -1.2122 0.9851
-1.6726 3.1468 -1.2163 0.9851
-1.6952 3.1423 -1.2185 0.9850
-3.2223 5.7163 -2.2396 0.9726
-2.6621 4.5243 -1.7916 0.9781
-2.6632 4.4628 -1.7737 0.9783
-2.6843 4.4356 -1.7695 0.9783
-2.7663 4.4460 -1.7871 0.9781
-3.5694 5.5062 -2.2396 0.9726
-3.0271 4.4852 -1.8468 0.9774
-3.0646 4.4807 -1.8527 0.9773
-2.9313 4.2295 -1.7563 0.9785
-2.8626 3.9710 -1.6707 0.9795
-3.0696 3.9411 -1.7049 0.9791
-3.1070 3.9387 -1.7122 0.9790
-3.1553 3.9495 -1.7253 0.9789
-3.7683 4.5413 -2.0140 0.9754
-3.7693 4.4858 -1.9997 0.9755
-3.8881 4.4567 -2.0185 0.9753
-4.3444 4.9179 -2.2396 0.9726
-4.3748 4.8910 -2.2396 0.9726
-4.4349 4.8365 -2.2396 0.9726
-4.4648 4.8090 -2.2396 0.9726
-4.5239 4.7534 -2.2396 0.9726
-4.5532 4.7254 -2.2396 0.9726
-4.5824 4.6971 -2.2396 0.9726
-4.6113 4.6687 -2.2396 0.9726
-4.6401 4.6401 -2.2396 0.9726
-4.6972 4.5823 -2.2396 0.9726
-4.8091 4.4648 -2.2396 0.9726
-4.8366 4.4350 -2.2396 0.9726
-4.8640 4.4050 -2.2396 0.9726
-4.8911 4.3748 -2.2396 0.9726
-4.9449 4.3140 -2.2396 0.9726
-4.9979 4.2525 -2.2396 0.9726
-5.0241 4.2216 -2.2396 0.9726
-5.0501 4.1904 -2.2397 0.9726
-5.1773 4.0323 -2.2397 0.9726
-4.9932 3.6467 -2.1102 0.9742
-5.3234 3.8375 -2.2397 0.9726
-5.3704 3.7714 -2.2397 0.9726
-5.3937 3.7381 -2.2397 0.9726
-5.4395 3.6712 -2.2397 0.9726
-5.4621 3.6374 -2.2397 0.9726
-5.6346 3.3624 -2.2394 0.9726
-5.7940 3.0796 -2.2394 0.9726
-5.8501 2.9716 -2.2394 0.9726
-5.9042 2.8626 -2.2394 0.9726
-5.9392 2.7893 -2.2394 0.9726
-5.9563 2.7526 -2.2394 0.9726
-6.0226 2.6044 -2.2394 0.9726
-6.0385 2.5671 -2.2394 0.9726
-6.0851 2.4546 -2.2394 0.9726
-6.1440 2.3034 -2.2394 0.9726
-6.1581 2.2653 -2.2394 0.9726
-6.1720 2.2272 -2.2394 0.9726
-4.4177 1.4717 -1.5892 0.9805
-4.4189 1.4117 -1.5832 0.9806
-4.4195 1.3818 -1.5803 0.9806
-4.4200 1.3520 -1.5775 0.9807
-4.4206 1.3223 -1.5748 0.9807
-4.4211 1.2928 -1.5721 0.9807
-4.4216 1.2633 -1.5695 0.9808
-4.4226 1.2046 -1.5644 0.9808
-4.4236 1.1463 -1.5596 0.9809
-4.4240 1.1173 -1.5573 0.9809
-4.4257 1.0019 -1.5487 0.9810
-4.4261 0.9733 -1.5467 0.9810
-4.4265 0.9447 -1.5448 0.9811
-4.4276 0.8594 -1.5393 0.9811
-4.4283 0.8028 -1.5360 0.9812
-4.6662 0.7865 -1.6150 0.9802
-4.8490 0.7865 -1.6766 0.9795
-5.0463 0.7865 -1.7431 0.9786
-5.4919 0.7865 -1.8935 0.9768
-6.9434 0.9505 -2.3918 0.9708
-6.9647 0.7784 -2.3918 0.9708
-6.9694 0.7354 -2.3918 0.9708
-6.9738 0.6922 -2.3918 0.9708
-6.9780 0.6491 -2.3918 0.9708
-6.9819 0.6060 -2.3918 0.9708
-6.9855 0.5628 -2.3918 0.9708
-6.9888 0.5196 -2.3918 0.9708
-6.9919 0.4763 -2.3918 0.9708
-6.9973 0.3898 -2.3918 0.9708
-7.0015 0.3033 -2.3918 0.9708
-7.0048 0.2166 -2.3918 0.9708
-7.0060 0.1733 -2.3918 0.9708
-7.0069 0.1300 -2.3918 0.9708
-7.0076 0.0867 -2.3918 0.9708
-7.0080 0.0433 -2.3918 0.9708
-6.8410 -0.0847 -2.3918 0.9714
-6.8403 -0.1270 -2.3918 0.9714
-6.8382 -0.2115 -2.3918 0.9714
-6.8368 -0.2538 -2.3918 0.9714
-6.8309 -0.3806 -2.3918 0.9714
-6.8284 -0.4229 -2.3918 0.9714
-6.8257 -0.4651 -2.3918 0.9714
-6.8227 -0.5073 -2.3918 0.9714
-6.8159 -0.5916 -2.3918 0.9714
-6.8121 -0.6338 -2.3918 0.9714
-6.8081 -0.6759 -2.3918 0.9714
-6.7992 -0.7600 -2.3918 0.9714
-6.7943 -0.8021 -2.3918 0.9714
-6.7893 -0.8441 -2.3918 0.9714
-6.7839 -0.8860 -2.3918 0.9714
-5.0464 -0.7865 -1.7855 0.9786
-4.8491 -0.7865 -1.7174 0.9794
-4.4210 -0.8298 -1.5726 0.9811
-4.4206 -0.8580 -1.5743 0.9811
-4.4203 -0.8864 -1.5761 0.9811
-4.4199 -0.9148 -1.5780 0.9811
-4.4192 -0.9717 -1.5819 0.9810
-4.4187 -1.0003 -1.5839 0.9810
-4.4170 -1.1155 -1.5927 0.9809
-4.4165 -1.1445 -1.5950 0.9809
-4.4160 -1.1735 -1.5975 0.9808
-4.4156 -1.2027 -1.5999 0.9808
-4.4145 -1.2613 -1.6051 0.9807
-4.4140 -1.2907 -1.6078 0.9807
-4.4117 -1.4094 -1.6192 0.9806
-4.4111 -1.4393 -1.6222 0.9805
-4.4099 -1.4995 -1.6284 0.9805
-6.4635 -2.2425 -2.3918 0.9714
-6.4496 -2.2825 -2.3918 0.9714
-6.4208 -2.3620 -2.3918 0.9714
-6.4061 -2.4017 -2.3918 0.9714
-6.3911 -2.4413 -2.3918 0.9714
-6.3447 -2.5594 -2.3918 0.9714
-6.3126 -2.6377 -2.3918 0.9714
-6.2795 -2.7156 -2.3918 0.9714
-6.2626 -2.7543 -2.3918 0.9714
-6.2454 -2.7930 -2.3918 0.9714
-6.2104 -2.8700 -2.3918 0.9714
-6.1925 -2.9084 -2.3918 0.9714
-6.1187 -3.0607 -2.3918 0.9714
-6.0997 -3.0985 -2.3918 0.9714
-6.0804 -3.1361 -2.3918 0.9714
-6.0609 -3.1737 -2.3918 0.9714
-6.0411 -3.2111 -2.3918 0.9714
-6.0010 -3.2856 -2.3918 0.9714
-5.9805 -3.3226 -2.3918 0.9714
-5.9599 -3.3596 -2.3918 0.9714
-5.8749 -3.5059 -2.3918 0.9714
-5.8532 -3.5422 -2.3918 0.9714
-5.8089 -3.6143 -2.3918 0.9714
-5.7177 -3.7569 -2.3918 0.9714
-5.6708 -3.8273 -2.3918 0.9714
-5.6230 -3.8971 -2.3918 0.9714
-5.5744 -3.9664 -2.3918 0.9714
-5.4746 -4.1031 -2.3918 0.9714
-5.4491 -4.1369 -2.3918 0.9714
-5.4234 -4.1705 -2.3918 0.9714
-5.3715 -4.2372 -2.3918 0.9714
-5.3451 -4.2704 -2.3918 0.9714
-5.3186 -4.3034 -2.3918 0.9714
-5.2919 -4.3361 -2.3918 0.9714
-5.2650 -4.3688 -2.3918 0.9714
-5.2106 -4.4336 -2.3918 0.9714
-5.1274 -4.5295 -2.3918 0.9714
-5.0710 -4.5925 -2.3918 0.9714
-5.0425 -4.6238 -2.3918 0.9714
-5.0138 -4.6549 -2.3918 0.9714
-4.9849 -4.6858 -2.3918 0.9714
-4.9266 -4.7471 -2.3918 0.9714
-4.8675 -4.8077 -2.3918 0.9714
-4.8377 -4.8377 -2.3918 0.9714
-4.8077 -4.8675 -2.3918 0.9714
-4.7775 -4.8972 -2.3918 0.9714
-4.7471 -4.9266 -2.3918 0.9714
-4.6858 -4.9850 -2.3918 0.9714
-4.6549 -5.0139 -2.3918 0.9714
-4.6238 -5.0426 -2.3918 0.9714
-4.5611 -5.0993 -2.3918 0.9714
-4.5294 -5.1274 -2.3918 0.9714
-4.4977 -5.1554 -2.3918 0.9714
-4.4335 -5.2106 -2.3918 0.9714
-4.3688 -5.2650 -2.3918 0.9714
-4.3361 -5.2920 -2.3918 0.9714
-4.3033 -5.3187 -2.3918 0.9714
-4.2039 -5.3976 -2.3918 0.9714
-4.1704 -5.4235 -2.3918 0.9714
-4.0691 -5.4999 -2.3918 0.9714
-4.0350 -5.5250 -2.3918 0.9714
-3.9664 -5.5745 -2.3918 0.9714
-3.9318 -5.5988 -2.3918 0.9714
-3.8971 -5.6230 -2.3918 0.9714
-3.8623 -5.6471 -2.3918 0.9714
-3.8273 -5.6709 -2.3918 0.9714
-3.7569 -5.7178 -2.3918 0.9714
-3.6858 -5.7638 -2.3918 0.9714
-3.6501 -5.7865 -2.3918 0.9714
-3.6143 -5.8089 -2.3918 0.9714
-3.5059 -5.8750 -2.3918 0.9714
-3.4330 -5.9179 -2.3918 0.9714
-3.3595 -5.9599 -2.3918 0.9714
-3.2855 -6.0010 -2.3918 0.9714
-3.2484 -6.0212 -2.3918 0.9714
-3.2111 -6.0412 -2.3918 0.9714
-3.0984 -6.0997 -2.3918 0.9714
-3.0607 -6.1187 -2.3918 0.9714
-3.0228 -6.1376 -2.3918 0.9714
-2.9847 -6.1561 -2.3918 0.9714
-2.9084 -6.1926 -2.3918 0.9714
-2.8700 -6.2105 -2.3918 0.9714
-2.8316 -6.2281 -2.3918 0.9714
-2.7543 -6.2626 -2.3918 0.9714
-2.6767 -6.2962 -2.3918 0.9714
-2.6377 -6.3126 -2.3918 0.9714
-2.5201 -6.3605 -2.3918 0.9714
-2.4412 -6.3912 -2.3918 0.9714
-2.3223 -6.4354 -2.3918 0.9714
-2.2824 -6.4496 -2.3918 0.9714
-2.2425 -6.4636 -2.3918 0.9714
-2.1624 -6.4908 -2.3918 0.9714
-2.0819 -6.5171 -2.3918 0.9714
-2.0416 -6.5298 -2.3918 0.9714
-2.0012 -6.5423 -2.3918 0.9714
-1.9606 -6.5546 -2.3918 0.9714
-1.9201 -6.5666 -2.3918 0.9714
-1.8794 -6.5783 -2.3918 0.9714
-1.8387 -6.5898 -2.3918 0.9714
-1.6752 -6.6333 -2.3918 0.9714
-1.6341 -6.6435 -2.3918 0.9714
-1.5930 -6.6535 -2.3918 0.9714
-1.4279 -6.6908 -2.3918 0.9714
-1.3451 -6.7080 -2.3918 0.9714
-1.3036 -6.7162 -2.3918 0.9714
-1.2204 -6.7318 -2.3918 0.9714
-1.1370 -6.7464 -2.3918 0.9714
-1.0117 -6.7663 -2.3918 0.9714
-0.7600 -6.7992 -2.3918 0.9714
-0.6758 -6.8081 -2.3918 0.9714
-0.5916 -6.8159 -2.3918 0.9714
-0.5494 -6.8194 -2.3918 0.9714
-0.3383 -6.8332 -2.3918 0.9714
-0.2538 -6.8368 -2.3918 0.9714
-0.1692 -6.8394 -2.3918 0.9714
0.0000 -6.8415 -2.3918 0.9714
0.1692 -6.8394 -2.3918 0.9714
0.3383 -6.8331 -2.3918 0.9714
0.3806 -6.8310 -2.3918 0.9714
0.5073 -6.8227 -2.3918 0.9714
0.5916 -6.8159 -2.3918 0.9714
0.6337 -6.8121 -2.3918 0.9714
0.7179 -6.8038 -2.3918 0.9714
0.7600 -6.7992 -2.3918 0.9714
0.8440 -6.7893 -2.3918 0.9714
0.8860 -6.7839 -2.3918 0.9714
0.9279 -6.7783 -2.3918 0.9714
1.0117 -6.7663 -2.3918 0.9714
1.0535 -6.7599 -2.3918 0.9714
1.1371 -6.7464 -2.3918 0.9714
1.2204 -6.7318 -2.3918 0.9714
1.4280 -6.6909 -2.3918 0.9714
1.4693 -6.6819 -2.3918 0.9714
1.5106 -6.6727 -2.3918 0.9714
1.7162 -6.6228 -2.3918 0.9714
1.8387 -6.5898 -2.3918 0.9714
1.9201 -6.5666 -2.3918 0.9714
1.9607 -6.5546 -2.3918 0.9714
2.0416 -6.5298 -2.3918 0.9714
2.0819 -6.5171 -2.3918 0.9714
2.1222 -6.5041 -2.3918 0.9714
2.1624 -6.4908 -2.3918 0.9714
2.2425 -6.4636 -2.3918 0.9714
2.2824 -6.4496 -2.3918 0.9714
2.3223 -6.4354 -2.3918 0.9714
2.4412 -6.3912 -2.3918 0.9714
2.4807 -6.3760 -2.3918 0.9714
2.5201 -6.3605 -2.3918 0.9714
2.5594 -6.3448 -2.3918 0.9714
2.5986 -6.3289 -2.3918 0.9714
2.8700 -6.2104 -2.3918 0.9714
2.9084 -6.1926 -2.3918 0.9714
2.9466 -6.1745 -2.3918 0.9714
3.1736 -6.0609 -2.3918 0.9714
3.2111 -6.0412 -2.3918 0.9714
3.2484 -6.0212 -2.3918 0.9714
3.3226 -5.9806 -2.3918 0.9714
3.3595 -5.9599 -2.3918 0.9714
3.4330 -5.9179 -2.3918 0.9714
3.4695 -5.8965 -2.3918 0.9714
3.5059 -5.8750 -2.3918 0.9714
3.5783 -5.8312 -2.3918 0.9714
3.6858 -5.7638 -2.3918 0.9714
3.7214 -5.7409 -2.3918 0.9714
3.7569 -5.7178 -2.3918 0.9714
3.9664 -5.5745 -2.3918 0.9714
4.0350 -5.5250 -2.3918 0.9714
4.0691 -5.4999 -2.3918 0.9714
4.1030 -5.4746 -2.3918 0.9714
4.1704 -5.4235 -2.3918 0.9714
4.2039 -5.3976 -2.3918 0.9714
4.2372 -5.3715 -2.3918 0.9714
4.3361 -5.2920 -2.3918 0.9714
4.3688 -5.2650 -2.3918 0.9714
4.4012 -5.2379 -2.3918 0.9714
4.5611 -5.0993 -2.3918 0.9714
4.6238 -5.0425 -2.3918 0.9714
4.6549 -5.0138 -2.3918 0.9714
4.7471 -4.9266 -2.3918 0.9714
4.8377 -4.8377 -2.3918 0.9714
4.9849 -4.6858 -2.3918 0.9714
5.0138 -4.6549 -2.3918 0.9714
5.0710 -4.5926 -2.3918 0.9714
5.1274 -4.5295 -2.3918 0.9714
5.2106 -4.4336 -2.3918 0.9714
5.3186 -4.3033 -2.3918 0.9714
5.3714 -4.2372 -2.3918 0.9714
5.3975 -4.2039 -2.3918 0.9714
5.4746 -4.1031 -2.3918 0.9714
5.4999 -4.0691 -2.3918 0.9714
5.5249 -4.0351 -2.3918 0.9714
5.5498 -4.0008 -2.3918 0.9714
5.5744 -3.9664 -2.3918 0.9714
5.6230 -3.8972 -2.3918 0.9714
5.6470 -3.8623 -2.3918 0.9714
5.6708 -3.8273 -2.3918 0.9714
5.6944 -3.7922 -2.3918 0.9714
5.7177 -3.7569 -2.3918 0.9714
5.7408 -3.7214 -2.3918 0.9714
5.7637 -3.6859 -2.3918 0.9714
5.8311 -3.5783 -2.3918 0.9714
5.8531 -3.5422 -2.3918 0.9714
5.8749 -3.5059 -2.3918 0.9714
5.8965 -3.4695 -2.3918 0.9714
5.9390 -3.3963 -2.3918 0.9714
5.9599 -3.3595 -2.3918 0.9714
6.0997 -3.0984 -2.3918 0.9714
6.1187 -3.0607 -2.3918 0.9714
6.1375 -3.0228 -2.3918 0.9714
6.1744 -2.9467 -2.3918 0.9714
6.2795 -2.7156 -2.3918 0.9714
6.2962 -2.6767 -2.3918 0.9714
6.3126 -2.6377 -2.3918 0.9714
6.3288 -2.5986 -2.3918 0.9714
6.3447 -2.5594 -2.3918 0.9714
6.3911 -2.4413 -2.3918 0.9714
6.4061 -2.4017 -2.3918 0.9714
6.4353 -2.3223 -2.3918 0.9714
6.4636 -2.2425 -2.3918 0.9714
6.4773 -2.2025 -2.3918 0.9714
6.5040 -2.1222 -2.3918 0.9714
6.5170 -2.0820 -2.3918 0.9714
6.5545 -1.9607 -2.3918 0.9714
6.5783 -1.8795 -2.3918 0.9714
6.6010 -1.7980 -2.3918 0.9714
6.6120 -1.7571 -2.3918 0.9714
6.6332 -1.6752 -2.3918 0.9714
6.6535 -1.5930 -2.3918 0.9714
6.6632 -1.5519 -2.3918 0.9714
6.6995 -1.3866 -2.3918 0.9714
6.7162 -1.3036 -2.3918 0.9714
6.7241 -1.2621 -2.3918 0.9714
6.7392 -1.1788 -2.3918 0.9714
6.7464 -1.1371 -2.3918 0.9714
6.7533 -1.0953 -2.3918 0.9714
6.7599 -1.0536 -2.3918 0.9714
6.7663 -1.0117 -2.3918 0.9714
6.7724 -0.9699 -2.3918 0.9714
6.7783 -0.9280 -2.3918 0.9714
6.7992 -0.7600 -2.3918 0.9714
6.8080 -0.6759 -2.3918 0.9714
6.8121 -0.6338 -2.3918 0.9714
6.8194 -0.5495 -2.3918 0.9714
6.8227 -0.5073 -2.3918 0.9714
6.8284 -0.4229 -2.3918 0.9714
6.8309 -0.3806 -2.3918 0.9714
6.8403 -0.1270 -2.3918 0.9714
6.8410 -0.0847 -2.3918 0.9714
6.8414 -0.0423 -2.3918 0.9714
6.8415 -0.0000 -2.3918 0.9714
6.8414 0.0423 -2.3918 0.9714
6.8410 0.0846 -2.3918 0.9714
6.8382 0.2115 -2.3918 0.9714
6.8309 0.3805 -2.3918 0.9714
6.8284 0.4228 -2.3918 0.9714
6.8257 0.4650 -2.3918 0.9714
6.8227 0.5072 -2.3918 0.9714
6.8194 0.5494 -2.3918 0.9714
6.8080 0.6758 -2.3918 0.9714
6.8037 0.7179 -2.3918 0.9714
6.7892 0.8440 -2.3918 0.9714
6.7783 0.9279 -2.3918 0.9714
6.7599 1.0535 -2.3918 0.9714
6.7533 1.0953 -2.3918 0.9714
6.7318 1.2204 -2.3918 0.9714
6.7241 1.2620 -2.3918 0.9714
6.7162 1.3035 -2.3918 0.9714
6.6995 1.3865 -2.3918 0.9714
6.6573 1.4208 -2.3798 0.9716
6.3503 1.4376 -2.2763 0.9728
6.2295 1.4915 -2.2394 0.9732
6.2202 1.5300 -2.2394 0.9732
6.2106 1.5684 -2.2394 0.9732
6.2008 1.6068 -2.2394 0.9732
6.1907 1.6451 -2.2394 0.9732
6.1804 1.6834 -2.2394 0.9732
6.1699 1.7215 -2.2394 0.9732
6.1591 1.7597 -2.2394 0.9732
6.1481 1.7977 -2.2394 0.9732
6.1137 1.9115 -2.2394 0.9732
6.0896 1.9869 -2.2394 0.9732
6.0772 2.0246 -2.2394 0.9732
6.0646 2.0621 -2.2394 0.9732
6.0517 2.0996 -2.2394 0.9732
6.0253 2.1742 -2.2394 0.9732
6.0117 2.2115 -2.2394 0.9732
5.9979 2.2486 -2.2394 0.9732
5.9405 2.3963 -2.2394 0.9732
5.9255 2.4330 -2.2394 0.9732
5.9104 2.4696 -2.2394 0.9732
5.8794 2.5425 -2.2394 0.9732
5.8475 2.6150 -2.2394 0.9732
5.8312 2.6511 -2.2394 0.9732
5.7980 2.7230 -2.2394 0.9732
5.7638 2.7945 -2.2394 0.9732
5.7465 2.8301 -2.2394 0.9732
5.7110 2.9010 -2.2394 0.9732
5.6930 2.9362 -2.2394 0.9732
5.6562 3.0064 -2.2394 0.9732
5.6375 3.0413 -2.2394 0.9732
5.5995 3.1108 -2.2394 0.9732
5.5801 3.1454 -2.2394 0.9732
5.5606 3.1799 -2.2394 0.9732
5.5208 3.2484 -2.2394 0.9732
5.4177 3.4175 -2.2394 0.9732
5.3750 3.4843 -2.2394 0.9732
5.2233 3.7166 -2.2412 0.9732
5.1769 3.7808 -2.2412 0.9732
