ply
format ascii 1.0
element vertex 1591
property float32 x
property float32 y
property float32 z
property float32 I
end_header
-5.8474 -8.6640 -2.3918 0.9580
-5.7937 -8.7000 -2.3918 0.9580
-5.7398 -8.7357 -2.3918 0.9580
-5.6312 -8.8060 -2.3918 0.9580
-5.4670 -8.9089 -2.3918 0.9580
-5.4118 -8.9426 -2.3918 0.9580
-5.3564 -8.9759 -2.3918 0.9580
-5.0197 -9.1684 -2.3918 0.9580
-4.8487 -9.2600 -2.3918 0.9580
-4.6761 -9.3483 -2.3918 0.9580
-4.6182 -9.3770 -2.3918 0.9580
-4.5601 -9.4054 -2.3918 0.9580
-4.4435 -9.4611 -2.3918 0.9580
-4.3849 -9.4884 -2.3918 0.9580
-4.3261 -9.5154 -2.3918 0.9580
-4.2672 -9.5419 -2.3918 0.9580
-4.2081 -9.5681 -2.3918 0.9580
-4.1488 -9.5939 -2.3918 0.9580
-4.0894 -9.6194 -2.3918 0.9580
-4.0299 -9.6445 -2.3918 0.9580
-3.9701 -9.6693 -2.3918 0.9580
-3.7298 -9.7645 -2.3918 0.9580
-3.6087 -9.8099 -2.3918 0.9580
-3.5480 -9.8320 -2.3918 0.9580
-3.4261 -9.8751 -2.3918 0.9580
-3.3650 -9.8961 -2.3918 0.9580
-3.1808 -9.9569 -2.3918 0.9580
-2.9955 -10.0142 -2.3918 0.9580
-2.8714 -10.0504 -2.3918 0.9580
-2.8092 -10.0680 -2.3918 0.9580
-2.6845 -10.1020 -2.3918 0.9580
-2.4966 -10.1500 -2.3918 0.9580
-2.4338 -10.1653 -2.3918 0.9580
-2.2448 -10.2087 -2.3918 0.9580
-1.9916 -10.2611 -2.3918 0.9580
-1.4177 -10.3560 -2.3918 0.9580
-1.2895 -10.3728 -2.3918 0.9580
-1.0969 -10.3949 -2.3918 0.9580
-1.0326 -10.4015 -2.3918 0.9580
-0.9038 -10.4134 -2.3918 0.9580
-0.7750 -10.4238 -2.3918 0.9580
-0.5815 -10.4364 -2.3918 0.9580
-0.5169 -10.4398 -2.3918 0.9580
-0.4523 -10.4428 -2.3918 0.9580
-0.3232 -10.4476 -2.3918 0.9580
-0.1293 -10.4518 -2.3918 0.9580
0.0000 -10.4526 -2.3918 0.9580
0.1293 -10.4518 -2.3918 0.9580
0.3232 -10.4476 -2.3918 0.9580
0.3878 -10.4454 -2.3918 0.9580
0.4523 -10.4428 -2.3918 0.9580
0.5815 -10.4364 -2.3918 0.9580
0.6460 -10.4326 -2.3918 0.9580
0.9038 -10.4134 -2.3918 0.9580
0.9682 -10.4077 -2.3918 0.9580
1.0326 -10.4014 -2.3918 0.9580
1.0969 -10.3949 -2.3918 0.9580
1.2895 -10.3727 -2.3918 0.9580
1.5457 -10.3377 -2.3918 0.9580
1.6096 -10.3279 -2.3918 0.9580
1.6734 -10.3177 -2.3918 0.9580
1.7372 -10.3072 -2.3918 0.9580
1.8009 -10.2963 -2.3918 0.9580
1.9281 -10.2732 -2.3918 0.9580
2.0550 -10.2486 -2.3918 0.9580
2.1816 -10.2224 -2.3918 0.9580
2.2448 -10.2087 -2.3918 0.9580
2.4966 -10.1500 -2.3918 0.9580
2.5594 -10.1344 -2.3918 0.9580
2.6220 -10.1184 -2.3918 0.9580
2.6845 -10.1020 -2.3918 0.9580
2.7469 -10.0852 -2.3918 0.9580
2.8714 -10.0504 -2.3918 0.9580
2.9335 -10.0325 -2.3918 0.9580
2.9955 -10.0141 -2.3918 0.9580
3.0574 -9.9955 -2.3918 0.9580
3.1808 -9.9569 -2.3918 0.9580
3.3037 -9.9167 -2.3918 0.9580
3.4261 -9.8751 -2.3918 0.9580
3.4871 -9.8538 -2.3918 0.9580
3.5480 -9.8320 -2.3918 0.9580
3.7298 -9.7645 -2.3918 0.9580
3.8502 -9.7176 -2.3918 0.9580
4.1488 -9.5939 -2.3918 0.9580
4.2672 -9.5419 -2.3918 0.9580
4.5019 -9.4335 -2.3918 0.9580
4.5601 -9.4054 -2.3918 0.9580
4.6182 -9.3771 -2.3918 0.9580
4.6761 -9.3483 -2.3918 0.9580
4.7338 -9.3192 -2.3918 0.9580
4.8487 -9.2599 -2.3918 0.9580
4.9629 -9.1993 -2.3918 0.9580
5.1327 -9.1056 -2.3918 0.9580
5.3007 -9.0088 -2.3918 0.9580
5.3564 -8.9759 -2.3918 0.9580
5.4118 -8.9426 -2.3918 0.9580
5.4670 -8.9089 -2.3918 0.9580
5.5767 -8.8406 -2.3918 0.9580
5.6856 -8.7710 -2.3918 0.9580
5.7398 -8.7356 -2.3918 0.9580
5.7942 -8.7000 -2.3918 0.9580
5.9009 -8.6277 -2.3918 0.9580
6.1124 -8.4791 -2.3918 0.9580
6.2168 -8.4028 -2.3918 0.9580
6.2689 -8.3642 -2.3918 0.9580
6.4736 -8.2066 -2.3918 0.9580
6.5747 -8.1259 -2.3918 0.9580
6.8227 -7.9188 -2.3918 0.9580
6.8716 -7.8764 -2.3918 0.9580
6.9202 -7.8338 -2.3918 0.9580
6.9685 -7.7908 -2.3918 0.9580
7.2527 -7.5269 -2.3918 0.9580
7.2991 -7.4819 -2.3918 0.9580
7.4819 -7.2991 -2.3918 0.9580
7.5269 -7.2527 -2.3918 0.9580
7.5716 -7.2061 -2.3918 0.9580
7.6602 -7.1118 -2.3918 0.9580
7.7040 -7.0643 -2.3918 0.9580
7.7475 -7.0166 -2.3918 0.9580
7.8764 -6.8716 -2.3918 0.9580
7.9187 -6.8228 -2.3918 0.9580
8.0025 -6.7243 -2.3918 0.9580
8.0439 -6.6747 -2.3918 0.9580
8.2464 -6.4228 -2.3918 0.9580
8.2860 -6.3717 -2.3918 0.9580
8.3253 -6.3204 -2.3918 0.9580
8.4411 -6.1648 -2.3918 0.9580
8.4790 -6.1125 -2.3918 0.9580
8.5167 -6.0599 -2.3918 0.9580
8.5910 -5.9541 -2.3918 0.9580
8.6276 -5.9009 -2.3918 0.9580
8.6640 -5.8474 -2.3918 0.9580
8.7000 -5.7937 -2.3918 0.9580
8.7356 -5.7398 -2.3918 0.9580
8.8406 -5.5768 -2.3918 0.9580
8.8749 -5.5220 -2.3918 0.9580
8.9089 -5.4670 -2.3918 0.9580
8.9425 -5.4118 -2.3918 0.9580
8.9758 -5.3564 -2.3918 0.9580
9.0414 -5.2450 -2.3918 0.9580
9.0736 -5.1889 -2.3918 0.9580
9.1371 -5.0763 -2.3918 0.9580
9.1684 -5.0197 -2.3918 0.9580
9.1992 -4.9629 -2.3918 0.9580
9.2599 -4.8488 -2.3918 0.9580
9.2897 -4.7914 -2.3918 0.9580
9.3191 -4.7339 -2.3918 0.9580
9.3770 -4.6183 -2.3918 0.9580
9.4611 -4.4435 -2.3918 0.9580
9.5419 -4.2672 -2.3918 0.9580
9.5681 -4.2081 -2.3918 0.9580
9.5939 -4.1489 -2.3918 0.9580
9.6445 -4.0299 -2.3918 0.9580
9.6692 -3.9702 -2.3918 0.9580
9.6936 -3.9103 -2.3918 0.9580
9.7412 -3.7901 -2.3918 0.9580
9.7645 -3.7298 -2.3918 0.9580
9.7873 -3.6693 -2.3918 0.9580
9.8099 -3.6087 -2.3918 0.9580
9.8320 -3.5480 -2.3918 0.9580
9.8751 -3.4261 -2.3918 0.9580
9.8961 -3.3650 -2.3918 0.9580
9.9370 -3.2423 -2.3918 0.9580
10.0141 -2.9956 -2.3918 0.9580
10.0325 -2.9336 -2.3918 0.9580
10.0504 -2.8715 -2.3918 0.9580
10.0680 -2.8093 -2.3918 0.9580
10.1344 -2.5594 -2.3918 0.9580
10.1653 -2.4338 -2.3918 0.9580
10.1801 -2.3710 -2.3918 0.9580
10.2087 -2.2448 -2.3918 0.9580
10.2485 -2.0551 -2.3918 0.9580
10.2732 -1.9282 -2.3918 0.9580
10.2849 -1.8646 -2.3918 0.9580
10.3177 -1.6735 -2.3918 0.9580
10.3279 -1.6096 -2.3918 0.9580
10.3376 -1.5457 -2.3918 0.9580
10.3560 -1.4177 -2.3918 0.9580
10.4014 -1.0326 -2.3918 0.9580
10.4134 -0.9038 -2.3918 0.9580
10.4238 -0.7750 -2.3918 0.9580
10.4326 -0.6460 -2.3918 0.9580
10.4364 -0.5815 -2.3918 0.9580
10.4398 -0.5170 -2.3918 0.9580
10.4494 -0.2586 -2.3918 0.9580
10.4518 -0.1293 -2.3918 0.9580
10.4524 -0.0647 -2.3918 0.9580
10.4524 0.0646 -2.3918 0.9580
10.4518 0.1292 -2.3918 0.9580
10.4494 0.2585 -2.3918 0.9580
10.4476 0.3231 -2.3918 0.9580
10.4454 0.3877 -2.3918 0.9580
10.4398 0.5169 -2.3918 0.9580
10.4364 0.5814 -2.3918 0.9580
10.4284 0.7104 -2.3918 0.9580
10.4134 0.9038 -2.3918 0.9580
10.4076 0.9682 -2.3918 0.9580
10.4014 1.0326 -2.3918 0.9580
10.3948 1.0969 -2.3918 0.9580
10.3805 1.2253 -2.3918 0.9580
10.3727 1.2895 -2.3918 0.9580
10.3646 1.3536 -2.3918 0.9580
10.1515 1.4537 -2.3466 0.9588
9.8022 1.4656 -2.2679 0.9601
9.6698 1.5070 -2.2394 0.9606
9.6603 1.5668 -2.2394 0.9606
9.6402 1.6862 -2.2394 0.9606
9.6073 1.8647 -2.2394 0.9606
9.5835 1.9834 -2.2394 0.9606
9.5450 2.1608 -2.2394 0.9606
9.5315 2.2198 -2.2394 0.9606
9.5176 2.2787 -2.2394 0.9606
9.4886 2.3963 -2.2394 0.9606
9.3585 2.8626 -2.2394 0.9606
9.2849 3.0932 -2.2394 0.9606
9.2259 3.2649 -2.2394 0.9606
9.1848 3.3787 -2.2394 0.9606
9.1637 3.4355 -2.2394 0.9606
9.1423 3.4921 -2.2394 0.9606
9.1205 3.5486 -2.2394 0.9606
9.0156 3.8327 -2.2417 0.9606
8.9427 3.9992 -2.2416 0.9606
8.9178 4.0544 -2.2416 0.9606
8.8408 4.2191 -2.2416 0.9606
8.7878 4.3280 -2.2415 0.9606
8.7609 4.3822 -2.2415 0.9606
8.7335 4.4363 -2.2415 0.9606
8.6779 4.5439 -2.2415 0.9606
8.6209 4.6508 -2.2414 0.9606
8.5626 4.7571 -2.2414 0.9606
8.5329 4.8099 -2.2414 0.9606
8.4726 4.9150 -2.2414 0.9606
8.3798 5.0712 -2.2413 0.9606
8.3482 5.1229 -2.2413 0.9606
8.2516 5.2768 -2.2413 0.9606
8.2187 5.3277 -2.2412 0.9606
8.1183 5.4791 -2.2412 0.9606
8.0842 5.5291 -2.2412 0.9606
8.0498 5.5790 -2.2412 0.9606
7.9801 5.6780 -2.2411 0.9606
7.9447 5.7272 -2.2411 0.9606
7.8732 5.8250 -2.2411 0.9606
7.8004 5.9218 -2.2410 0.9606
7.7265 6.0178 -2.2410 0.9606
7.6891 6.0654 -2.2410 0.9606
7.6513 6.1128 -2.2410 0.9606
7.5750 6.2069 -2.2409 0.9606
7.5365 6.2536 -2.2409 0.9606
7.4976 6.3000 -2.2409 0.9606
7.3793 6.4379 -2.2409 0.9606
7.3393 6.4833 -2.2408 0.9606
7.2584 6.5735 -2.2408 0.9606
7.1764 6.6627 -2.2408 0.9606
7.0934 6.7508 -2.2408 0.9606
7.0515 6.7945 -2.2407 0.9606
7.0093 6.8379 -2.2407 0.9606
6.8810 6.9667 -2.2407 0.9606
6.7943 7.0511 -2.2406 0.9606
6.6621 7.1758 -2.2406 0.9606
6.6176 7.2168 -2.2406 0.9606
6.5728 7.2576 -2.2406 0.9606
6.4824 7.3382 -2.2405 0.9606
6.4369 7.3781 -2.2405 0.9606
6.3911 7.4177 -2.2405 0.9606
6.3450 7.4571 -2.2405 0.9606
6.2988 7.4961 -2.2405 0.9606
6.1585 7.6115 -2.2404 0.9606
6.0638 7.6870 -2.2404 0.9606
5.9682 7.7613 -2.2404 0.9606
5.9200 7.7980 -2.2403 0.9606
5.8716 7.8344 -2.2403 0.9606
5.7742 7.9063 -2.2403 0.9606
5.6264 8.0119 -2.2403 0.9606
5.5767 8.0465 -2.2402 0.9606
5.4767 8.1148 -2.2402 0.9606
5.4264 8.1484 -2.2402 0.9606
5.3759 8.1817 -2.2402 0.9606
4.7714 7.5640 -2.0464 0.9640
4.7245 7.5933 -2.0464 0.9640
4.2748 7.1635 -1.9089 0.9663
4.1085 7.0823 -1.8736 0.9670
3.8616 6.9508 -1.8195 0.9679
3.7042 7.0742 -1.8272 0.9678
3.6492 7.0751 -1.8216 0.9679
3.5269 7.0509 -1.8040 0.9682
3.4821 7.0701 -1.8034 0.9682
3.4322 7.0789 -1.8002 0.9682
3.3130 7.0541 -1.7833 0.9685
3.2603 7.0550 -1.7784 0.9686
3.2079 7.0559 -1.7736 0.9687
3.1146 6.9646 -1.7458 0.9692
2.9987 7.0538 -1.7539 0.9690
2.9567 7.0762 -1.7549 0.9690
2.9146 7.0986 -1.7559 0.9690
2.8725 7.1209 -1.7570 0.9690
2.8303 7.1434 -1.7582 0.9690
2.7034 7.2109 -1.7622 0.9689
2.6075 7.2258 -1.7578 0.9690
2.4717 7.5751 -1.8233 0.9678
2.3641 7.7288 -1.8494 0.9674
2.3275 7.7810 -1.8584 0.9672
2.2906 7.8337 -1.8676 0.9671
2.2137 7.9336 -1.8848 0.9668
2.0981 7.8952 -1.8693 0.9670
2.0733 8.2097 -1.9376 0.9659
2.0537 8.3492 -1.9675 0.9653
2.0240 8.4535 -1.9891 0.9650
1.9690 8.4544 -1.9864 0.9650
1.9141 8.4552 -1.9837 0.9651
1.3225 6.0141 -1.4091 0.9750
1.2853 6.0222 -1.4091 0.9750
1.1734 6.0453 -1.4091 0.9750
1.0985 6.0595 -1.4092 0.9750
1.0610 6.0662 -1.4092 0.9750
1.0955 6.7544 -1.5658 0.9723
1.0541 7.0496 -1.6311 0.9712
0.9654 7.0515 -1.6286 0.9712
0.8769 7.0535 -1.6264 0.9713
0.4196 3.9769 -0.9151 0.9837
0.3950 3.9794 -0.9151 0.9837
0.3211 3.9860 -0.9151 0.9837
0.2965 3.9879 -0.9151 0.9837
0.2718 3.9897 -0.9151 0.9837
0.2471 3.9913 -0.9151 0.9837
0.1978 3.9941 -0.9151 0.9837
0.0989 3.9977 -0.9151 0.9837
0.0495 3.9987 -0.9151 0.9837
0.0000 3.9990 -0.9151 0.9837
-0.0742 3.9983 -0.9151 0.9837
-0.1904 6.1554 -1.4092 0.9750
-0.2284 6.1541 -1.4092 0.9750
-0.3426 6.1486 -1.4092 0.9750
-0.3806 6.1464 -1.4092 0.9750
-0.4566 6.1412 -1.4091 0.9750
-0.5704 6.1318 -1.4092 0.9750
-0.4175 3.9570 -0.9105 0.9838
-0.4995 3.8247 -0.8826 0.9843
-0.5218 3.8115 -0.8803 0.9843
-0.5688 3.8041 -0.8802 0.9843
-0.6433 3.8170 -0.8857 0.9842
-0.7015 3.8695 -0.8999 0.9840
-1.3313 7.0935 -1.6515 0.9708
-1.3769 7.0941 -1.6536 0.9708
-1.4226 7.0947 -1.6558 0.9707
-1.4685 7.0953 -1.6580 0.9707
-1.5144 7.0959 -1.6603 0.9707
-1.5605 7.0965 -1.6627 0.9706
-1.6067 7.0972 -1.6651 0.9706
-1.6530 7.0978 -1.6676 0.9705
-1.6995 7.0984 -1.6702 0.9705
-1.8399 7.1003 -1.6784 0.9704
-1.9203 7.0503 -1.6721 0.9705
-1.9229 6.8914 -1.6372 0.9711
-1.9275 6.5920 -1.5716 0.9722
-1.9297 6.4510 -1.5408 0.9727
-1.8972 6.0680 -1.4548 0.9742
-1.8992 5.9449 -1.4281 0.9747
-1.9319 5.9208 -1.4251 0.9748
-1.9727 5.9213 -1.4282 0.9747
-1.5665 4.3409 -1.0560 0.9812
-1.6001 4.2681 -1.0430 0.9815
-1.6182 4.1590 -1.0212 0.9819
-1.6194 4.0873 -1.0060 0.9821
-1.6206 4.0176 -0.9913 0.9824
-1.6218 3.9499 -0.9771 0.9826
-1.6230 3.8842 -0.9633 0.9829
-1.6241 3.8203 -0.9499 0.9831
-1.6252 3.7581 -0.9369 0.9833
-1.6262 3.6976 -0.9243 0.9836
-1.6292 3.5255 -0.8887 0.9842
-1.6302 3.4710 -0.8775 0.9844
-1.5843 3.3198 -0.8417 0.9850
-1.6084 3.1184 -0.8029 0.9857
-1.6456 3.1426 -0.8117 0.9855
-1.6548 3.1132 -0.8068 0.9856
-4.0640 7.2098 -1.8938 0.9666
-4.1236 7.2108 -1.9008 0.9665
-4.1836 7.2119 -1.9078 0.9664
-2.6621 4.5243 -1.2012 0.9787
-2.6632 4.4628 -1.1892 0.9789
-2.7393 4.4639 -1.1984 0.9787
-2.7663 4.4460 -1.1982 0.9787
-2.8704 4.4886 -1.2192 0.9784
-3.1138 4.4928 -1.2508 0.9778
-3.1556 4.4935 -1.2565 0.9777
-3.1978 4.4943 -1.2622 0.9776
-3.2404 4.4950 -1.2680 0.9775
-3.3706 4.4973 -1.2860 0.9772
-3.4148 4.4981 -1.2923 0.9771
-3.4594 4.4988 -1.2986 0.9770
-3.5501 4.5004 -1.3117 0.9768
-3.6426 4.5020 -1.3252 0.9765
-3.7693 4.4858 -1.3407 0.9762
-3.7906 4.4550 -1.3385 0.9763
-3.9822 4.5080 -1.3764 0.9756
-4.0329 4.5088 -1.3842 0.9755
-4.4608 4.5163 -1.4526 0.9743
-4.5173 4.5173 -1.4618 0.9741
-4.7508 4.5214 -1.5007 0.9734
-4.9720 4.5029 -1.5350 0.9729
-4.9236 4.2955 -1.4951 0.9735
-4.9245 4.2429 -1.4874 0.9737
-4.9272 4.0884 -1.4651 0.9741
-4.9289 3.9880 -1.4508 0.9743
-4.9298 3.9385 -1.4439 0.9744
-4.8893 3.7118 -1.4047 0.9751
-4.8901 3.6650 -1.3984 0.9752
-4.8909 3.6186 -1.3922 0.9753
-7.9394 5.7234 -2.2396 0.9606
-7.9746 5.6741 -2.2396 0.9606
-8.0785 5.5252 -2.2396 0.9606
-8.1795 5.3744 -2.2396 0.9606
-8.2126 5.3237 -2.2396 0.9606
-8.3099 5.1703 -2.2395 0.9606
-8.3416 5.1188 -2.2395 0.9606
-8.4351 4.9632 -2.2395 0.9606
-8.4656 4.9109 -2.2395 0.9606
-8.5552 4.7529 -2.2395 0.9606
-8.5844 4.6999 -2.2395 0.9606
-8.6133 4.6468 -2.2395 0.9606
-8.6701 4.5398 -2.2395 0.9606
-8.6979 4.4861 -2.2395 0.9606
-8.7796 4.3239 -2.2394 0.9606
-8.8324 4.2150 -2.2394 0.9606
-8.8838 4.1054 -2.2394 0.9606
-8.9584 3.9399 -2.2394 0.9606
-8.9826 3.8844 -2.2394 0.9606
-9.0065 3.8288 -2.2394 0.9606
-9.0531 3.7172 -2.2394 0.9606
-9.0760 3.6611 -2.2394 0.9606
-9.1205 3.5486 -2.2394 0.9606
-9.1423 3.4921 -2.2394 0.9606
-9.1848 3.3787 -2.2394 0.9606
-9.2055 3.3219 -2.2394 0.9606
-9.2459 3.2078 -2.2394 0.9606
-9.2656 3.1505 -2.2394 0.9606
-9.3038 3.0357 -2.2394 0.9606
-4.8550 1.3546 -1.1534 0.9795
-4.8639 1.2925 -1.1516 0.9796
-4.8682 1.2615 -1.1508 0.9796
-4.8764 1.1995 -1.1491 0.9796
-4.8842 1.1375 -1.1476 0.9796
-4.8880 1.1066 -1.1468 0.9796
-4.8917 1.0756 -1.1461 0.9797
-4.9052 0.9521 -1.1434 0.9797
-4.9083 0.9212 -1.1428 0.9797
-4.9171 0.8287 -1.1410 0.9797
-4.9198 0.7979 -1.1405 0.9798
-5.0463 0.7865 -1.1687 0.9793
-5.2599 0.7865 -1.2170 0.9784
-5.6486 0.8089 -1.3057 0.9769
-5.6461 0.7019 -1.3019 0.9769
-5.6453 0.6664 -1.3008 0.9769
-5.6439 0.5955 -1.2986 0.9770
-5.6426 0.5249 -1.2968 0.9770
-5.6402 0.3492 -1.2931 0.9771
-5.6398 0.3142 -1.2925 0.9771
-5.6392 0.2443 -1.2916 0.9771
-5.6389 0.2093 -1.2912 0.9771
-5.6387 0.1744 -1.2909 0.9771
-5.6385 0.1395 -1.2906 0.9771
-5.6383 0.0349 -1.2902 0.9771
-5.6733 -0.0702 -1.3427 0.9769
-5.6736 -0.1404 -1.3431 0.9769
-5.6738 -0.1755 -1.3434 0.9769
-5.6740 -0.2106 -1.3437 0.9769
-5.6746 -0.2810 -1.3445 0.9769
-5.6749 -0.3162 -1.3451 0.9769
-5.6753 -0.3514 -1.3456 0.9769
-5.6757 -0.3867 -1.3463 0.9769
-5.6762 -0.4220 -1.3470 0.9769
-5.6773 -0.4928 -1.3486 0.9768
-5.6785 -0.5637 -1.3504 0.9768
-5.6832 -0.7780 -1.3575 0.9767
-5.6841 -0.8140 -1.3589 0.9767
-4.8491 -0.7865 -1.1626 0.9800
-4.8282 -0.8138 -1.1587 0.9801
-4.8253 -0.8440 -1.1593 0.9801
-4.8224 -0.8743 -1.1598 0.9801
-4.8131 -0.9651 -1.1617 0.9800
-4.8063 -1.0258 -1.1631 0.9800
-4.8028 -1.0561 -1.1638 0.9800
-4.7916 -1.1472 -1.1660 0.9800
-4.7762 -1.2692 -1.1695 0.9799
-4.7741 -1.3003 -1.1710 0.9799
-4.7719 -1.3315 -1.1724 0.9798
-4.7674 -1.3940 -1.1755 0.9798
-4.7650 -1.4254 -1.1770 0.9798
-4.7626 -1.4568 -1.1786 0.9797
-4.7602 -1.4883 -1.1803 0.9797
-9.6275 -3.0756 -2.3918 0.9593
-9.6083 -3.1351 -2.3918 0.9593
-9.5485 -3.3129 -2.3918 0.9593
-9.5278 -3.3718 -2.3918 0.9593
-9.5068 -3.4307 -2.3918 0.9593
-9.4854 -3.4894 -2.3918 0.9593
-9.4636 -3.5480 -2.3918 0.9593
-9.4415 -3.6064 -2.3918 0.9593
-9.4190 -3.6647 -2.3918 0.9593
-9.3962 -3.7229 -2.3918 0.9593
-9.3255 -3.8966 -2.3918 0.9593
-9.3012 -3.9542 -2.3918 0.9593
-9.2766 -4.0116 -2.3918 0.9593
-9.2263 -4.1261 -2.3918 0.9593
-9.2006 -4.1831 -2.3918 0.9593
-9.0943 -4.4094 -2.3918 0.9593
-9.0669 -4.4655 -2.3918 0.9593
-9.0391 -4.5215 -2.3918 0.9593
-8.9825 -4.6329 -2.3918 0.9593
-8.8950 -4.7988 -2.3918 0.9593
-8.8651 -4.8537 -2.3918 0.9593
-8.8349 -4.9085 -2.3918 0.9593
-8.7424 -5.0715 -2.3918 0.9593
-8.7108 -5.1255 -2.3918 0.9593
-8.6790 -5.1792 -2.3918 0.9593
-8.6143 -5.2862 -2.3918 0.9593
-8.5147 -5.4451 -2.3918 0.9593
-8.4809 -5.4976 -2.3918 0.9593
-8.3774 -5.6540 -2.3918 0.9593
-8.3423 -5.7057 -2.3918 0.9593
-8.1619 -5.9609 -2.3918 0.9593
-8.0499 -6.1113 -2.3918 0.9593
-7.9737 -6.2104 -2.3918 0.9593
-7.8963 -6.3085 -2.3918 0.9593
-7.8571 -6.3572 -2.3918 0.9593
-7.8177 -6.4057 -2.3918 0.9593
-7.6975 -6.5497 -2.3918 0.9593
-7.5746 -6.6913 -2.3918 0.9593
-7.5331 -6.7380 -2.3918 0.9593
-7.4913 -6.7845 -2.3918 0.9593
-7.3212 -6.9677 -2.3918 0.9593
-7.2780 -7.0128 -2.3918 0.9593
-7.2345 -7.0577 -2.3918 0.9593
-7.1466 -7.1467 -2.3918 0.9593
-7.1023 -7.1907 -2.3918 0.9593
-7.0128 -7.2780 -2.3918 0.9593
-6.9677 -7.3213 -2.3918 0.9593
-6.9223 -7.3642 -2.3918 0.9593
-6.8766 -7.4068 -2.3918 0.9593
-6.7845 -7.4913 -2.3918 0.9593
-6.6913 -7.5747 -2.3918 0.9593
-6.5496 -7.6975 -2.3918 0.9593
-6.5019 -7.7379 -2.3918 0.9593
-6.4539 -7.7779 -2.3918 0.9593
-6.3572 -7.8571 -2.3918 0.9593
-6.3085 -7.8963 -2.3918 0.9593
-6.1113 -8.0499 -2.3918 0.9593
-6.0112 -8.1250 -2.3918 0.9593
-5.9609 -8.1619 -2.3918 0.9593
-5.7572 -8.3069 -2.3918 0.9593
-5.6021 -8.4123 -2.3918 0.9593
-5.5502 -8.4468 -2.3918 0.9593
-5.4452 -8.5147 -2.3918 0.9593
-5.3393 -8.5814 -2.3918 0.9593
-5.2862 -8.6143 -2.3918 0.9593
-5.2328 -8.6468 -2.3918 0.9593
-5.1792 -8.6790 -2.3918 0.9593
-5.1254 -8.7108 -2.3918 0.9593
-5.0715 -8.7424 -2.3918 0.9593
-5.0173 -8.7736 -2.3918 0.9593
-4.9629 -8.8045 -2.3918 0.9593
-4.9084 -8.8350 -2.3918 0.9593
-4.7987 -8.8950 -2.3918 0.9593
-4.7437 -8.9245 -2.3918 0.9593
-4.5215 -9.0391 -2.3918 0.9593
-4.4093 -9.0944 -2.3918 0.9593
-4.3530 -9.1214 -2.3918 0.9593
-4.2965 -9.1482 -2.3918 0.9593
-4.0689 -9.2517 -2.3918 0.9593
-4.0116 -9.2766 -2.3918 0.9593
-3.9542 -9.3013 -2.3918 0.9593
-3.8966 -9.3256 -2.3918 0.9593
-3.8388 -9.3495 -2.3918 0.9593
-3.6647 -9.4191 -2.3918 0.9593
-3.6064 -9.4416 -2.3918 0.9593
-3.5480 -9.4637 -2.3918 0.9593
-3.4894 -9.4854 -2.3918 0.9593
-3.3718 -9.5279 -2.3918 0.9593
-3.3128 -9.5486 -2.3918 0.9593
-3.2537 -9.5689 -2.3918 0.9593
-3.1351 -9.6084 -2.3918 0.9593
-3.0160 -9.6464 -2.3918 0.9593
-2.9563 -9.6648 -2.3918 0.9593
-2.8965 -9.6830 -2.3918 0.9593
-2.8365 -9.7007 -2.3918 0.9593
-2.7765 -9.7180 -2.3918 0.9593
-2.7163 -9.7350 -2.3918 0.9593
-2.6561 -9.7517 -2.3918 0.9593
-2.5957 -9.7679 -2.3918 0.9593
-2.5353 -9.7837 -2.3918 0.9593
-2.4747 -9.7992 -2.3918 0.9593
-2.3533 -9.8291 -2.3918 0.9593
-2.2925 -9.8435 -2.3918 0.9593
-2.2316 -9.8575 -2.3918 0.9593
-2.1706 -9.8711 -2.3918 0.9593
-2.1095 -9.8843 -2.3918 0.9593
-2.0483 -9.8971 -2.3918 0.9593
-1.9871 -9.9096 -2.3918 0.9593
-1.8644 -9.9335 -2.3918 0.9593
-1.8029 -9.9448 -2.3918 0.9593
-1.6181 -9.9765 -2.3918 0.9593
-1.3708 -10.0135 -2.3918 0.9593
-1.2469 -10.0297 -2.3918 0.9593
-1.1848 -10.0372 -2.3918 0.9593
-1.1227 -10.0443 -2.3918 0.9593
-1.0606 -10.0511 -2.3918 0.9593
-0.9362 -10.0634 -2.3918 0.9593
-0.7494 -10.0791 -2.3918 0.9593
-0.6870 -10.0835 -2.3918 0.9593
-0.6246 -10.0876 -2.3918 0.9593
-0.4998 -10.0945 -2.3918 0.9593
-0.4374 -10.0974 -2.3918 0.9593
-0.3125 -10.1021 -2.3918 0.9593
-0.2500 -10.1038 -2.3918 0.9593
-0.1875 -10.1052 -2.3918 0.9593
-0.1250 -10.1061 -2.3918 0.9593
0.0000 -10.1069 -2.3918 0.9593
0.1250 -10.1062 -2.3918 0.9593
0.1875 -10.1052 -2.3918 0.9593
0.2500 -10.1038 -2.3918 0.9593
0.3125 -10.1021 -2.3918 0.9593
0.4374 -10.0974 -2.3918 0.9593
0.5622 -10.0912 -2.3918 0.9593
0.6246 -10.0876 -2.3918 0.9593
0.6870 -10.0835 -2.3918 0.9593
0.7493 -10.0791 -2.3918 0.9593
0.8117 -10.0743 -2.3918 0.9593
0.8740 -10.0690 -2.3918 0.9593
0.9362 -10.0634 -2.3918 0.9593
1.1227 -10.0444 -2.3918 0.9593
1.1848 -10.0372 -2.3918 0.9593
1.2469 -10.0297 -2.3918 0.9593
1.6798 -9.9663 -2.3918 0.9593
1.7414 -9.9557 -2.3918 0.9593
1.8029 -9.9448 -2.3918 0.9593
1.8644 -9.9335 -2.3918 0.9593
1.9258 -9.9217 -2.3918 0.9593
2.1706 -9.8711 -2.3918 0.9593
2.2925 -9.8435 -2.3918 0.9593
2.4141 -9.8143 -2.3918 0.9593
2.4747 -9.7993 -2.3918 0.9593
2.7163 -9.7350 -2.3918 0.9593
2.7765 -9.7181 -2.3918 0.9593
2.8365 -9.7007 -2.3918 0.9593
3.0756 -9.6276 -2.3918 0.9593
3.1944 -9.5888 -2.3918 0.9593
3.2537 -9.5689 -2.3918 0.9593
3.3128 -9.5486 -2.3918 0.9593
3.4306 -9.5069 -2.3918 0.9593
3.6064 -9.4416 -2.3918 0.9593
3.6647 -9.4191 -2.3918 0.9593
3.7229 -9.3962 -2.3918 0.9593
3.7809 -9.3730 -2.3918 0.9593
3.8388 -9.3495 -2.3918 0.9593
3.8966 -9.3255 -2.3918 0.9593
4.2965 -9.1482 -2.3918 0.9593
4.3530 -9.1214 -2.3918 0.9593
4.4655 -9.0669 -2.3918 0.9593
4.5215 -9.0391 -2.3918 0.9593
4.5773 -9.0110 -2.3918 0.9593
4.6884 -8.9537 -2.3918 0.9593
5.0715 -8.7424 -2.3918 0.9593
5.1792 -8.6790 -2.3918 0.9593
5.2328 -8.6468 -2.3918 0.9593
5.3925 -8.5482 -2.3918 0.9593
5.4451 -8.5147 -2.3918 0.9593
5.5500 -8.4467 -2.3918 0.9593
5.6537 -8.3775 -2.3918 0.9593
5.7057 -8.3423 -2.3918 0.9593
5.7572 -8.3069 -2.3918 0.9593
5.9103 -8.1987 -2.3918 0.9593
5.9609 -8.1619 -2.3918 0.9593
6.0112 -8.1249 -2.3918 0.9593
6.0614 -8.0876 -2.3918 0.9593
6.2104 -7.9737 -2.3918 0.9593
6.2595 -7.9352 -2.3918 0.9593
6.4057 -7.8177 -2.3918 0.9593
6.5019 -7.7379 -2.3918 0.9593
6.5971 -7.6569 -2.3918 0.9593
6.6443 -7.6159 -2.3918 0.9593
6.7380 -7.5331 -2.3918 0.9593
6.7845 -7.4913 -2.3918 0.9593
6.8307 -7.4492 -2.3918 0.9593
6.8766 -7.4069 -2.3918 0.9593
7.1023 -7.1907 -2.3918 0.9593
7.2345 -7.0577 -2.3918 0.9593
7.3642 -6.9223 -2.3918 0.9593
7.4913 -6.7845 -2.3918 0.9593
7.5331 -6.7380 -2.3918 0.9593
7.5746 -6.6913 -2.3918 0.9593
7.6568 -6.5971 -2.3918 0.9593
7.7378 -6.5019 -2.3918 0.9593
7.8177 -6.4057 -2.3918 0.9593
7.8963 -6.3085 -2.3918 0.9593
8.0120 -6.1610 -2.3918 0.9593
8.0499 -6.1113 -2.3918 0.9593
8.1249 -6.0113 -2.3918 0.9593
8.1619 -5.9609 -2.3918 0.9593
8.2711 -5.8085 -2.3918 0.9593
8.3423 -5.7057 -2.3918 0.9593
8.4809 -5.4976 -2.3918 0.9593
8.5147 -5.4451 -2.3918 0.9593
8.5814 -5.3394 -2.3918 0.9593
8.6468 -5.2328 -2.3918 0.9593
8.6790 -5.1792 -2.3918 0.9593
8.7424 -5.0715 -2.3918 0.9593
8.8044 -4.9630 -2.3918 0.9593
8.8349 -4.9084 -2.3918 0.9593
8.8651 -4.8537 -2.3918 0.9593
8.9245 -4.7437 -2.3918 0.9593
8.9536 -4.6884 -2.3918 0.9593
8.9824 -4.6329 -2.3918 0.9593
9.0391 -4.5215 -2.3918 0.9593
9.0669 -4.4655 -2.3918 0.9593
9.0943 -4.4094 -2.3918 0.9593
9.1481 -4.2965 -2.3918 0.9593
9.1745 -4.2399 -2.3918 0.9593
9.2006 -4.1830 -2.3918 0.9593
9.2263 -4.1261 -2.3918 0.9593
9.2516 -4.0689 -2.3918 0.9593
9.2766 -4.0116 -2.3918 0.9593
9.3012 -3.9542 -2.3918 0.9593
9.3962 -3.7229 -2.3918 0.9593
9.4415 -3.6064 -2.3918 0.9593
9.4854 -3.4894 -2.3918 0.9593
9.5485 -3.3128 -2.3918 0.9593
9.6083 -3.1351 -2.3918 0.9593
9.6464 -3.0160 -2.3918 0.9593
9.6648 -2.9563 -2.3918 0.9593
9.7180 -2.7765 -2.3918 0.9593
9.7837 -2.5353 -2.3918 0.9593
9.7992 -2.4748 -2.3918 0.9593
9.8143 -2.4141 -2.3918 0.9593
9.8291 -2.3534 -2.3918 0.9593
9.8434 -2.2925 -2.3918 0.9593
9.8574 -2.2316 -2.3918 0.9593
9.8843 -2.1095 -2.3918 0.9593
9.8971 -2.0484 -2.3918 0.9593
9.9448 -1.8029 -2.3918 0.9593
9.9663 -1.6798 -2.3918 0.9593
9.9863 -1.5564 -2.3918 0.9593
9.9957 -1.4946 -2.3918 0.9593
10.0048 -1.4328 -2.3918 0.9593
10.0296 -1.2469 -2.3918 0.9593
10.0372 -1.1849 -2.3918 0.9593
10.0443 -1.1228 -2.3918 0.9593
10.0511 -1.0606 -2.3918 0.9593
10.0574 -0.9985 -2.3918 0.9593
10.0634 -0.9362 -2.3918 0.9593
10.0742 -0.8117 -2.3918 0.9593
10.0875 -0.6246 -2.3918 0.9593
10.0974 -0.4374 -2.3918 0.9593
10.0999 -0.3749 -2.3918 0.9593
10.1061 -0.1250 -2.3918 0.9593
10.1067 -0.0625 -2.3918 0.9593
10.1069 -0.0000 -2.3918 0.9593
10.1067 0.0625 -2.3918 0.9593
10.1061 0.1250 -2.3918 0.9593
10.1051 0.1875 -2.3918 0.9593
10.0999 0.3749 -2.3918 0.9593
10.0974 0.4374 -2.3918 0.9593
10.0945 0.4998 -2.3918 0.9593
10.0912 0.5622 -2.3918 0.9593
10.0875 0.6246 -2.3918 0.9593
10.0835 0.6870 -2.3918 0.9593
10.0790 0.7493 -2.3918 0.9593
10.0742 0.8117 -2.3918 0.9593
10.0634 0.9362 -2.3918 0.9593
10.0443 1.1227 -2.3918 0.9593
10.0297 1.2469 -2.3918 0.9593
10.0135 1.3708 -2.3918 0.9593
10.0048 1.4327 -2.3918 0.9593
9.7251 1.4541 -2.3271 0.9604
9.3408 1.5149 -2.2394 0.9618
9.3214 1.6304 -2.2394 0.9618
9.3111 1.6880 -2.2394 0.9618
9.3005 1.7455 -2.2394 0.9618
9.2895 1.8030 -2.2394 0.9618
9.2782 1.8604 -2.2394 0.9618
9.2421 2.0322 -2.2394 0.9618
9.2293 2.0894 -2.2394 0.9618
9.1603 2.3737 -2.2394 0.9618
9.0826 2.6557 -2.2394 0.9618
9.0660 2.7119 -2.2394 0.9618
8.9591 3.0463 -2.2394 0.9618
8.8810 3.2670 -2.2394 0.9618
8.8399 3.3766 -2.2394 0.9618
8.7758 3.5400 -2.2394 0.9618
8.7537 3.5942 -2.2394 0.9618
8.7174 3.7059 -2.2417 0.9618
8.6469 3.8669 -2.2416 0.9618
8.6228 3.9203 -2.2416 0.9618
8.5735 4.0266 -2.2416 0.9618
8.4972 4.1849 -2.2415 0.9618
8.4711 4.2373 -2.2415 0.9618
8.4446 4.2896 -2.2415 0.9618
8.4179 4.3417 -2.2415 0.9618
8.3357 4.4970 -2.2414 0.9618
8.3077 4.5485 -2.2414 0.9618
8.2217 4.7017 -2.2414 0.9618
8.1924 4.7524 -2.2414 0.9618
8.1027 4.9035 -2.2413 0.9618
8.0413 5.0032 -2.2413 0.9618
8.0101 5.0529 -2.2413 0.9618
7.9787 5.1022 -2.2413 0.9618
7.9469 5.1515 -2.2412 0.9618
7.9149 5.2005 -2.2412 0.9618
7.8825 5.2493 -2.2412 0.9618
7.8498 5.2979 -2.2412 0.9618
7.7836 5.3945 -2.2412 0.9618
7.7500 5.4425 -2.2411 0.9618
7.7162 5.4903 -2.2411 0.9618
7.6476 5.5852 -2.2411 0.9618
7.4710 5.8188 -2.2410 0.9618
7.4348 5.8648 -2.2410 0.9618
7.3246 6.0016 -2.2410 0.9618
7.2497 6.0917 -2.2409 0.9618
7.2118 6.1363 -2.2409 0.9618
7.1737 6.1808 -2.2409 0.9618
7.0576 6.3127 -2.2408 0.9618
6.9789 6.3994 -2.2408 0.9618
6.8991 6.4851 -2.2408 0.9618
6.8589 6.5276 -2.2408 0.9618
6.7364 6.6536 -2.2407 0.9618
6.6951 6.6951 -2.2407 0.9618
6.6535 6.7363 -2.2407 0.9618
6.5696 6.8180 -2.2407 0.9618
6.5273 6.8585 -2.2406 0.9618
6.3988 6.9782 -2.2406 0.9618
6.3119 7.0567 -2.2406 0.9618
6.1798 7.1725 -2.2405 0.9618
6.0905 7.2482 -2.2405 0.9618
6.0003 7.3229 -2.2405 0.9618
5.9549 7.3599 -2.2405 0.9618
5.8633 7.4328 -2.2404 0.9618
5.7709 7.5047 -2.2404 0.9618
5.7243 7.5402 -2.2404 0.9618
5.6306 7.6103 -2.2403 0.9618
5.5833 7.6449 -2.2403 0.9618
5.4883 7.7133 -2.2403 0.9618
5.2470 7.8791 -2.2402 0.9618
4.5683 7.3422 -2.0464 0.9651
4.3604 7.2052 -1.9931 0.9660
4.2748 7.1635 -1.9742 0.9663
4.1909 7.1225 -1.9557 0.9666
4.1085 7.0823 -1.9377 0.9669
4.0276 7.0429 -1.9200 0.9672
3.9202 6.9546 -1.8893 0.9677
3.8616 6.9508 -1.8817 0.9678
3.8154 7.0722 -1.9017 0.9675
3.7596 7.0732 -1.8957 0.9676
3.7042 7.0742 -1.8897 0.9677
3.6492 7.0751 -1.8839 0.9678
3.5944 7.0761 -1.8782 0.9679
3.3255 7.0808 -1.8513 0.9684
3.2201 7.0826 -1.8412 0.9685
3.1146 6.9646 -1.8055 0.9691
3.0668 6.9731 -1.8027 0.9692
2.9987 7.0538 -1.8139 0.9690
2.9146 7.0986 -1.8160 0.9689
2.8725 7.1209 -1.8171 0.9689
2.7881 7.1658 -1.8197 0.9689
2.5268 7.2830 -1.8243 0.9688
2.3853 7.6292 -1.8917 0.9677
2.3275 7.7810 -1.9220 0.9672
2.2137 7.9336 -1.9492 0.9667
2.1528 7.9039 -1.9386 0.9669
2.0981 7.8952 -1.9333 0.9670
2.0640 7.9651 -1.9472 0.9667
2.0537 8.3492 -2.0348 0.9653
2.0240 8.4535 -2.0571 0.9649
1.3272 5.8627 -1.4225 0.9756
1.2894 5.8635 -1.4208 0.9756
1.2516 5.8644 -1.4191 0.9757
1.2139 5.8652 -1.4174 0.9757
1.1763 5.8661 -1.4159 0.9757
1.1013 5.8677 -1.4129 0.9758
1.0639 5.8686 -1.4115 0.9758
1.0463 6.2079 -1.4898 0.9745
1.0541 7.0496 -1.6869 0.9711
0.9654 7.0515 -1.6843 0.9712
0.8769 7.0535 -1.6821 0.9712
0.8327 7.0544 -1.6810 0.9712
0.4295 3.8428 -0.9151 0.9842
0.4058 3.8454 -0.9151 0.9842
0.3344 3.8522 -0.9151 0.9842
0.3105 3.8542 -0.9151 0.9842
0.2867 3.8561 -0.9151 0.9842
0.2628 3.8578 -0.9151 0.9842
0.1912 3.8620 -0.9151 0.9842
0.1673 3.8631 -0.9151 0.9842
0.1434 3.8640 -0.9151 0.9842
0.0717 3.8660 -0.9151 0.9842
0.0478 3.8664 -0.9151 0.9842
0.0239 3.8666 -0.9151 0.9842
-0.0478 3.8664 -0.9151 0.9842
-0.1841 5.9517 -1.4092 0.9758
-0.2945 5.9470 -1.4091 0.9758
-0.3680 5.9427 -1.4091 0.9758
-0.4782 5.9348 -1.4090 0.9758
-0.5882 5.9252 -1.4091 0.9758
-0.5218 3.8113 -0.9104 0.9843
-0.7014 3.8690 -0.9305 0.9840
-1.3313 7.0935 -1.7080 0.9708
-1.4638 7.0730 -1.7093 0.9707
-1.5949 7.0449 -1.7094 0.9707
-1.6819 7.0247 -1.7094 0.9707
-1.7253 7.0143 -1.7094 0.9707
-1.7687 7.0035 -1.7094 0.9707
-1.8120 6.9925 -1.7095 0.9707
-1.9297 6.4511 -1.5935 0.9727
-1.9317 6.3151 -1.5628 0.9732
-1.9338 6.1850 -1.5336 0.9737
-1.8992 5.9450 -1.4770 0.9747
-1.6001 4.2681 -1.0787 0.9814
-1.6218 3.9499 -1.0105 0.9826
-1.6241 3.8203 -0.9824 0.9831
-1.6252 3.7581 -0.9690 0.9833
-1.6262 3.6976 -0.9559 0.9835
-1.6273 3.6387 -0.9433 0.9837
-1.6283 3.5814 -0.9310 0.9840
-1.6292 3.5255 -0.9191 0.9842
-1.6302 3.4710 -0.9075 0.9844
-1.5843 3.3198 -0.8705 0.9850
-1.5970 3.2939 -0.8663 0.9851
-1.5909 3.2302 -0.8521 0.9853
-1.5917 3.1821 -0.8420 0.9855
-1.6475 3.1464 -0.8405 0.9855
-1.6952 3.1423 -0.8449 0.9854
-1.7083 3.1202 -0.8418 0.9855
-3.9375 7.0873 -1.9187 0.9672
-4.1236 7.2108 -1.9658 0.9664
-4.1836 7.2119 -1.9731 0.9663
-2.6621 4.5243 -1.2423 0.9787
-2.6843 4.4356 -1.2270 0.9789
-2.8704 4.4886 -1.2609 0.9783
-2.9101 4.4893 -1.2661 0.9782
-2.9501 4.4899 -1.2714 0.9782
-3.0313 4.4914 -1.2823 0.9780
-3.1978 4.4943 -1.3053 0.9776
-3.2404 4.4950 -1.3114 0.9775
-3.2834 4.4958 -1.3175 0.9774
-3.3268 4.4965 -1.3237 0.9773
-3.5045 4.4996 -1.3497 0.9768
-3.5961 4.5012 -1.3634 0.9766
-3.6426 4.5020 -1.3705 0.9765
-3.7370 4.5037 -1.3850 0.9762
-3.7693 4.4858 -1.3866 0.9762
-3.8881 4.4567 -1.3996 0.9760
-3.9723 4.4967 -1.4199 0.9756
-4.0842 4.5097 -1.4399 0.9753
-4.1361 4.5106 -1.4483 0.9752
-4.2417 4.5125 -1.4656 0.9749
-4.3499 4.5144 -1.4836 0.9746
-4.4050 4.5154 -1.4928 0.9744
-4.5745 4.5183 -1.5216 0.9739
-4.8791 4.4739 -1.5666 0.9732
-4.9226 4.3486 -1.5544 0.9734
-4.9263 4.1394 -1.5228 0.9739
-4.9272 4.0884 -1.5152 0.9740
-4.9289 3.9880 -1.5004 0.9743
-4.9307 3.8895 -1.4862 0.9745
-4.9179 3.7817 -1.4681 0.9748
-4.9932 3.6467 -1.4632 0.9749
-7.7446 5.4387 -2.2396 0.9618
-7.7781 5.3907 -2.2396 0.9618
-7.8113 5.3425 -2.2396 0.9618
-7.9409 5.1476 -2.2396 0.9618
-8.0040 5.0489 -2.2395 0.9618
-8.0350 4.9993 -2.2395 0.9618
-8.0658 4.9495 -2.2395 0.9618
-8.0962 4.8995 -2.2395 0.9618
-8.2148 4.6977 -2.2395 0.9618
-8.2437 4.6468 -2.2395 0.9618
-8.2723 4.5958 -2.2395 0.9618
-8.4103 4.3378 -2.2395 0.9618
-8.4369 4.2857 -2.2395 0.9618
-8.5900 3.9697 -2.2394 0.9618
-8.6143 3.9164 -2.2394 0.9618
-8.6622 3.8096 -2.2394 0.9618
-8.6855 3.7560 -2.2394 0.9618
-8.7086 3.7022 -2.2394 0.9618
-8.7313 3.6483 -2.2394 0.9618
-8.7758 3.5400 -2.2394 0.9618
-8.7975 3.4857 -2.2394 0.9618
-8.8189 3.4312 -2.2394 0.9618
-8.9401 3.1017 -2.2394 0.9618
-8.9591 3.0463 -2.2394 0.9618
-8.9778 2.9908 -2.2394 0.9618
-9.0141 2.8796 -2.2394 0.9618
-4.7626 1.4568 -1.1786 0.9797
-4.7674 1.3940 -1.1755 0.9798
-4.7697 1.3627 -1.1739 0.9798
-4.7741 1.3003 -1.1710 0.9799
-4.7794 1.2385 -1.1684 0.9799
-4.7876 1.1776 -1.1668 0.9799
-4.7916 1.1472 -1.1660 0.9800
-4.7954 1.1168 -1.1652 0.9800
-4.7992 1.0865 -1.1645 0.9800
-4.8028 1.0561 -1.1638 0.9800
-4.8131 0.9651 -1.1617 0.9800
-4.8224 0.8743 -1.1598 0.9801
-5.2599 0.7865 -1.2586 0.9784
-5.6799 0.6349 -1.3525 0.9768
-5.6792 0.5993 -1.3515 0.9768
-5.6785 0.5637 -1.3504 0.9768
-5.6773 0.4928 -1.3486 0.9768
-5.6762 0.4220 -1.3470 0.9769
-5.6749 0.3162 -1.3451 0.9769
-5.6746 0.2810 -1.3445 0.9769
-5.6743 0.2458 -1.3441 0.9769
-5.6738 0.1755 -1.3434 0.9769
-5.6733 0.0702 -1.3427 0.9769
-5.7090 -0.1059 -1.3961 0.9768
-5.7102 -0.2827 -1.3979 0.9767
-5.7106 -0.3182 -1.3984 0.9767
-5.7108 -0.3536 -1.3990 0.9767
-5.7109 -0.3891 -1.3996 0.9767
-5.7112 -0.4601 -1.4009 0.9767
-5.7113 -0.4957 -1.4017 0.9767
-5.7117 -0.5670 -1.4034 0.9766
-5.7118 -0.6027 -1.4043 0.9766
-5.7127 -0.7461 -1.4087 0.9766
-5.7129 -0.7821 -1.4099 0.9765
-5.4920 -0.7865 -1.3565 0.9774
-4.8491 -0.7865 -1.2011 0.9800
-4.7601 -0.8023 -1.1803 0.9803
-4.7587 -0.8324 -1.1812 0.9803
-4.7573 -0.8625 -1.1822 0.9803
-4.7543 -0.9228 -1.1842 0.9803
-4.7528 -0.9530 -1.1852 0.9802
-4.7511 -0.9833 -1.1863 0.9802
-4.7495 -1.0136 -1.1874 0.9802
-4.7459 -1.0744 -1.1898 0.9802
-4.7441 -1.1049 -1.1910 0.9801
-4.7383 -1.1966 -1.1949 0.9801
-4.7341 -1.2580 -1.1977 0.9800
-4.7319 -1.2888 -1.1991 0.9800
-4.7251 -1.3816 -1.2037 0.9799
-4.7227 -1.4127 -1.2053 0.9799
-4.7203 -1.4438 -1.2069 0.9799
-9.2807 -3.0919 -2.3918 0.9605
-9.2614 -3.1492 -2.3918 0.9605
-9.1165 -3.5470 -2.3918 0.9605
-9.0944 -3.6033 -2.3918 0.9605
-9.0719 -3.6595 -2.3918 0.9605
-9.0491 -3.7156 -2.3918 0.9605
-8.9786 -3.8828 -2.3918 0.9605
-8.9050 -4.0487 -2.3918 0.9605
-8.8543 -4.1585 -2.3918 0.9605
-8.8284 -4.2132 -2.3918 0.9605
-8.8022 -4.2677 -2.3918 0.9605
-8.7215 -4.4303 -2.3918 0.9605
-8.6939 -4.4841 -2.3918 0.9605
-8.6092 -4.6446 -2.3918 0.9605
-8.5511 -4.7508 -2.3918 0.9605
-8.5216 -4.8036 -2.3918 0.9605
-8.4917 -4.8562 -2.3918 0.9605
-8.4615 -4.9086 -2.3918 0.9605
-8.4310 -4.9608 -2.3918 0.9605
-8.3690 -5.0647 -2.3918 0.9605
-8.3375 -5.1164 -2.3918 0.9605
-8.3057 -5.1678 -2.3918 0.9605
-8.2084 -5.3211 -2.3918 0.9605
-8.1754 -5.3717 -2.3918 0.9605
-8.1083 -5.4724 -2.3918 0.9605
-8.0400 -5.5723 -2.3918 0.9605
-7.9705 -5.6713 -2.3918 0.9605
-7.9352 -5.7204 -2.3918 0.9605
-7.8278 -5.8667 -2.3918 0.9605
-7.7913 -5.9150 -2.3918 0.9605
-7.7176 -6.0109 -2.3918 0.9605
-7.6803 -6.0585 -2.3918 0.9605
-7.6426 -6.1059 -2.3918 0.9605
-7.5665 -6.1999 -2.3918 0.9605
-7.5281 -6.2466 -2.3918 0.9605
-7.4893 -6.2931 -2.3918 0.9605
-7.4502 -6.3393 -2.3918 0.9605
-7.2507 -6.5665 -2.3918 0.9605
-7.1689 -6.6557 -2.3918 0.9605
-7.1276 -6.6999 -2.3918 0.9605
-7.0860 -6.7439 -2.3918 0.9605
-7.0442 -6.7876 -2.3918 0.9605
-6.8310 -7.0021 -2.3918 0.9605
-6.7875 -7.0442 -2.3918 0.9605
-6.7439 -7.0861 -2.3918 0.9605
-6.6999 -7.1277 -2.3918 0.9605
-6.6557 -7.1689 -2.3918 0.9605
-6.5665 -7.2507 -2.3918 0.9605
-6.4763 -7.3314 -2.3918 0.9605
-6.4309 -7.3713 -2.3918 0.9605
-6.3852 -7.4109 -2.3918 0.9605
-6.3392 -7.4503 -2.3918 0.9605
-6.2466 -7.5281 -2.3918 0.9605
-6.1999 -7.5666 -2.3918 0.9605
-6.1530 -7.6048 -2.3918 0.9605
-6.0585 -7.6803 -2.3918 0.9605
-5.9150 -7.7913 -2.3918 0.9605
-5.8181 -7.8639 -2.3918 0.9605
-5.6712 -7.9705 -2.3918 0.9605
-5.6218 -8.0054 -2.3918 0.9605
-5.5224 -8.0744 -2.3918 0.9605
-5.4724 -8.1083 -2.3918 0.9605
-5.3717 -8.1754 -2.3918 0.9605
-5.3210 -8.2085 -2.3918 0.9605
-5.2191 -8.2737 -2.3918 0.9605
-5.1678 -8.3058 -2.3918 0.9605
-5.0647 -8.3691 -2.3918 0.9605
-4.9608 -8.4310 -2.3918 0.9605
-4.9085 -8.4616 -2.3918 0.9605
-4.8560 -8.4918 -2.3918 0.9605
-4.4302 -8.7215 -2.3918 0.9605
-4.3762 -8.7487 -2.3918 0.9605
-4.3220 -8.7757 -2.3918 0.9605
-4.2677 -8.8022 -2.3918 0.9605
-3.8828 -8.9787 -2.3918 0.9605
-3.8272 -9.0025 -2.3918 0.9605
-3.7714 -9.0260 -2.3918 0.9605
-3.4340 -9.1597 -2.3918 0.9605
-3.3204 -9.2014 -2.3918 0.9605
-3.2635 -9.2218 -2.3918 0.9605
-3.1492 -9.2615 -2.3918 0.9605
-2.8613 -9.3544 -2.3918 0.9605
-2.8034 -9.3719 -2.3918 0.9605
-2.5708 -9.4384 -2.3918 0.9605
-2.5123 -9.4541 -2.3918 0.9605
-2.4538 -9.4695 -2.3918 0.9605
-2.3952 -9.4844 -2.3918 0.9605
-2.3365 -9.4991 -2.3918 0.9605
-2.2777 -9.5134 -2.3918 0.9605
-2.1599 -9.5408 -2.3918 0.9605
-2.1008 -9.5540 -2.3918 0.9605
-2.0417 -9.5668 -2.3918 0.9605
-1.9232 -9.5913 -2.3918 0.9605
-1.8045 -9.6143 -2.3918 0.9605
-1.5661 -9.6561 -2.3918 0.9605
-1.5064 -9.6655 -2.3918 0.9605
-1.3268 -9.6918 -2.3918 0.9605
-1.1468 -9.7148 -2.3918 0.9605
-1.0867 -9.7217 -2.3918 0.9605
-1.0265 -9.7282 -2.3918 0.9605
-0.9663 -9.7344 -2.3918 0.9605
-0.9061 -9.7402 -2.3918 0.9605
-0.8459 -9.7456 -2.3918 0.9605
-0.7856 -9.7507 -2.3918 0.9605
-0.7253 -9.7553 -2.3918 0.9605
-0.6046 -9.7635 -2.3918 0.9605
-0.5442 -9.7671 -2.3918 0.9605
-0.4838 -9.7703 -2.3918 0.9605
-0.4233 -9.7731 -2.3918 0.9605
-0.3629 -9.7755 -2.3918 0.9605
-0.1210 -9.7815 -2.3918 0.9605
-0.0605 -9.7820 -2.3918 0.9605
0.0605 -9.7820 -2.3918 0.9605
0.1210 -9.7815 -2.3918 0.9605
0.1815 -9.7805 -2.3918 0.9605
0.2420 -9.7792 -2.3918 0.9605
0.4838 -9.7703 -2.3918 0.9605
0.5442 -9.7671 -2.3918 0.9605
0.6046 -9.7636 -2.3918 0.9605
0.6649 -9.7596 -2.3918 0.9605
0.7253 -9.7553 -2.3918 0.9605
0.7856 -9.7507 -2.3918 0.9605
0.8459 -9.7456 -2.3918 0.9605
1.0867 -9.7217 -2.3918 0.9605
1.1468 -9.7148 -2.3918 0.9605
1.2668 -9.6998 -2.3918 0.9605
1.3867 -9.6834 -2.3918 0.9605
1.4466 -9.6747 -2.3918 0.9605
1.5661 -9.6561 -2.3918 0.9605
1.6854 -9.6360 -2.3918 0.9605
1.8045 -9.6144 -2.3918 0.9605
1.9825 -9.5792 -2.3918 0.9605
2.0417 -9.5668 -2.3918 0.9605
2.1009 -9.5539 -2.3918 0.9605
2.1599 -9.5408 -2.3918 0.9605
2.2189 -9.5273 -2.3918 0.9605
2.2777 -9.5133 -2.3918 0.9605
2.4538 -9.4695 -2.3918 0.9605
2.5123 -9.4541 -2.3918 0.9605
2.5708 -9.4383 -2.3918 0.9605
2.7454 -9.3891 -2.3918 0.9605
2.8034 -9.3719 -2.3918 0.9605
2.8613 -9.3544 -2.3918 0.9605
2.9191 -9.3365 -2.3918 0.9605
2.9768 -9.3183 -2.3918 0.9605
3.1492 -9.2615 -2.3918 0.9605
3.2064 -9.2418 -2.3918 0.9605
3.2635 -9.2218 -2.3918 0.9605
3.4340 -9.1597 -2.3918 0.9605
3.4906 -9.1383 -2.3918 0.9605
3.7714 -9.0260 -2.3918 0.9605
3.8828 -8.9787 -2.3918 0.9605
3.9382 -8.9545 -2.3918 0.9605
4.0486 -8.9051 -2.3918 0.9605
4.1585 -8.8543 -2.3918 0.9605
4.2677 -8.8022 -2.3918 0.9605
4.3220 -8.7756 -2.3918 0.9605
4.3762 -8.7488 -2.3918 0.9605
4.7508 -8.5512 -2.3918 0.9605
4.8035 -8.5216 -2.3918 0.9605
4.9086 -8.4616 -2.3918 0.9605
5.0645 -8.3691 -2.3918 0.9605
5.1678 -8.3058 -2.3918 0.9605
5.5224 -8.0743 -2.3918 0.9605
5.5722 -8.0400 -2.3918 0.9605
5.7694 -7.8997 -2.3918 0.9605
6.1059 -7.6427 -2.3918 0.9605
6.1530 -7.6048 -2.3918 0.9605
6.1999 -7.5666 -2.3918 0.9605
6.3392 -7.4502 -2.3918 0.9605
6.4309 -7.3713 -2.3918 0.9605
6.4763 -7.3314 -2.3918 0.9605
6.5216 -7.2912 -2.3918 0.9605
6.5665 -7.2507 -2.3918 0.9605
6.7439 -7.0861 -2.3918 0.9605
6.8310 -7.0021 -2.3918 0.9605
6.9597 -6.8742 -2.3918 0.9605
7.0021 -6.8310 -2.3918 0.9605
7.0442 -6.7876 -2.3918 0.9605
7.0860 -6.7438 -2.3918 0.9605
7.1276 -6.6999 -2.3918 0.9605
7.2507 -6.5666 -2.3918 0.9605
7.3313 -6.4763 -2.3918 0.9605
7.3712 -6.4309 -2.3918 0.9605
7.4502 -6.3393 -2.3918 0.9605
7.5665 -6.1999 -2.3918 0.9605
7.6803 -6.0585 -2.3918 0.9605
7.7176 -6.0109 -2.3918 0.9605
7.7913 -5.9150 -2.3918 0.9605
7.8639 -5.8181 -2.3918 0.9605
7.9352 -5.7204 -2.3918 0.9605
7.9705 -5.6713 -2.3918 0.9605
8.0054 -5.6219 -2.3918 0.9605
8.0400 -5.5723 -2.3918 0.9605
8.0743 -5.5224 -2.3918 0.9605
8.1420 -5.4221 -2.3918 0.9605
8.1754 -5.3717 -2.3918 0.9605
8.2084 -5.3211 -2.3918 0.9605
8.2412 -5.2702 -2.3918 0.9605
8.3690 -5.0647 -2.3918 0.9605
8.4310 -4.9608 -2.3918 0.9605
8.4615 -4.9086 -2.3918 0.9605
8.5216 -4.8035 -2.3918 0.9605
8.6092 -4.6446 -2.3918 0.9605
8.6378 -4.5913 -2.3918 0.9605
8.7215 -4.4303 -2.3918 0.9605
8.7487 -4.3763 -2.3918 0.9605
8.7756 -4.3220 -2.3918 0.9605
8.8284 -4.2132 -2.3918 0.9605
8.8543 -4.1585 -2.3918 0.9605
8.9050 -4.0487 -2.3918 0.9605
8.9299 -3.9935 -2.3918 0.9605
8.9544 -3.9382 -2.3918 0.9605
8.9786 -3.8828 -2.3918 0.9605
9.0025 -3.8272 -2.3918 0.9605
9.0259 -3.7714 -2.3918 0.9605
9.0491 -3.7155 -2.3918 0.9605
9.1165 -3.5470 -2.3918 0.9605
9.1382 -3.4906 -2.3918 0.9605
9.1596 -3.4340 -2.3918 0.9605
9.2218 -3.2635 -2.3918 0.9605
9.3365 -2.9191 -2.3918 0.9605
9.3719 -2.8034 -2.3918 0.9605
9.4384 -2.5708 -2.3918 0.9605
9.4844 -2.3952 -2.3918 0.9605
9.5408 -2.1599 -2.3918 0.9605
9.5539 -2.1009 -2.3918 0.9605
9.5668 -2.0417 -2.3918 0.9605
9.5792 -1.9826 -2.3918 0.9605
9.6143 -1.8045 -2.3918 0.9605
9.6253 -1.7450 -2.3918 0.9605
9.6359 -1.6854 -2.3918 0.9605
9.6560 -1.5662 -2.3918 0.9605
9.6655 -1.5064 -2.3918 0.9605
9.6834 -1.3868 -2.3918 0.9605
9.6918 -1.3268 -2.3918 0.9605
9.7075 -1.2069 -2.3918 0.9605
9.7217 -1.0867 -2.3918 0.9605
9.7282 -1.0265 -2.3918 0.9605
9.7343 -0.9663 -2.3918 0.9605
9.7401 -0.9062 -2.3918 0.9605
9.7506 -0.7856 -2.3918 0.9605
9.7730 -0.4234 -2.3918 0.9605
9.7775 -0.3025 -2.3918 0.9605
9.7792 -0.2420 -2.3918 0.9605
9.7805 -0.1815 -2.3918 0.9605
9.7814 -0.1210 -2.3918 0.9605
9.7822 -0.0000 -2.3918 0.9605
9.7820 0.0605 -2.3918 0.9605
9.7814 0.1210 -2.3918 0.9605
9.7805 0.1815 -2.3918 0.9605
9.7775 0.3024 -2.3918 0.9605
9.7755 0.3629 -2.3918 0.9605
9.7730 0.4233 -2.3918 0.9605
9.7671 0.5442 -2.3918 0.9605
9.7553 0.7253 -2.3918 0.9605
9.7147 1.1467 -2.3918 0.9605
9.6834 1.3867 -2.3918 0.9605
9.0685 1.4708 -2.2463 0.9629
9.0219 1.5780 -2.2394 0.9630
9.0017 1.6895 -2.2394 0.9630
8.9911 1.7451 -2.2394 0.9630
8.9801 1.8007 -2.2394 0.9630
8.9688 1.8562 -2.2394 0.9630
8.9572 1.9116 -2.2394 0.9630
8.9452 1.9670 -2.2394 0.9630
8.9202 2.0774 -2.2394 0.9630
8.9072 2.1326 -2.2394 0.9630
8.8661 2.2974 -2.2394 0.9630
8.8517 2.3522 -2.2394 0.9630
8.8065 2.5161 -2.2394 0.9630
8.7908 2.5704 -2.2394 0.9630
8.7747 2.6248 -2.2394 0.9630
8.6713 2.9484 -2.2394 0.9630
8.6529 3.0021 -2.2394 0.9630
8.6342 3.0555 -2.2394 0.9630
8.5760 3.2151 -2.2394 0.9630
8.5356 3.3210 -2.2394 0.9630
8.4939 3.4263 -2.2394 0.9630
8.4288 3.5832 -2.2394 0.9630
8.4149 3.6389 -2.2417 0.9630
8.3221 3.8458 -2.2416 0.9630
8.2738 3.9485 -2.2416 0.9630
8.1734 4.1518 -2.2415 0.9630
8.1475 4.2022 -2.2415 0.9630
8.0679 4.3525 -2.2414 0.9630
8.0408 4.4023 -2.2414 0.9630
8.0134 4.4520 -2.2414 0.9630
7.9856 4.5014 -2.2414 0.9630
7.9293 4.5997 -2.2414 0.9630
7.8716 4.6974 -2.2413 0.9630
7.8424 4.7460 -2.2413 0.9630
7.7224 4.9384 -2.2413 0.9630
7.6606 5.0334 -2.2412 0.9630
7.5977 5.1277 -2.2412 0.9630
7.5658 5.1746 -2.2412 0.9630
7.4353 5.3600 -2.2411 0.9630
7.4019 5.4058 -2.2411 0.9630
7.3683 5.4515 -2.2411 0.9630
7.3002 5.5421 -2.2411 0.9630
7.1960 5.6764 -2.2410 0.9630
7.1607 5.7208 -2.2410 0.9630
7.0893 5.8088 -2.2410 0.9630
7.0168 5.8960 -2.2409 0.9630
6.8687 6.0676 -2.2409 0.9630
6.7163 6.2354 -2.2408 0.9630
6.6386 6.3180 -2.2408 0.9630
6.5598 6.3995 -2.2408 0.9630
6.3994 6.5596 -2.2407 0.9630
6.3177 6.6382 -2.2407 0.9630
6.2350 6.7157 -2.2406 0.9630
6.1514 6.7923 -2.2406 0.9630
6.0242 6.9051 -2.2406 0.9630
5.9813 6.9421 -2.2406 0.9630
5.8514 7.0518 -2.2405 0.9630
5.8076 7.0878 -2.2405 0.9630
5.3121 7.4656 -2.2403 0.9630
5.1725 7.5628 -2.2403 0.9630
5.1257 7.5946 -2.2403 0.9630
5.0313 7.6573 -2.2403 0.9630
4.9838 7.6882 -2.2402 0.9630
4.9361 7.7188 -2.2402 0.9630
4.3604 7.2052 -2.0592 0.9659
4.1909 7.1225 -2.0206 0.9665
4.1085 7.0823 -2.0020 0.9668
4.0276 7.0429 -1.9837 0.9671
3.9202 6.9546 -1.9520 0.9677
3.8616 6.9508 -1.9442 0.9678
3.8154 7.0722 -1.9648 0.9675
3.7596 7.0732 -1.9586 0.9676
3.5269 7.0509 -1.9277 0.9681
3.4322 7.0789 -1.9236 0.9681
3.3787 7.0798 -1.9181 0.9682
3.2201 7.0826 -1.9023 0.9685
3.0407 7.0315 -1.8731 0.9689
2.9987 7.0538 -1.8741 0.9689
2.7881 7.1658 -1.8800 0.9688
2.7034 7.2109 -1.8829 0.9688
2.5268 7.2830 -1.8849 0.9688
2.5069 7.5248 -1.9393 0.9679
2.4717 7.5751 -1.9483 0.9677
2.4361 7.6259 -1.9574 0.9676
2.3853 7.6292 -1.9544 0.9676
2.3641 7.7288 -1.9762 0.9673
2.3275 7.7810 -1.9858 0.9671
2.2906 7.8337 -1.9956 0.9669
2.2137 7.9336 -2.0139 0.9667
2.0981 7.8952 -1.9974 0.9669
2.0640 7.9651 -2.0119 0.9667
2.0240 8.4535 -2.1254 0.9648
1.3272 5.8627 -1.4697 0.9756
1.2894 5.8635 -1.4679 0.9756
1.2516 5.8644 -1.4662 0.9756
1.1387 5.8669 -1.4613 0.9757
1.1013 5.8677 -1.4598 0.9757
1.0899 6.4664 -1.6034 0.9734
1.0955 6.7545 -1.6731 0.9722
1.0339 6.9146 -1.7095 0.9716
0.9911 6.9208 -1.7095 0.9716
0.9483 6.9267 -1.7094 0.9716
0.9054 6.9324 -1.7094 0.9716
0.3927 3.7218 -0.9151 0.9847
0.3467 3.7264 -0.9151 0.9847
0.3236 3.7285 -0.9151 0.9847
0.2313 3.7353 -0.9151 0.9847
0.1851 3.7379 -0.9151 0.9847
0.1620 3.7390 -0.9151 0.9847
0.1388 3.7399 -0.9151 0.9847
0.0231 3.7424 -0.9151 0.9847
0.0000 3.7425 -0.9151 0.9847
-0.2187 5.8908 -1.4413 0.9760
-0.2552 5.8913 -1.4418 0.9760
-0.3649 5.8927 -1.4436 0.9760
-0.4015 5.8931 -1.4443 0.9760
-0.4382 5.8937 -1.4450 0.9760
-0.4749 5.8945 -1.4459 0.9759
-0.4347 3.8889 -0.9568 0.9840
-0.4557 3.8602 -0.9504 0.9841
-0.4773 3.8390 -0.9459 0.9842
-0.4995 3.8243 -0.9430 0.9842
-0.5217 3.8112 -0.9405 0.9843
-0.5930 3.8051 -0.9416 0.9843
-0.6433 3.8165 -0.9463 0.9842
-0.7013 3.8686 -0.9613 0.9839
-1.3852 6.9081 -1.7227 0.9714
-1.4298 6.9087 -1.7250 0.9714
-1.5644 6.9105 -1.7324 0.9712
-1.7458 6.9129 -1.7433 0.9711
-1.8374 6.9142 -1.7492 0.9710
-1.9229 6.8914 -1.7494 0.9710
-1.9254 6.7390 -1.7137 0.9716
-1.9451 5.9613 -1.5332 0.9745
-1.9862 5.9620 -1.5365 0.9745
-2.0275 5.9626 -1.5399 0.9744
-1.5684 4.5205 -1.1699 0.9805
-1.5698 4.4360 -1.1505 0.9808
-1.6169 4.2330 -1.1079 0.9815
-1.6182 4.1590 -1.0912 0.9818
-1.6194 4.0873 -1.0750 0.9821
-1.6218 3.9499 -1.0440 0.9826
-1.6230 3.8842 -1.0293 0.9828
-1.6252 3.7581 -1.0011 0.9833
-1.6262 3.6976 -0.9877 0.9835
-1.6283 3.5814 -0.9619 0.9839
-1.6302 3.4710 -0.9376 0.9843
-1.5843 3.3198 -0.8994 0.9850
-1.5970 3.2939 -0.8951 0.9850
-1.5909 3.2302 -0.8804 0.9853
-1.5917 3.1821 -0.8700 0.9855
-1.5925 3.1351 -0.8598 0.9856
-1.6084 3.1184 -0.8579 0.9857
-1.6475 3.1464 -0.8684 0.9855
-1.6726 3.1468 -0.8714 0.9854
-1.7083 3.1202 -0.8698 0.9855
-4.0641 7.2098 -2.0236 0.9665
-4.1236 7.2108 -2.0310 0.9664
-4.1836 7.2119 -2.0386 0.9663
-2.6632 4.4628 -1.2707 0.9788
-2.6843 4.4356 -1.2677 0.9789
-2.7663 4.4459 -1.2803 0.9787
-2.8704 4.4886 -1.3027 0.9783
-2.9101 4.4893 -1.3081 0.9782
-2.9501 4.4899 -1.3136 0.9781
-2.9905 4.4906 -1.3192 0.9780
-3.0313 4.4914 -1.3249 0.9779
-3.1138 4.4928 -1.3366 0.9777
-3.1556 4.4935 -1.3426 0.9776
-3.1978 4.4943 -1.3487 0.9775
-3.2404 4.4950 -1.3549 0.9774
-3.2834 4.4958 -1.3612 0.9773
-3.3268 4.4965 -1.3676 0.9772
-3.3706 4.4973 -1.3742 0.9771
-3.4594 4.4988 -1.3876 0.9769
-3.5045 4.4996 -1.3945 0.9768
-3.5501 4.5004 -1.4015 0.9767
-3.7693 4.4858 -1.4326 0.9762
-3.7906 4.4550 -1.4302 0.9762
-3.8127 4.3703 -1.4181 0.9764
-3.8137 4.3171 -1.4084 0.9766
-3.8146 4.2647 -1.3990 0.9767
-3.8198 4.2178 -1.3914 0.9768
-4.2417 4.5125 -1.5143 0.9748
-4.5173 4.5173 -1.5620 0.9740
-4.5745 4.5183 -1.5721 0.9739
-4.6325 4.5193 -1.5824 0.9737
-4.8111 4.5224 -1.6145 0.9732
-4.8750 4.5261 -1.6265 0.9730
-4.8791 4.4739 -1.6186 0.9731
-4.9720 4.5029 -1.6401 0.9728
-4.9014 4.3841 -1.6079 0.9733
-4.9024 4.3306 -1.5994 0.9734
-4.9080 4.2819 -1.5926 0.9735
-4.9203 4.2393 -1.5880 0.9736
-4.9254 4.1909 -1.5813 0.9737
-4.9272 4.0884 -1.5655 0.9740
-4.9281 4.0380 -1.5578 0.9741
-4.9289 3.9880 -1.5502 0.9742
-4.9307 3.8895 -1.5355 0.9745
-4.9179 3.7817 -1.5169 0.9748
-4.9442 3.6109 -1.4970 0.9751
-7.4632 5.3103 -2.2396 0.9630
-7.4959 5.2640 -2.2396 0.9630
-7.5604 5.1708 -2.2396 0.9630
-7.5922 5.1240 -2.2396 0.9630
-7.6549 5.0296 -2.2396 0.9630
-7.6859 4.9822 -2.2396 0.9630
-7.7769 4.8387 -2.2395 0.9630
-7.8067 4.7905 -2.2395 0.9630
-7.9227 4.5959 -2.2395 0.9630
-7.9510 4.5468 -2.2395 0.9630
-7.9789 4.4976 -2.2395 0.9630
-8.0339 4.3985 -2.2395 0.9630
-8.0609 4.3488 -2.2395 0.9630
-8.2166 4.0467 -2.2394 0.9630
-8.2414 3.9957 -2.2394 0.9630
-8.2659 3.9447 -2.2394 0.9630
-8.2902 3.8935 -2.2394 0.9630
-8.3838 3.6872 -2.2394 0.9630
-8.4509 3.5311 -2.2394 0.9630
-8.5149 3.3737 -2.2394 0.9630
-8.5560 3.2681 -2.2394 0.9630
-8.6151 3.1088 -2.2394 0.9630
-8.6894 2.8948 -2.2394 0.9630
-8.7245 2.7871 -2.2394 0.9630
-4.7203 1.4438 -1.2069 0.9799
-4.7251 1.3816 -1.2037 0.9799
-4.7319 1.2888 -1.1991 0.9800
-4.7362 1.2273 -1.1963 0.9801
-4.7422 1.1354 -1.1923 0.9801
-4.7441 1.1049 -1.1910 0.9801
-4.7459 1.0744 -1.1898 0.9802
-4.7477 1.0440 -1.1886 0.9802
-4.7543 0.9228 -1.1842 0.9803
-4.7573 0.8624 -1.1822 0.9803
-4.7588 0.8323 -1.1812 0.9803
-4.7601 0.8023 -1.1803 0.9803
-5.0463 0.7865 -1.2488 0.9792
-5.2599 0.7865 -1.3004 0.9783
-5.7127 0.7461 -1.4087 0.9766
-5.7125 0.7102 -1.4075 0.9766
-5.7120 0.6385 -1.4053 0.9766
-5.7118 0.6027 -1.4043 0.9766
-5.7117 0.5670 -1.4034 0.9766
-5.7110 0.4246 -1.4002 0.9767
-5.7108 0.3536 -1.3990 0.9767
-5.7102 0.2828 -1.3979 0.9767
-5.7099 0.2473 -1.3974 0.9767
-5.7094 0.1766 -1.3967 0.9768
-5.7197 -0.0354 -1.4436 0.9767
-5.7197 -0.1415 -1.4440 0.9767
-5.7198 -0.1769 -1.4443 0.9767
-5.7199 -0.2123 -1.4446 0.9767
-5.7200 -0.2832 -1.4454 0.9767
-5.7201 -0.3187 -1.4459 0.9766
-5.7204 -0.3897 -1.4471 0.9766
-5.7205 -0.4253 -1.4478 0.9766
-5.7210 -0.5322 -1.4501 0.9766
-5.7211 -0.5679 -1.4511 0.9766
-5.7225 -0.7834 -1.4578 0.9765
-5.4920 -0.7865 -1.4003 0.9774
-5.0464 -0.7865 -1.2890 0.9792
-4.8491 -0.7865 -1.2399 0.9799
-4.7161 -0.8550 -1.2097 0.9804
-4.7081 -1.0048 -1.2150 0.9803
-4.7064 -1.0349 -1.2162 0.9803
-4.7008 -1.1255 -1.2200 0.9803
-4.6988 -1.1558 -1.2213 0.9802
-4.6968 -1.1862 -1.2226 0.9802
-4.6903 -1.2775 -1.2269 0.9801
-4.6881 -1.3081 -1.2284 0.9801
-4.6858 -1.3388 -1.2300 0.9801
-4.6785 -1.4311 -1.2348 0.9800
-4.6734 -1.4929 -1.2382 0.9800
-8.9909 -2.9953 -2.3918 0.9617
-8.9722 -3.0508 -2.3918 0.9617
-8.9140 -3.2168 -2.3918 0.9617
-8.8940 -3.2718 -2.3918 0.9617
-8.8317 -3.4363 -2.3918 0.9617
-8.7886 -3.5453 -2.3918 0.9617
-8.6025 -3.9755 -2.3918 0.9617
-8.5527 -4.0816 -2.3918 0.9617
-8.5273 -4.1344 -2.3918 0.9617
-8.4755 -4.2396 -2.3918 0.9617
-8.4491 -4.2919 -2.3918 0.9617
-8.3954 -4.3960 -2.3918 0.9617
-8.3680 -4.4479 -2.3918 0.9617
-8.3403 -4.4996 -2.3918 0.9617
-8.3124 -4.5511 -2.3918 0.9617
-8.2841 -4.6024 -2.3918 0.9617
-8.1973 -4.7553 -2.3918 0.9617
