ply
format ascii 1.0
element vertex 1597
property float32 x
property float32 y
property float32 z
property float32 I
end_header
-1.0059 -5.7510 -2.3882 0.9751
-0.9704 -5.7575 -2.3884 0.9751
-0.8993 -5.7700 -2.3888 0.9751
-0.8636 -5.7759 -2.3890 0.9751
-0.6849 -5.8022 -2.3899 0.9751
-0.6491 -5.8068 -2.3901 0.9751
-0.6132 -5.8112 -2.3903 0.9751
-0.5773 -5.8153 -2.3905 0.9751
-0.5414 -5.8192 -2.3907 0.9751
-0.5054 -5.8229 -2.3909 0.9751
-0.3974 -5.8328 -2.3915 0.9751
-0.2892 -5.8405 -2.3921 0.9750
-0.2531 -5.8427 -2.3923 0.9750
-0.2170 -5.8446 -2.3925 0.9750
-0.1447 -5.8478 -2.3929 0.9750
-0.0724 -5.8501 -2.3933 0.9750
-0.0362 -5.8510 -2.3935 0.9750
0.0000 -5.8516 -2.3937 0.9750
0.0362 -5.8520 -2.3939 0.9750
0.0724 -5.8521 -2.3941 0.9750
0.1086 -5.8520 -2.3943 0.9750
0.1810 -5.8512 -2.3947 0.9750
0.2172 -5.8505 -2.3949 0.9750
0.3258 -5.8469 -2.3955 0.9750
0.3620 -5.8453 -2.3957 0.9750
0.3981 -5.8434 -2.3959 0.9750
0.5066 -5.8365 -2.3965 0.9750
0.5427 -5.8337 -2.3967 0.9750
0.7951 -5.8082 -2.3981 0.9750
0.8311 -5.8037 -2.3983 0.9750
0.8671 -5.7990 -2.3985 0.9750
0.9030 -5.7940 -2.3987 0.9750
0.9389 -5.7887 -2.3989 0.9750
1.1536 -5.7529 -2.4001 0.9750
1.1892 -5.7461 -2.4003 0.9750
1.2248 -5.7391 -2.4005 0.9750
1.3315 -5.7169 -2.4011 0.9750
1.3669 -5.7090 -2.4013 0.9749
1.4023 -5.7009 -2.4016 0.9749
1.4376 -5.6926 -2.4018 0.9749
1.5082 -5.6754 -2.4022 0.9749
1.6136 -5.6479 -2.4028 0.9749
1.7186 -5.6184 -2.4034 0.9749
1.7882 -5.5977 -2.4038 0.9749
1.8576 -5.5761 -2.4042 0.9749
1.9957 -5.5303 -2.4050 0.9749
2.1666 -5.4682 -2.4060 0.9749
2.2344 -5.4419 -2.4064 0.9749
2.2682 -5.4285 -2.4066 0.9749
2.3020 -5.4148 -2.4068 0.9749
2.4026 -5.3725 -2.4074 0.9749
2.4360 -5.3580 -2.4076 0.9749
2.5356 -5.3132 -2.4082 0.9749
2.6016 -5.2823 -2.4086 0.9749
2.6998 -5.2344 -2.4092 0.9749
2.7323 -5.2181 -2.4094 0.9749
2.7971 -5.1847 -2.4098 0.9749
2.8615 -5.1506 -2.4102 0.9749
2.8935 -5.1332 -2.4104 0.9749
2.9572 -5.0978 -2.4108 0.9749
2.9890 -5.0799 -2.4110 0.9748
3.1769 -4.9679 -2.4122 0.9748
3.2078 -4.9485 -2.4124 0.9748
3.2693 -4.9093 -2.4127 0.9748
3.3303 -4.8692 -2.4131 0.9748
3.3908 -4.8284 -2.4135 0.9748
3.4208 -4.8077 -2.4137 0.9748
3.4508 -4.7868 -2.4139 0.9748
3.5103 -4.7446 -2.4142 0.9748
3.5398 -4.7231 -2.4144 0.9748
3.5693 -4.7015 -2.4146 0.9748
3.6276 -4.6577 -2.4150 0.9748
3.6855 -4.6132 -2.4154 0.9748
3.7713 -4.5450 -2.4159 0.9748
3.8559 -4.4753 -2.4165 0.9748
3.8838 -4.4517 -2.4166 0.9748
3.9391 -4.4040 -2.4170 0.9748
3.9666 -4.3799 -2.4172 0.9748
4.0211 -4.3311 -2.4175 0.9748
4.0480 -4.3065 -2.4177 0.9748
4.0749 -4.2817 -2.4179 0.9748
4.1281 -4.2316 -2.4182 0.9748
4.1808 -4.1808 -2.4186 0.9748
4.2585 -4.1033 -2.4191 0.9748
4.2841 -4.0772 -2.4193 0.9748
4.3348 -4.0245 -2.4196 0.9748
4.3599 -3.9979 -2.4198 0.9748
4.4096 -3.9442 -2.4201 0.9748
4.4343 -3.9171 -2.4203 0.9748
4.5071 -3.8350 -2.4208 0.9747
4.5784 -3.7515 -2.4213 0.9747
4.6250 -3.6950 -2.4216 0.9747
4.6481 -3.6666 -2.4217 0.9747
4.6937 -3.6093 -2.4220 0.9747
4.7386 -3.5514 -2.4224 0.9747
4.7608 -3.5223 -2.4225 0.9747
4.7828 -3.4930 -2.4227 0.9747
4.8262 -3.4340 -2.4230 0.9747
4.8477 -3.4043 -2.4231 0.9747
4.8689 -3.3745 -2.4233 0.9747
4.9109 -3.3144 -2.4236 0.9747
4.9521 -3.2538 -2.4239 0.9747
5.0323 -3.1311 -2.4244 0.9747
5.0519 -3.1001 -2.4246 0.9747
5.0712 -3.0690 -2.4247 0.9747
5.1467 -2.9433 -2.4253 0.9747
5.1652 -2.9115 -2.4254 0.9747
5.1834 -2.8797 -2.4256 0.9747
5.2192 -2.8157 -2.4258 0.9747
5.2367 -2.7835 -2.4260 0.9747
5.2542 -2.7512 -2.4261 0.9747
5.3051 -2.6537 -2.4265 0.9747
5.3543 -2.5552 -2.4269 0.9747
5.3703 -2.5222 -2.4270 0.9747
5.3861 -2.4891 -2.4271 0.9747
5.4016 -2.4558 -2.4272 0.9747
5.5323 -2.1525 -2.4283 0.9747
5.5458 -2.1183 -2.4284 0.9747
5.5590 -2.0841 -2.4285 0.9747
5.6220 -1.9117 -2.4291 0.9747
5.6340 -1.8769 -2.4292 0.9747
5.6685 -1.7723 -2.4295 0.9747
5.6796 -1.7373 -2.4296 0.9747
5.7012 -1.6670 -2.4298 0.9747
5.7511 -1.4903 -2.4303 0.9747
5.7604 -1.4548 -2.4303 0.9747
5.7695 -1.4192 -2.4304 0.9746
5.7784 -1.3835 -2.4305 0.9746
5.7871 -1.3478 -2.4306 0.9746
5.7955 -1.3120 -2.4307 0.9746
5.8037 -1.2762 -2.4308 0.9746
5.8117 -1.2403 -2.4309 0.9746
5.8194 -1.2044 -2.4309 0.9746
5.8270 -1.1684 -2.4310 0.9746
5.8343 -1.1324 -2.4311 0.9746
5.8674 -0.9517 -2.4315 0.9746
5.8734 -0.9154 -2.4316 0.9746
5.8791 -0.8791 -2.4316 0.9746
5.8846 -0.8427 -2.4317 0.9746
5.8898 -0.8063 -2.4318 0.9746
5.9087 -0.6605 -2.4321 0.9746
5.9204 -0.5508 -2.4322 0.9746
5.9238 -0.5142 -2.4323 0.9746
5.9327 -0.4042 -2.4325 0.9746
5.9352 -0.3675 -2.4325 0.9746
5.9396 -0.2941 -2.4326 0.9746
5.9444 -0.1839 -2.4328 0.9746
5.9471 -0.0736 -2.4329 0.9746
5.9478 -0.0000 -2.4330 0.9746
5.9478 0.0368 -2.4331 0.9746
5.9463 0.1471 -2.4332 0.9746
5.9442 0.2207 -2.4332 0.9746
5.9412 0.2942 -2.4333 0.9746
5.9394 0.3309 -2.4333 0.9746
5.9350 0.4044 -2.4334 0.9746
5.9324 0.4411 -2.4334 0.9746
5.9296 0.4777 -2.4334 0.9746
5.9266 0.5144 -2.4335 0.9746
5.9199 0.5877 -2.4335 0.9746
5.9162 0.6243 -2.4335 0.9746
5.9123 0.6608 -2.4336 0.9746
5.8943 0.8069 -2.4336 0.9746
5.8726 0.9525 -2.4337 0.9746
5.8667 0.9888 -2.4337 0.9746
5.8404 1.1336 -2.4337 0.9746
5.8333 1.1697 -2.4337 0.9746
5.8260 1.2058 -2.4337 0.9746
5.8026 1.3136 -2.4337 0.9746
5.7859 1.3853 -2.4337 0.9746
5.7771 1.4210 -2.4337 0.9746
5.7682 1.4567 -2.4337 0.9746
5.7591 1.4923 -2.4336 0.9746
5.7498 1.5279 -2.4336 0.9746
5.7402 1.5634 -2.4336 0.9746
5.7101 1.6696 -2.4336 0.9746
5.6996 1.7049 -2.4336 0.9746
5.6668 1.8103 -2.4335 0.9746
5.6555 1.8453 -2.4335 0.9746
5.6439 1.8802 -2.4334 0.9746
5.6201 1.9498 -2.4334 0.9746
5.5827 2.0537 -2.4333 0.9746
5.5698 2.0881 -2.4333 0.9746
5.5568 2.1225 -2.4332 0.9746
5.5434 2.1568 -2.4332 0.9746
5.5299 2.1910 -2.4332 0.9746
5.5162 2.2251 -2.4331 0.9746
5.4737 2.3270 -2.4330 0.9746
5.4591 2.3607 -2.4330 0.9746
5.4443 2.3944 -2.4329 0.9746
5.4293 2.4280 -2.4329 0.9746
5.3986 2.4949 -2.4328 0.9746
5.3348 2.6274 -2.4326 0.9746
5.3017 2.6931 -2.4325 0.9746
5.2677 2.7583 -2.4324 0.9746
5.2152 2.8553 -2.4322 0.9746
5.1974 2.8875 -2.4321 0.9746
5.1610 2.9514 -2.4320 0.9746
5.1049 3.0464 -2.4318 0.9746
5.0858 3.0778 -2.4317 0.9746
5.0471 3.1403 -2.4316 0.9746
4.9672 3.2637 -2.4313 0.9746
4.9468 3.2943 -2.4312 0.9746
4.9262 3.3247 -2.4311 0.9746
4.8632 3.4152 -2.4309 0.9746
4.8418 3.4451 -2.4308 0.9746
4.7985 3.5044 -2.4306 0.9746
4.7765 3.5339 -2.4305 0.9746
4.7544 3.5633 -2.4304 0.9746
4.7321 3.5925 -2.4303 0.9747
4.7096 3.6215 -2.4302 0.9747
4.6869 3.6504 -2.4302 0.9747
4.6641 3.6792 -2.4301 0.9747
4.6179 3.7363 -2.4299 0.9747
4.5709 3.7928 -2.4297 0.9747
4.5472 3.8209 -2.4296 0.9747
4.4750 3.9041 -2.4293 0.9747
4.4505 3.9315 -2.4292 0.9747
4.4260 3.9588 -2.4291 0.9747
4.3763 4.0129 -2.4288 0.9747
4.3005 4.0928 -2.4285 0.9747
4.2492 4.1453 -2.4283 0.9747
4.1972 4.1972 -2.4281 0.9747
4.1445 4.2483 -2.4278 0.9747
4.0913 4.2989 -2.4276 0.9747
4.0374 4.3487 -2.4274 0.9747
4.0102 4.3734 -2.4272 0.9747
3.9829 4.3979 -2.4271 0.9747
3.9554 4.4222 -2.4270 0.9747
3.9000 4.4703 -2.4267 0.9747
3.8721 4.4941 -2.4266 0.9747
3.8440 4.5177 -2.4265 0.9747
3.8158 4.5412 -2.4264 0.9747
3.7303 4.6104 -2.4260 0.9747
3.6993 4.6303 -2.4244 0.9747
3.6092 4.6340 -2.4027 0.9749
3.5211 4.6380 -2.3820 0.9751
3.4777 4.6401 -2.3720 0.9753
3.3918 4.6442 -2.3525 0.9755
3.3073 4.6482 -2.3336 0.9756
3.2654 4.6498 -2.3242 0.9757
3.2243 4.6522 -2.3154 0.9758
3.1835 4.6545 -2.3067 0.9759
3.1429 4.6568 -2.2982 0.9760
3.1027 4.6591 -2.2898 0.9761
2.9904 4.6762 -2.2706 0.9763
2.9599 4.6922 -2.2694 0.9763
2.9307 4.7102 -2.2693 0.9763
2.9013 4.7279 -2.2691 0.9763
2.6928 4.8468 -2.2681 0.9763
2.6625 4.8631 -2.2680 0.9763
2.4793 4.9565 -2.2670 0.9763
2.4485 4.9714 -2.2669 0.9763
2.4175 4.9861 -2.2667 0.9763
2.3865 5.0007 -2.2666 0.9763
2.3553 5.0150 -2.2664 0.9763
2.3241 5.0291 -2.2663 0.9763
2.1351 5.1097 -2.2653 0.9764
2.1033 5.1225 -2.2652 0.9764
2.0714 5.1350 -2.2650 0.9764
2.0394 5.1473 -2.2648 0.9764
2.0074 5.1595 -2.2647 0.9764
1.9754 5.1714 -2.2645 0.9764
1.9432 5.1832 -2.2643 0.9764
1.8787 5.2060 -2.2640 0.9764
1.7162 5.2597 -2.2632 0.9764
1.5850 5.2989 -2.2625 0.9764
1.5192 5.3173 -2.2622 0.9764
1.4862 5.3262 -2.2620 0.9764
1.4531 5.3349 -2.2618 0.9764
1.3203 5.3676 -2.2611 0.9764
1.2536 5.3827 -2.2608 0.9764
1.2202 5.3899 -2.2606 0.9764
1.1197 5.4103 -2.2601 0.9764
1.0861 5.4167 -2.2599 0.9764
1.0526 5.4229 -2.2597 0.9764
1.0189 5.4289 -2.2595 0.9764
0.9516 5.4402 -2.2592 0.9764
0.9178 5.4455 -2.2590 0.9764
0.8502 5.4556 -2.2586 0.9764
0.7826 5.4648 -2.2583 0.9764
0.7487 5.4691 -2.2581 0.9764
0.6809 5.4771 -2.2577 0.9764
0.6130 5.4842 -2.2574 0.9764
0.5790 5.4874 -2.2572 0.9764
0.5450 5.4904 -2.2570 0.9764
0.5110 5.4933 -2.2568 0.9764
0.4430 5.4983 -2.2564 0.9764
0.4089 5.5005 -2.2562 0.9764
0.1704 5.5098 -2.2549 0.9765
0.0682 5.5106 -2.2544 0.9765
-0.1022 5.5078 -2.2534 0.9765
-0.1363 5.5066 -2.2532 0.9765
-0.2043 5.5036 -2.2529 0.9765
-0.2383 5.5018 -2.2527 0.9765
-0.2723 5.4997 -2.2525 0.9765
-0.3063 5.4975 -2.2523 0.9765
-0.3403 5.4950 -2.2521 0.9765
-0.4759 5.4830 -2.2513 0.9765
-0.5098 5.4795 -2.2512 0.9765
-0.5774 5.4719 -2.2508 0.9765
-0.6112 5.4677 -2.2506 0.9765
-0.7123 5.4541 -2.2500 0.9765
-0.7460 5.4491 -2.2498 0.9765
-0.8132 5.4385 -2.2494 0.9765
-0.8467 5.4329 -2.2492 0.9765
-0.9805 5.4085 -2.2485 0.9765
-1.0471 5.3950 -2.2481 0.9765
-1.1468 5.3733 -2.2475 0.9765
-1.3118 5.3330 -2.2466 0.9765
-1.3774 5.3155 -2.2462 0.9765
-1.5080 5.2780 -2.2454 0.9766
-1.5404 5.2681 -2.2452 0.9766
-1.5729 5.2581 -2.2450 0.9766
-1.6052 5.2478 -2.2449 0.9766
-1.6697 5.2267 -2.2445 0.9766
-1.7339 5.2047 -2.2441 0.9766
-1.7659 5.1935 -2.2439 0.9766
-1.8298 5.1704 -2.2435 0.9766
-1.8615 5.1585 -2.2433 0.9766
-1.9564 5.1218 -2.2428 0.9766
-2.0192 5.0963 -2.2424 0.9766
-2.1750 5.0294 -2.2415 0.9766
-2.2058 5.0154 -2.2413 0.9766
-2.3284 4.9577 -2.2405 0.9766
-2.4194 4.9124 -2.2400 0.9766
-2.4496 4.8970 -2.2398 0.9766
-2.5095 4.8655 -2.2394 0.9766
-2.5393 4.8495 -2.2393 0.9766
-2.5691 4.8333 -2.2391 0.9766
-2.6577 4.7837 -2.2385 0.9766
-2.7656 4.7674 -2.2546 0.9765
-2.8047 4.7667 -2.2624 0.9764
-2.8837 4.7650 -2.2784 0.9762
-3.0450 4.7616 -2.3120 0.9759
-3.0860 4.7607 -2.3208 0.9758
-3.2111 4.7578 -2.3480 0.9755
-3.2960 4.7557 -2.3669 0.9753
-3.4120 4.7330 -2.3867 0.9751
-3.4697 4.6897 -2.3864 0.9751
-3.5553 4.6235 -2.3858 0.9751
-3.5836 4.6011 -2.3856 0.9751
-3.6117 4.5785 -2.3855 0.9751
-3.6396 4.5557 -2.3853 0.9751
-3.6952 4.5097 -2.3849 0.9751
-3.7227 4.4864 -2.3847 0.9751
-3.7501 4.4629 -2.3846 0.9751
-3.8314 4.3916 -2.3840 0.9751
-3.8582 4.3675 -2.3839 0.9751
-3.8849 4.3433 -2.3837 0.9751
-3.9377 4.2943 -2.3833 0.9751
-3.9639 4.2695 -2.3832 0.9751
-3.9899 4.2446 -2.3830 0.9751
-4.0158 4.2196 -2.3828 0.9751
-4.0415 4.1943 -2.3826 0.9751
-4.0925 4.1435 -2.3823 0.9751
-4.1429 4.0920 -2.3820 0.9751
-4.1678 4.0660 -2.3818 0.9752
-4.1926 4.0398 -2.3816 0.9752
-4.2417 3.9871 -2.3813 0.9752
-4.2659 3.9605 -2.3812 0.9752
-4.2901 3.9338 -2.3810 0.9752
-4.3378 3.8799 -2.3807 0.9752
-4.4081 3.7980 -2.3802 0.9752
-4.4312 3.7704 -2.3800 0.9752
-4.4542 3.7427 -2.3799 0.9752
-4.4995 3.6868 -2.3796 0.9752
-4.5442 3.6304 -2.3792 0.9752
-4.5662 3.6020 -2.3791 0.9752
-4.5882 3.5735 -2.3789 0.9752
-4.6099 3.5448 -2.3788 0.9752
-4.6314 3.5160 -2.3786 0.9752
-4.6528 3.4871 -2.3785 0.9752
-4.6740 3.4580 -2.3783 0.9752
-4.6950 3.4288 -2.3782 0.9752
-4.7158 3.3996 -2.3780 0.9752
-4.7569 3.3405 -2.3777 0.9752
-4.7772 3.3109 -2.3776 0.9752
-4.7972 3.2811 -2.3775 0.9752
-4.8369 3.2211 -2.3772 0.9752
-4.8564 3.1909 -2.3770 0.9752
-4.9513 3.0384 -2.3763 0.9752
-5.0060 2.9455 -2.3759 0.9752
-5.0238 2.9143 -2.3758 0.9752
-5.0762 2.8201 -2.3754 0.9752
-5.0932 2.7885 -2.3753 0.9752
-5.1268 2.7250 -2.3750 0.9752
-5.1756 2.6290 -2.3746 0.9752
-5.2227 2.5322 -2.3743 0.9752
-5.2380 2.4997 -2.3742 0.9752
-5.2680 2.4345 -2.3739 0.9752
-5.2971 2.3689 -2.3737 0.9752
-5.3255 2.3030 -2.3734 0.9752
-5.3666 2.2035 -2.3731 0.9752
-5.3799 2.1701 -2.3730 0.9752
-5.4309 2.0360 -2.3726 0.9752
-5.4431 2.0023 -2.3725 0.9752
-5.4786 1.9008 -2.3722 0.9752
-5.4901 1.8668 -2.3721 0.9753
-5.5013 1.8327 -2.3720 0.9753
-5.5738 1.5925 -2.3713 0.9753
-5.6361 1.3494 -2.3707 0.9753
-5.6519 1.2795 -2.3705 0.9753
-5.6741 1.1743 -2.3703 0.9753
-5.6811 1.1392 -2.3702 0.9753
-5.7007 1.0335 -2.3700 0.9753
-5.7389 0.7856 -2.3695 0.9753
-5.7435 0.7501 -2.3694 0.9753
-5.7479 0.7146 -2.3693 0.9753
-5.7520 0.6790 -2.3693 0.9753
-5.7560 0.6434 -2.3692 0.9753
-5.7597 0.6078 -2.3692 0.9753
-5.7632 0.5721 -2.3691 0.9753
-5.7665 0.5365 -2.3690 0.9753
-5.7695 0.5008 -2.3690 0.9753
-5.7774 0.3936 -2.3688 0.9753
-5.7817 0.3221 -2.3687 0.9753
-5.7834 0.2863 -2.3687 0.9753
-5.7862 0.2148 -2.3686 0.9753
-5.7874 0.1790 -2.3685 0.9753
-5.7893 0.0716 -2.3684 0.9753
-5.7896 0.0358 -2.3683 0.9753
-5.6707 -0.0000 -2.3690 0.9757
-5.6705 -0.0351 -2.3689 0.9757
-5.6648 -0.2454 -2.3687 0.9757
-5.6514 -0.4553 -2.3686 0.9757
-5.6484 -0.4903 -2.3685 0.9757
-5.6452 -0.5252 -2.3685 0.9757
-5.6418 -0.5601 -2.3685 0.9757
-5.6382 -0.5950 -2.3685 0.9757
-5.6344 -0.6298 -2.3685 0.9757
-5.6261 -0.6994 -2.3684 0.9757
-5.6170 -0.7690 -2.3684 0.9757
-5.6121 -0.8037 -2.3684 0.9757
-5.6017 -0.8730 -2.3684 0.9757
-5.5844 -0.9768 -2.3683 0.9757
-5.5719 -1.0458 -2.3683 0.9757
-5.5653 -1.0802 -2.3683 0.9757
-5.5515 -1.1490 -2.3683 0.9757
-5.5443 -1.1833 -2.3683 0.9757
-5.5293 -1.2517 -2.3683 0.9757
-5.5214 -1.2859 -2.3683 0.9757
-5.5051 -1.3541 -2.3684 0.9757
-5.4967 -1.3881 -2.3684 0.9757
-5.4608 -1.5237 -2.3684 0.9757
-5.4513 -1.5575 -2.3684 0.9757
-5.4215 -1.6584 -2.3685 0.9757
-5.4112 -1.6919 -2.3685 0.9757
-5.3791 -1.7920 -2.3686 0.9757
-5.3214 -1.9576 -2.3687 0.9757
-5.2969 -2.0233 -2.3688 0.9757
-5.2322 -2.1863 -2.3689 0.9757
-5.2187 -2.2186 -2.3690 0.9757
-5.1910 -2.2830 -2.3690 0.9757
-5.1769 -2.3152 -2.3691 0.9757
-5.1480 -2.3791 -2.3692 0.9757
-5.1333 -2.4109 -2.3692 0.9757
-5.0880 -2.5059 -2.3694 0.9757
-5.0725 -2.5374 -2.3694 0.9757
-4.9588 -2.7550 -2.3698 0.9757
-4.9418 -2.7856 -2.3699 0.9757
-4.8175 -2.9975 -2.3703 0.9757
-4.7232 -3.1454 -2.3707 0.9757
-4.6446 -3.2617 -2.3710 0.9757
-4.6042 -3.3191 -2.3711 0.9757
-4.5837 -3.3476 -2.3712 0.9757
-4.5631 -3.3761 -2.3713 0.9757
-4.5423 -3.4043 -2.3714 0.9757
-4.5213 -3.4325 -2.3714 0.9757
-4.5002 -3.4605 -2.3715 0.9757
-4.4573 -3.5161 -2.3717 0.9757
-4.3697 -3.6259 -2.3721 0.9757
-4.3474 -3.6530 -2.3722 0.9757
-4.3248 -3.6799 -2.3723 0.9757
-4.2099 -3.8127 -2.3727 0.9757
-4.1389 -3.8906 -2.3730 0.9757
-4.1150 -3.9163 -2.3731 0.9757
-4.0909 -3.9418 -2.3732 0.9757
-4.0421 -3.9925 -2.3735 0.9757
-4.0176 -4.0176 -2.3736 0.9757
-3.9928 -4.0425 -2.3737 0.9757
-3.9429 -4.0920 -2.3739 0.9757
-3.8923 -4.1408 -2.3741 0.9757
-3.7895 -4.2367 -2.3746 0.9757
-3.7371 -4.2836 -2.3748 0.9757
-3.7108 -4.3069 -2.3749 0.9757
-3.6576 -4.3529 -2.3752 0.9757
-3.6308 -4.3757 -2.3753 0.9757
-3.5768 -4.4207 -2.3755 0.9757
-3.5496 -4.4429 -2.3757 0.9756
-3.4947 -4.4870 -2.3759 0.9756
-3.4393 -4.5304 -2.3762 0.9756
-3.4114 -4.5518 -2.3763 0.9756
-3.3552 -4.5941 -2.3766 0.9756
-3.3269 -4.6151 -2.3767 0.9756
-3.2985 -4.6358 -2.3768 0.9756
-3.2700 -4.6564 -2.3770 0.9756
-3.2125 -4.6970 -2.3772 0.9756
-3.1836 -4.7170 -2.3774 0.9756
-3.1253 -4.7566 -2.3777 0.9756
-3.0667 -4.7955 -2.3779 0.9756
-3.0074 -4.8336 -2.3782 0.9756
-2.9777 -4.8524 -2.3784 0.9756
-2.9178 -4.8895 -2.3786 0.9756
-2.8575 -4.9258 -2.3789 0.9756
-2.8271 -4.9437 -2.3791 0.9756
-2.7966 -4.9613 -2.3792 0.9756
-2.6737 -5.0303 -2.3798 0.9756
-2.6428 -5.0471 -2.3800 0.9756
-2.5804 -5.0800 -2.3803 0.9756
-2.5492 -5.0962 -2.3805 0.9756
-2.5177 -5.1122 -2.3806 0.9756
-2.4546 -5.1436 -2.3809 0.9756
-2.4230 -5.1590 -2.3811 0.9756
-2.3273 -5.2041 -2.3816 0.9756
-2.2953 -5.2188 -2.3817 0.9756
-2.1335 -5.2891 -2.3825 0.9756
-2.1009 -5.3025 -2.3827 0.9756
-2.0354 -5.3288 -2.3830 0.9756
-1.9367 -5.3668 -2.3835 0.9756
-1.8704 -5.3911 -2.3839 0.9756
-1.8372 -5.4030 -2.3840 0.9756
-1.7370 -5.4373 -2.3845 0.9756
-1.7035 -5.4483 -2.3847 0.9756
-1.6024 -5.4802 -2.3852 0.9756
-1.5686 -5.4904 -2.3854 0.9756
-1.5008 -5.5102 -2.3858 0.9755
-1.4669 -5.5198 -2.3859 0.9755
-1.4328 -5.5292 -2.3861 0.9755
-1.3645 -5.5473 -2.3865 0.9755
-1.3302 -5.5560 -2.3867 0.9755
-1.2960 -5.5645 -2.3868 0.9755
-1.2616 -5.5729 -2.3870 0.9755
-1.1583 -5.5966 -2.3876 0.9755
-0.9503 -5.6383 -2.3887 0.9755
-0.8457 -5.6563 -2.3892 0.9755
-0.7758 -5.6672 -2.3896 0.9755
-0.7408 -5.6723 -2.3898 0.9755
-0.7058 -5.6772 -2.3900 0.9755
-0.6707 -5.6820 -2.3901 0.9755
-0.6356 -5.6864 -2.3903 0.9755
-0.6005 -5.6907 -2.3905 0.9755
-0.5653 -5.6948 -2.3907 0.9755
-0.5301 -5.6986 -2.3909 0.9755
-0.4597 -5.7056 -2.3913 0.9755
-0.4244 -5.7088 -2.3915 0.9755
-0.3892 -5.7118 -2.3917 0.9755
-0.3538 -5.7146 -2.3919 0.9755
-0.2832 -5.7194 -2.3922 0.9755
-0.2478 -5.7215 -2.3924 0.9755
-0.2125 -5.7234 -2.3926 0.9755
-0.1771 -5.7251 -2.3928 0.9755
-0.1417 -5.7265 -2.3930 0.9755
-0.0709 -5.7288 -2.3934 0.9755
0.0354 -5.7305 -2.3940 0.9755
0.1063 -5.7306 -2.3944 0.9755
0.2127 -5.7290 -2.3950 0.9755
0.2481 -5.7281 -2.3952 0.9755
0.3899 -5.7220 -2.3959 0.9754
0.4960 -5.7152 -2.3965 0.9754
0.5314 -5.7125 -2.3967 0.9754
0.5668 -5.7096 -2.3969 0.9754
0.6375 -5.7031 -2.3973 0.9754
0.6728 -5.6995 -2.3975 0.9754
0.7081 -5.6957 -2.3977 0.9754
0.7786 -5.6875 -2.3981 0.9754
0.9194 -5.6684 -2.3989 0.9754
0.9545 -5.6630 -2.3991 0.9754
0.9896 -5.6575 -2.3993 0.9754
1.0596 -5.6458 -2.3997 0.9754
1.1296 -5.6332 -2.4001 0.9754
1.2342 -5.6126 -2.4007 0.9754
1.3037 -5.5979 -2.4011 0.9754
1.3384 -5.5902 -2.4013 0.9754
1.3730 -5.5823 -2.4015 0.9754
1.4077 -5.5741 -2.4017 0.9754
1.5457 -5.5394 -2.4025 0.9754
1.6143 -5.5208 -2.4029 0.9754
1.6828 -5.5013 -2.4033 0.9754
1.7169 -5.4913 -2.4035 0.9754
1.7510 -5.4810 -2.4037 0.9754
1.8189 -5.4599 -2.4041 0.9754
1.8528 -5.4490 -2.4043 0.9754
1.9877 -5.4032 -2.4051 0.9754
2.0212 -5.3913 -2.4053 0.9753
2.0547 -5.3791 -2.4055 0.9753
2.0881 -5.3667 -2.4057 0.9753
2.1546 -5.3414 -2.4061 0.9753
2.1878 -5.3284 -2.4063 0.9753
2.2209 -5.3152 -2.4065 0.9753
2.2869 -5.2882 -2.4069 0.9753
2.3197 -5.2744 -2.4071 0.9753
2.3851 -5.2462 -2.4075 0.9753
2.4827 -5.2023 -2.4081 0.9753
2.5150 -5.1872 -2.4083 0.9753
2.5472 -5.1720 -2.4085 0.9753
2.5794 -5.1566 -2.4087 0.9753
2.6752 -5.1091 -2.4092 0.9753
2.7387 -5.0764 -2.4096 0.9753
2.8017 -5.0429 -2.4100 0.9753
2.8331 -5.0259 -2.4102 0.9753
2.8643 -5.0087 -2.4104 0.9753
2.9265 -4.9737 -2.4108 0.9753
2.9574 -4.9559 -2.4110 0.9753
2.9883 -4.9379 -2.4112 0.9753
3.1407 -4.8450 -2.4121 0.9753
3.2009 -4.8066 -2.4125 0.9753
3.2308 -4.7870 -2.4127 0.9753
3.2606 -4.7674 -2.4128 0.9753
3.3198 -4.7274 -2.4132 0.9753
3.3493 -4.7071 -2.4134 0.9753
3.4657 -4.6242 -2.4141 0.9753
3.4945 -4.6031 -2.4143 0.9753
3.5801 -4.5385 -2.4149 0.9753
3.6084 -4.5166 -2.4150 0.9753
3.6365 -4.4945 -2.4152 0.9752
3.6645 -4.4723 -2.4154 0.9752
3.6924 -4.4498 -2.4156 0.9752
3.7201 -4.4273 -2.4158 0.9752
3.7477 -4.4045 -2.4159 0.9752
3.7752 -4.3816 -2.4161 0.9752
3.8296 -4.3352 -2.4165 0.9752
3.8566 -4.3117 -2.4166 0.9752
3.8835 -4.2881 -2.4168 0.9752
3.9102 -4.2643 -2.4170 0.9752
3.9368 -4.2404 -2.4172 0.9752
4.0416 -4.1429 -2.4179 0.9752
4.0674 -4.1181 -2.4180 0.9752
4.0931 -4.0931 -2.4182 0.9752
4.1186 -4.0680 -2.4184 0.9752
4.1440 -4.0427 -2.4185 0.9752
4.2192 -3.9660 -2.4190 0.9752
4.2439 -3.9401 -2.4192 0.9752
4.2685 -3.9140 -2.4194 0.9752
4.3171 -3.8615 -2.4197 0.9752
4.4359 -3.7274 -2.4205 0.9752
4.4592 -3.7001 -2.4207 0.9752
4.5052 -3.6452 -2.4210 0.9752
4.5952 -3.5335 -2.4216 0.9752
4.6172 -3.5053 -2.4217 0.9752
4.6823 -3.4196 -2.4222 0.9752
4.7248 -3.3619 -2.4225 0.9752
4.7459 -3.3328 -2.4226 0.9752
4.7666 -3.3036 -2.4228 0.9752
4.7873 -3.2743 -2.4229 0.9752
4.8077 -3.2448 -2.4231 0.9752
4.8680 -3.1556 -2.4235 0.9752
4.8877 -3.1256 -2.4237 0.9752
4.9266 -3.0653 -2.4239 0.9752
4.9457 -3.0349 -2.4241 0.9752
4.9834 -2.9739 -2.4244 0.9752
5.0386 -2.8814 -2.4248 0.9752
5.0744 -2.8192 -2.4250 0.9751
5.1094 -2.7565 -2.4253 0.9751
5.1266 -2.7250 -2.4254 0.9751
5.1437 -2.6934 -2.4256 0.9751
5.2258 -2.5337 -2.4262 0.9751
5.2417 -2.5015 -2.4263 0.9751
5.2727 -2.4367 -2.4266 0.9751
5.2880 -2.4042 -2.4267 0.9751
5.3178 -2.3388 -2.4269 0.9751
5.3611 -2.2401 -2.4273 0.9751
5.3751 -2.2070 -2.4274 0.9751
5.3888 -2.1738 -2.4275 0.9751
5.4025 -2.1405 -2.4276 0.9751
5.4159 -2.1072 -2.4277 0.9751
5.4290 -2.0738 -2.4278 0.9751
5.4673 -1.9729 -2.4281 0.9751
5.5492 -1.7350 -2.4289 0.9751
5.5600 -1.7007 -2.4290 0.9751
5.5706 -1.6664 -2.4291 0.9751
5.5811 -1.6319 -2.4292 0.9751
5.5913 -1.5975 -2.4293 0.9751
5.6013 -1.5629 -2.4293 0.9751
5.6110 -1.5283 -2.4294 0.9751
5.6206 -1.4936 -2.4295 0.9751
5.6299 -1.4589 -2.4296 0.9751
5.6390 -1.4241 -2.4297 0.9751
5.6567 -1.3543 -2.4299 0.9751
5.6651 -1.3194 -2.4300 0.9751
5.6734 -1.2844 -2.4301 0.9751
5.6892 -1.2142 -2.4302 0.9751
5.7113 -1.1085 -2.4305 0.9751
5.7182 -1.0733 -2.4305 0.9751
5.7249 -1.0379 -2.4306 0.9751
5.7314 -1.0025 -2.4307 0.9751
5.7438 -0.9316 -2.4308 0.9751
5.7552 -0.8605 -2.4310 0.9751
5.7706 -0.7537 -2.4312 0.9751
5.7754 -0.7180 -2.4313 0.9751
5.7919 -0.5750 -2.4315 0.9751
5.7955 -0.5392 -2.4316 0.9751
5.8076 -0.3957 -2.4318 0.9751
5.8123 -0.3239 -2.4319 0.9751
5.8177 -0.2160 -2.4320 0.9751
5.8191 -0.1800 -2.4321 0.9751
5.8202 -0.1440 -2.4321 0.9751
5.8221 -0.0360 -2.4323 0.9751
5.8223 -0.0000 -2.4323 0.9751
5.8216 0.1080 -2.4324 0.9751
5.8188 0.2160 -2.4325 0.9751
5.8159 0.2880 -2.4326 0.9751
5.8141 0.3239 -2.4326 0.9751
5.8120 0.3599 -2.4327 0.9751
5.8073 0.4317 -2.4327 0.9751
5.7985 0.5394 -2.4328 0.9751
5.7950 0.5753 -2.4328 0.9751
5.7914 0.6111 -2.4328 0.9751
5.7876 0.6469 -2.4329 0.9751
5.7747 0.7542 -2.4329 0.9751
5.7700 0.7899 -2.4329 0.9751
5.7650 0.8256 -2.4329 0.9751
5.7488 0.9324 -2.4330 0.9751
5.7429 0.9679 -2.4330 0.9751
5.7305 1.0389 -2.4330 0.9751
5.7172 1.1097 -2.4330 0.9751
5.7103 1.1450 -2.4330 0.9751
5.7031 1.1803 -2.4330 0.9751
5.6957 1.2155 -2.4330 0.9751
5.6880 1.2508 -2.4330 0.9751
5.6553 1.3910 -2.4330 0.9751
5.6466 1.4260 -2.4329 0.9751
5.6191 1.5305 -2.4329 0.9751
5.5996 1.5998 -2.4329 0.9751
5.5896 1.6344 -2.4329 0.9751
5.5362 1.8064 -2.4328 0.9751
5.5133 1.8747 -2.4327 0.9751
5.5015 1.9087 -2.4327 0.9751
5.4896 1.9427 -2.4327 0.9751
5.4650 2.0104 -2.4326 0.9751
5.4524 2.0441 -2.4326 0.9751
5.4396 2.0778 -2.4325 0.9751
5.4265 2.1113 -2.4325 0.9751
5.3998 2.1782 -2.4324 0.9751
5.3862 2.2115 -2.4324 0.9751
5.3148 2.3768 -2.4322 0.9751
5.2539 2.5073 -2.4320 0.9751
5.2223 2.5720 -2.4319 0.9751
5.2062 2.6042 -2.4318 0.9751
5.1899 2.6363 -2.4318 0.9751
5.1734 2.6683 -2.4317 0.9751
5.1226 2.7636 -2.4316 0.9751
5.1053 2.7952 -2.4315 0.9751
5.0878 2.8266 -2.4314 0.9751
5.0522 2.8892 -2.4313 0.9751
4.9973 2.9822 -2.4311 0.9751
4.9597 3.0436 -2.4310 0.9751
4.9407 3.0741 -2.4309 0.9751
4.9214 3.1045 -2.4308 0.9751
4.9020 3.1348 -2.4308 0.9751
4.8224 3.2546 -2.4305 0.9751
4.8020 3.2843 -2.4304 0.9751
4.7814 3.3138 -2.4303 0.9751
4.7607 3.3432 -2.4302 0.9751
4.7398 3.3725 -2.4301 0.9751
4.6973 3.4306 -2.4300 0.9751
4.6759 3.4595 -2.4299 0.9751
4.6104 3.5452 -2.4296 0.9751
4.5882 3.5736 -2.4295 0.9751
4.5433 3.6297 -2.4293 0.9751
4.5206 3.6576 -2.4292 0.9751
4.4977 3.6854 -2.4292 0.9751
4.4281 3.7677 -2.4289 0.9751
4.3807 3.8219 -2.4287 0.9751
4.3328 3.8754 -2.4285 0.9751
4.3086 3.9020 -2.4284 0.9751
4.2842 3.9284 -2.4282 0.9751
4.2596 3.9547 -2.4281 0.9751
4.2100 4.0067 -2.4279 0.9751
4.1849 4.0325 -2.4278 0.9751
4.1597 4.0581 -2.4277 0.9751
4.0832 4.1340 -2.4274 0.9751
3.8991 4.3053 -2.4265 0.9751
3.8722 4.3292 -2.4264 0.9751
3.8452 4.3528 -2.4263 0.9751
3.7907 4.3996 -2.4261 0.9751
3.7355 4.4457 -2.4258 0.9751
3.7078 4.4684 -2.4257 0.9751
3.6799 4.4910 -2.4255 0.9751
3.5669 4.5797 -2.4250 0.9751
3.5383 4.6014 -2.4249 0.9752
3.3014 4.6398 -2.3789 0.9756
3.2596 4.6415 -2.3694 0.9757
3.0972 4.6509 -2.3343 0.9761
3.0574 4.6531 -2.3259 0.9762
3.0178 4.6554 -2.3177 0.9762
2.9394 4.6597 -2.3016 0.9764
2.8256 4.6690 -2.2799 0.9766
2.7898 4.6750 -2.2743 0.9767
2.7543 4.6809 -2.2689 0.9767
2.6657 4.7290 -2.2678 0.9767
2.6362 4.7451 -2.2677 0.9767
2.4574 4.8378 -2.2668 0.9768
2.4273 4.8525 -2.2666 0.9768
2.3668 4.8815 -2.2663 0.9768
2.3364 4.8957 -2.2662 0.9768
2.3059 4.9098 -2.2660 0.9768
2.2447 4.9373 -2.2657 0.9768
2.2140 4.9507 -2.2656 0.9768
2.1523 4.9770 -2.2653 0.9768
2.1213 4.9899 -2.2651 0.9768
2.0592 5.0150 -2.2648 0.9768
1.8393 5.0969 -2.2637 0.9768
1.8076 5.1078 -2.2635 0.9768
1.7758 5.1185 -2.2634 0.9768
1.7121 5.1394 -2.2630 0.9768
1.6802 5.1495 -2.2629 0.9768
1.6482 5.1594 -2.2627 0.9768
1.6162 5.1691 -2.2625 0.9768
1.5519 5.1880 -2.2622 0.9768
1.5197 5.1971 -2.2620 0.9768
1.4227 5.2232 -2.2615 0.9768
1.2926 5.2552 -2.2608 0.9768
1.1619 5.2840 -2.2602 0.9768
0.9976 5.3153 -2.2593 0.9768
0.9646 5.3210 -2.2591 0.9768
0.9316 5.3264 -2.2589 0.9768
0.8986 5.3317 -2.2588 0.9768
0.8325 5.3415 -2.2584 0.9768
0.7662 5.3506 -2.2580 0.9768
0.6667 5.3626 -2.2575 0.9768
0.5337 5.3757 -2.2568 0.9769
0.4671 5.3811 -2.2564 0.9769
0.4338 5.3834 -2.2563 0.9769
0.3337 5.3892 -2.2557 0.9769
0.2670 5.3921 -2.2553 0.9769
0.1669 5.3948 -2.2548 0.9769
0.0668 5.3956 -2.2542 0.9769
0.0334 5.3955 -2.2541 0.9769
-0.1001 5.3929 -2.2533 0.9769
-0.1334 5.3918 -2.2531 0.9769
-0.2001 5.3888 -2.2528 0.9769
-0.2334 5.3870 -2.2526 0.9769
-0.3332 5.3804 -2.2520 0.9769
-0.3664 5.3778 -2.2518 0.9769
-0.4328 5.3720 -2.2515 0.9769
-0.4660 5.3688 -2.2513 0.9769
-0.5323 5.3617 -2.2509 0.9769
-0.5654 5.3579 -2.2507 0.9769
-0.5985 5.3538 -2.2505 0.9769
-0.6645 5.3451 -2.2502 0.9769
-0.7305 5.3356 -2.2498 0.9769
-0.8619 5.3141 -2.2490 0.9769
-0.9928 5.2895 -2.2483 0.9769
-1.0253 5.2828 -2.2481 0.9769
-1.0904 5.2688 -2.2477 0.9769
-1.1229 5.2615 -2.2475 0.9769
-1.1877 5.2463 -2.2472 0.9770
-1.2523 5.2304 -2.2468 0.9770
-1.2845 5.2221 -2.2466 0.9770
-1.3167 5.2136 -2.2464 0.9770
-1.3808 5.1961 -2.2460 0.9770
-1.5084 5.1586 -2.2453 0.9770
-1.5402 5.1488 -2.2451 0.9770
-1.6035 5.1285 -2.2447 0.9770
-1.6350 5.1181 -2.2446 0.9770
-1.6665 5.1074 -2.2444 0.9770
-1.6979 5.0966 -2.2442 0.9770
-1.7293 5.0855 -2.2440 0.9770
-1.7917 5.0630 -2.2436 0.9770
-1.8229 5.0514 -2.2434 0.9770
-1.9158 5.0155 -2.2429 0.9770
-1.9466 5.0031 -2.2427 0.9770
-2.0386 4.9649 -2.2422 0.9770
-2.0691 4.9518 -2.2420 0.9770
-2.0995 4.9385 -2.2418 0.9770
-2.2503 4.8693 -2.2409 0.9770
-2.3396 4.8255 -2.2403 0.9770
-2.3692 4.8106 -2.2402 0.9770
-2.4620 4.7733 -2.2437 0.9770
-2.5696 4.7629 -2.2608 0.9768
-2.6073 4.7622 -2.2681 0.9767
-2.6836 4.7607 -2.2830 0.9766
-2.7608 4.7592 -2.2985 0.9764
-2.8786 4.7567 -2.3227 0.9762
-2.9185 4.7558 -2.3310 0.9761
-2.9585 4.7549 -2.3395 0.9760
-3.0805 4.7522 -2.3659 0.9757
-3.1218 4.7512 -2.3750 0.9757
-3.1977 4.7379 -2.3879 0.9755
-3.2267 4.7177 -2.3877 0.9755
-3.2555 4.6973 -2.3875 0.9755
-3.2843 4.6767 -2.3874 0.9755
-3.3129 4.6560 -2.3872 0.9755
-3.3413 4.6351 -2.3870 0.9755
-3.3697 4.6139 -2.3868 0.9755
-3.3979 4.5927 -2.3866 0.9755
-3.4539 4.5496 -2.3863 0.9755
-3.5094 4.5059 -2.3859 0.9755
-3.5370 4.4838 -2.3858 0.9755
-3.6187 4.4164 -2.3852 0.9756
-3.6992 4.3475 -2.3847 0.9756
-3.8305 4.2296 -2.3839 0.9756
-3.9075 4.1569 -2.3833 0.9756
-3.9831 4.0828 -2.3828 0.9756
-4.0080 4.0578 -2.3827 0.9756
-4.0327 4.0327 -2.3825 0.9756
-4.0573 4.0074 -2.3824 0.9756
-4.0818 3.9820 -2.3822 0.9756
-4.1060 3.9564 -2.3820 0.9756
-4.1301 3.9307 -2.3819 0.9756
-4.1779 3.8788 -2.3815 0.9756
-4.2015 3.8526 -2.3814 0.9756
-4.3622 3.6655 -2.3803 0.9756
-4.3846 3.6382 -2.3801 0.9756
-4.4067 3.6108 -2.3800 0.9756
-4.4504 3.5555 -2.3797 0.9756
-4.5148 3.4717 -2.3792 0.9756
-4.5359 3.4435 -2.3791 0.9756
-4.5776 3.3867 -2.3788 0.9756
-4.6588 3.2717 -2.3782 0.9756
-4.6786 3.2426 -2.3781 0.9756
-4.6984 3.2134 -2.3779 0.9756
-4.7178 3.1841 -2.3778 0.9756
-4.8126 3.0358 -2.3771 0.9756
-4.9376 2.8236 -2.3762 0.9756
-4.9716 2.7620 -2.3759 0.9756
-4.9883 2.7311 -2.3758 0.9756
-5.0212 2.6689 -2.3755 0.9757
-5.0373 2.6377 -2.3754 0.9757
-5.0533 2.6063 -2.3753 0.9757
-5.0691 2.5749 -2.3752 0.9757
-5.1739 2.3523 -2.3743 0.9757
-5.1881 2.3201 -2.3742 0.9757
-5.2159 2.2556 -2.3740 0.9757
-5.2295 2.2232 -2.3739 0.9757
-5.2429 2.1907 -2.3738 0.9757
-5.2691 2.1255 -2.3736 0.9757
-5.2946 2.0600 -2.3733 0.9757
-5.3069 2.0271 -2.3732 0.9757
-5.3192 1.9942 -2.3731 0.9757
-5.3429 1.9280 -2.3729 0.9757
-5.3545 1.8949 -2.3728 0.9757
-5.3771 1.8284 -2.3726 0.9757
-5.3881 1.7950 -2.3725 0.9757
-5.4198 1.6946 -2.3722 0.9757
-5.4592 1.5597 -2.3719 0.9757
-5.4686 1.5259 -2.3718 0.9757
-5.4866 1.4580 -2.3716 0.9757
-5.4953 1.4240 -2.3715 0.9757
-5.5038 1.3899 -2.3714 0.9757
-5.5121 1.3558 -2.3714 0.9757
-5.5202 1.3217 -2.3713 0.9757
-5.5432 1.2189 -2.3710 0.9757
-5.5505 1.1846 -2.3710 0.9757
-5.5709 1.0813 -2.3707 0.9757
-5.5774 1.0468 -2.3707 0.9757
-5.5835 1.0122 -2.3706 0.9757
-5.5895 0.9776 -2.3705 0.9757
-5.6009 0.9084 -2.3704 0.9757
-5.6062 0.8737 -2.3703 0.9757
-5.6113 0.8390 -2.3702 0.9757
-5.6298 0.6999 -2.3700 0.9757
-5.6338 0.6650 -2.3699 0.9757
-5.6448 0.5604 -2.3697 0.9757
-5.6480 0.5254 -2.3697 0.9757
-5.6510 0.4905 -2.3696 0.9757
-5.6538 0.4555 -2.3696 0.9757
-5.6564 0.4205 -2.3695 0.9757
-5.6587 0.3855 -2.3695 0.9757
-5.6629 0.3155 -2.3694 0.9757
-5.6674 0.2104 -2.3692 0.9757
-5.6685 0.1753 -2.3692 0.9757
-5.6693 0.1403 -2.3691 0.9757
-5.6704 0.0701 -2.3690 0.9757
-5.6707 0.0351 -2.3690 0.9757
-5.5559 0.0000 -2.3696 0.9761
-5.5557 -0.0344 -2.3696 0.9761
-5.5547 -0.1031 -2.3695 0.9761
-5.5528 -0.1718 -2.3694 0.9761
-5.5484 -0.2747 -2.3693 0.9761
-5.5466 -0.3090 -2.3693 0.9761
-5.5397 -0.4119 -2.3692 0.9761
-5.5370 -0.4461 -2.3692 0.9761
-5.5341 -0.4804 -2.3692 0.9761
-5.5164 -0.6512 -2.3691 0.9761
-5.4934 -0.8214 -2.3690 0.9761
-5.4882 -0.8553 -2.3690 0.9761
-5.4828 -0.8893 -2.3690 0.9761
-5.4772 -0.9232 -2.3690 0.9761
-5.4714 -0.9570 -2.3690 0.9761
-5.4653 -0.9908 -2.3690 0.9761
-5.4527 -1.0583 -2.3690 0.9761
-5.4321 -1.1593 -2.3690 0.9761
-5.4173 -1.2264 -2.3690 0.9761
-5.4018 -1.2933 -2.3690 0.9761
-5.3854 -1.3601 -2.3690 0.9761
-5.3682 -1.4266 -2.3690 0.9761
-5.3593 -1.4597 -2.3690 0.9761
-5.3314 -1.5589 -2.3691 0.9761
-5.3217 -1.5919 -2.3691 0.9761
-5.3118 -1.6248 -2.3691 0.9761
-5.3017 -1.6576 -2.3691 0.9761
-5.2593 -1.7883 -2.3692 0.9761
-5.2369 -1.8533 -2.3693 0.9761
-5.2137 -1.9179 -2.3693 0.9761
-5.1897 -1.9823 -2.3694 0.9761
-5.0995 -2.2053 -2.3696 0.9761
-5.0720 -2.2683 -2.3697 0.9761
-5.0580 -2.2996 -2.3698 0.9761
-5.0294 -2.3621 -2.3698 0.9761
-5.0148 -2.3932 -2.3699 0.9761
-4.9850 -2.4551 -2.3700 0.9761
-4.8911 -2.6387 -2.3703 0.9761
-4.8748 -2.6690 -2.3704 0.9761
-4.8248 -2.7592 -2.3705 0.9761
-4.8078 -2.7890 -2.3706 0.9761
-4.7906 -2.8188 -2.3707 0.9761
-4.7556 -2.8779 -2.3708 0.9761
-4.7379 -2.9074 -2.3708 0.9761
-4.6835 -2.9950 -2.3710 0.9761
-4.6275 -3.0817 -2.3713 0.9761
-4.5894 -3.1389 -2.3714 0.9761
-4.5700 -3.1673 -2.3715 0.9761
-4.5504 -3.1956 -2.3716 0.9761
-4.5308 -3.2238 -2.3716 0.9761
-4.5109 -3.2518 -2.3717 0.9761
-4.4706 -3.3076 -2.3719 0.9761
-4.4297 -3.3629 -2.3720 0.9761
-4.4090 -3.3903 -2.3721 0.9761
-4.3881 -3.4177 -2.3722 0.9761
-4.3670 -3.4448 -2.3723 0.9761
-4.3458 -3.4719 -2.3724 0.9761
-4.2149 -3.6316 -2.3729 0.9761
-4.1700 -3.6837 -2.3731 0.9761
-4.1473 -3.7096 -2.3732 0.9761
-4.1015 -3.7609 -2.3734 0.9761
-4.0783 -3.7864 -2.3735 0.9761
-3.9118 -3.9605 -2.3742 0.9761
-3.8134 -4.0568 -2.3746 0.9761
-3.7884 -4.0805 -2.3748 0.9761
-3.7632 -4.1041 -2.3749 0.9761
-3.7126 -4.1507 -2.3751 0.9761
-3.6870 -4.1738 -2.3752 0.9761
-3.6613 -4.1967 -2.3753 0.9761
-3.6355 -4.2195 -2.3754 0.9761
-3.6095 -4.2421 -2.3756 0.9761
-3.5571 -4.2868 -2.3758 0.9761
-3.5307 -4.3090 -2.3759 0.9761
-3.4775 -4.3527 -2.3762 0.9761
-3.4507 -4.3744 -2.3763 0.9761
-3.3967 -4.4172 -2.3765 0.9761
-3.3421 -4.4594 -2.3768 0.9761
-3.2594 -4.5213 -2.3772 0.9761
-3.2315 -4.5416 -2.3773 0.9761
-3.2035 -4.5618 -2.3774 0.9761
-3.1472 -4.6016 -2.3777 0.9760
-3.1189 -4.6212 -2.3778 0.9760
-3.0904 -4.6407 -2.3780 0.9760
-3.0618 -4.6600 -2.3781 0.9760
-3.0331 -4.6791 -2.3783 0.9760
-2.9463 -4.7354 -2.3787 0.9760
-2.8879 -4.7720 -2.3789 0.9760
-2.8289 -4.8079 -2.3792 0.9760
-2.7994 -4.8256 -2.3794 0.9760
-2.7696 -4.8431 -2.3795 0.9760
-2.7098 -4.8776 -2.3798 0.9760
-2.5890 -4.9444 -2.3804 0.9760
-2.5585 -4.9606 -2.3806 0.9760
-2.5280 -4.9767 -2.3807 0.9760
-2.4973 -4.9925 -2.3809 0.9760
-2.4357 -5.0237 -2.3812 0.9760
-2.4047 -5.0389 -2.3813 0.9760
-2.2485 -5.1126 -2.3821 0.9760
-2.2170 -5.1267 -2.3822 0.9760
-2.1854 -5.1407 -2.3824 0.9760
-2.1537 -5.1544 -2.3826 0.9760
-2.1219 -5.1680 -2.3827 0.9760
-2.0901 -5.1813 -2.3829 0.9760
-2.0581 -5.1945 -2.3830 0.9760
-2.0261 -5.2075 -2.3832 0.9760
-1.8972 -5.2575 -2.3839 0.9760
-1.8323 -5.2813 -2.3842 0.9760
-1.7997 -5.2929 -2.3844 0.9760
-1.7344 -5.3155 -2.3847 0.9760
-1.6687 -5.3373 -2.3850 0.9760
-1.6029 -5.3583 -2.3854 0.9760
-1.4036 -5.4164 -2.3864 0.9760
-1.3701 -5.4254 -2.3866 0.9760
-1.3367 -5.4341 -2.3868 0.9760
-1.2359 -5.4592 -2.3873 0.9760
-1.1346 -5.4824 -2.3878 0.9759
-1.0330 -5.5037 -2.3884 0.9759
-0.9990 -5.5105 -2.3885 0.9759
-0.9650 -5.5170 -2.3887 0.9759
-0.9309 -5.5232 -2.3889 0.9759
-0.8627 -5.5352 -2.3893 0.9759
-0.8285 -5.5408 -2.3894 0.9759
-0.7942 -5.5462 -2.3896 0.9759
-0.7257 -5.5565 -2.3900 0.9759
-0.6913 -5.5613 -2.3902 0.9759
-0.6226 -5.5703 -2.3905 0.9759
-0.5882 -5.5745 -2.3907 0.9759
-0.4503 -5.5891 -2.3915 0.9759
-0.3812 -5.5951 -2.3918 0.9759
-0.2774 -5.6025 -2.3924 0.9759
-0.2081 -5.6064 -2.3928 0.9759
-0.1735 -5.6080 -2.3930 0.9759
-0.1388 -5.6094 -2.3932 0.9759
-0.0000 -5.6129 -2.3939 0.9759
0.2431 -5.6108 -2.3953 0.9759
0.2778 -5.6096 -2.3955 0.9759
0.4166 -5.6028 -2.3962 0.9759
0.4512 -5.6006 -2.3964 0.9759
0.6245 -5.5863 -2.3974 0.9759
0.6936 -5.5790 -2.3978 0.9758
0.7281 -5.5751 -2.3980 0.9758
0.7971 -5.5665 -2.3984 0.9758
0.8316 -5.5620 -2.3986 0.9758
0.9349 -5.5469 -2.3992 0.9758
1.0036 -5.5358 -2.3995 0.9758
1.1406 -5.5111 -2.4003 0.9758
1.1747 -5.5044 -2.4005 0.9758
1.2088 -5.4975 -2.4007 0.9758
1.2429 -5.4904 -2.4009 0.9758
1.2770 -5.4830 -2.4011 0.9758
1.3110 -5.4755 -2.4013 0.9758
1.4127 -5.4516 -2.4019 0.9758
1.4465 -5.4431 -2.4021 0.9758
1.4803 -5.4345 -2.4023 0.9758
1.7150 -5.3684 -2.4037 0.9758
1.7483 -5.3582 -2.4038 0.9758
1.7816 -5.3477 -2.4040 0.9758
1.8809 -5.3150 -2.4046 0.9758
1.9139 -5.3037 -2.4048 0.9758
2.0125 -5.2686 -2.4054 0.9758
2.0452 -5.2564 -2.4056 0.9758
2.0778 -5.2441 -2.4058 0.9758
2.1429 -5.2188 -2.4062 0.9758
2.1752 -5.2059 -2.4064 0.9758
2.2076 -5.1928 -2.4066 0.9758
2.2398 -5.1794 -2.4068 0.9758
2.3361 -5.1382 -2.4073 0.9758
2.4948 -5.0656 -2.4083 0.9757
2.5263 -5.0504 -2.4085 0.9757
2.6202 -5.0039 -2.4090 0.9757
2.6823 -4.9719 -2.4094 0.9757
2.7132 -4.9556 -2.4096 0.9757
2.8053 -4.9055 -2.4102 0.9757
2.8358 -4.8885 -2.4104 0.9757
2.8662 -4.8712 -2.4106 0.9757
2.9267 -4.8362 -2.4109 0.9757
2.9568 -4.8183 -2.4111 0.9757
2.9867 -4.8003 -2.4113 0.9757
3.0760 -4.7452 -2.4119 0.9757
3.1055 -4.7264 -2.4120 0.9757
3.1934 -4.6691 -2.4126 0.9757
3.2514 -4.6299 -2.4129 0.9757
3.3375 -4.5698 -2.4135 0.9757
3.3943 -4.5289 -2.4139 0.9757
3.4505 -4.4872 -2.4142 0.9757
3.5062 -4.4448 -2.4146 0.9757
3.5339 -4.4234 -2.4147 0.9757
3.7239 -4.2685 -2.4160 0.9757
3.7505 -4.2457 -2.4161 0.9757
3.7770 -4.2227 -2.4163 0.9757
3.8033 -4.1996 -2.4165 0.9757
3.8555 -4.1528 -2.4168 0.9757
3.9071 -4.1053 -2.4172 0.9757
3.9327 -4.0814 -2.4173 0.9757
3.9581 -4.0573 -2.4175 0.9757
3.9834 -4.0330 -2.4177 0.9757
4.0584 -3.9592 -2.4182 0.9756
4.0831 -3.9343 -2.4183 0.9756
4.1076 -3.9092 -2.4185 0.9756
4.1802 -3.8331 -2.4190 0.9756
4.2042 -3.8075 -2.4191 0.9756
4.2279 -3.7816 -2.4193 0.9756
4.2515 -3.7557 -2.4194 0.9756
4.2982 -3.7033 -2.4198 0.9756
4.3213 -3.6769 -2.4199 0.9756
4.3442 -3.6503 -2.4201 0.9756
4.3670 -3.6236 -2.4202 0.9756
4.3896 -3.5967 -2.4204 0.9756
4.4343 -3.5426 -2.4207 0.9756
4.4564 -3.5154 -2.4208 0.9756
4.4783 -3.4880 -2.4210 0.9756
4.5643 -3.3770 -2.4216 0.9756
4.5854 -3.3489 -2.4217 0.9756
4.6476 -3.2638 -2.4222 0.9756
4.7477 -3.1195 -2.4229 0.9756
4.7864 -3.0609 -2.4232 0.9756
4.8056 -3.0314 -2.4233 0.9756
4.8245 -3.0018 -2.4234 0.9756
4.8802 -2.9123 -2.4239 0.9756
4.8984 -2.8822 -2.4240 0.9756
4.9164 -2.8520 -2.4241 0.9756
4.9342 -2.8217 -2.4243 0.9756
4.9518 -2.7913 -2.4244 0.9756
4.9693 -2.7608 -2.4245 0.9756
5.0204 -2.6685 -2.4249 0.9756
5.0371 -2.6376 -2.4250 0.9756
5.0698 -2.5753 -2.4253 0.9756
5.0859 -2.5441 -2.4254 0.9756
5.1018 -2.5127 -2.4255 0.9756
5.1175 -2.4812 -2.4256 0.9756
5.1483 -2.4180 -2.4259 0.9756
5.1634 -2.3862 -2.4260 0.9756
5.1930 -2.3224 -2.4262 0.9756
5.2075 -2.2903 -2.4264 0.9756
5.2360 -2.2260 -2.4266 0.9756
5.2499 -2.1936 -2.4267 0.9756
5.2636 -2.1612 -2.4268 0.9756
5.2904 -2.0961 -2.4270 0.9756
5.3035 -2.0635 -2.4271 0.9756
5.3164 -2.0307 -2.4272 0.9756
5.3291 -1.9979 -2.4274 0.9756
5.3778 -1.8658 -2.4278 0.9756
5.3895 -1.8326 -2.4279 0.9755
5.4122 -1.7659 -2.4281 0.9755
5.4340 -1.6990 -2.4283 0.9755
5.4752 -1.5643 -2.4286 0.9755
5.4946 -1.4966 -2.4288 0.9755
5.5040 -1.4626 -2.4289 0.9755
5.5131 -1.4286 -2.4290 0.9755
5.5220 -1.3946 -2.4291 0.9755
5.5307 -1.3604 -2.4292 0.9755
5.5556 -1.2577 -2.4294 0.9755
5.5634 -1.2234 -2.4295 0.9755
5.5785 -1.1545 -2.4297 0.9755
5.5928 -1.0855 -2.4298 0.9755
5.6124 -0.9817 -2.4301 0.9755
5.6302 -0.8775 -2.4303 0.9755
5.6356 -0.8426 -2.4303 0.9755
5.6409 -0.8078 -2.4304 0.9755
5.6460 -0.7729 -2.4305 0.9755
5.6554 -0.7031 -2.4306 0.9755
5.6598 -0.6681 -2.4307 0.9755
5.6639 -0.6331 -2.4307 0.9755
5.6679 -0.5981 -2.4308 0.9755
5.6716 -0.5630 -2.4309 0.9755
5.6752 -0.5280 -2.4309 0.9755
5.6815 -0.4578 -2.4310 0.9755
5.6894 -0.3523 -2.4312 0.9755
5.6992 -0.1410 -2.4315 0.9755
5.7007 -0.0705 -2.4316 0.9755
5.7013 0.0352 -2.4317 0.9755
5.7011 0.0705 -2.4317 0.9755
5.7000 0.1410 -2.4318 0.9755
5.6980 0.2115 -2.4319 0.9755
5.6966 0.2468 -2.4319 0.9755
5.6951 0.2820 -2.4319 0.9755
5.6913 0.3524 -2.4320 0.9755
5.6839 0.4579 -2.4321 0.9755
5.6811 0.4931 -2.4321 0.9755
5.6779 0.5282 -2.4321 0.9755
5.6711 0.5984 -2.4322 0.9755
5.6673 0.6335 -2.4322 0.9755
5.6633 0.6685 -2.4322 0.9755
5.6547 0.7385 -2.4322 0.9755
5.6236 0.9478 -2.4323 0.9755
5.6176 0.9826 -2.4323 0.9755
5.6114 1.0173 -2.4323 0.9755
5.6050 1.0520 -2.4323 0.9755
5.5845 1.1558 -2.4323 0.9755
5.5621 1.2592 -2.4323 0.9755
5.5542 1.2935 -2.4323 0.9755
5.5292 1.3963 -2.4323 0.9755
5.4929 1.5326 -2.4322 0.9755
5.4734 1.6004 -2.4322 0.9755
5.4427 1.7017 -2.4321 0.9755
5.4320 1.7353 -2.4321 0.9755
5.4100 1.8023 -2.4321 0.9755
5.3872 1.8690 -2.4320 0.9755
5.3755 1.9023 -2.4320 0.9755
5.3391 2.0016 -2.4319 0.9755
5.3137 2.0675 -2.4318 0.9755
5.2876 2.1329 -2.4318 0.9755
5.2743 2.1656 -2.4317 0.9755
5.2469 2.2306 -2.4316 0.9755
5.2329 2.2629 -2.4316 0.9755
5.1294 2.4870 -2.4313 0.9755
5.1138 2.5186 -2.4312 0.9755
5.0821 2.5815 -2.4311 0.9755
5.0659 2.6128 -2.4311 0.9755
5.0495 2.6441 -2.4310 0.9755
5.0330 2.6752 -2.4310 0.9755
4.9821 2.7679 -2.4308 0.9755
4.9648 2.7986 -2.4307 0.9755
4.9473 2.8292 -2.4307 0.9755
4.9295 2.8596 -2.4306 0.9755
4.8381 3.0102 -2.4303 0.9755
4.8193 3.0400 -2.4302 0.9755
4.7222 3.1871 -2.4298 0.9755
4.7023 3.2161 -2.4298 0.9755
4.6821 3.2450 -2.4297 0.9755
4.6414 3.3025 -2.4295 0.9755
4.6207 3.3310 -2.4294 0.9755
4.5998 3.3594 -2.4293 0.9755
4.5788 3.3876 -2.4293 0.9755
4.5576 3.4158 -2.4292 0.9755
4.5363 3.4438 -2.4291 0.9755
4.4268 3.5817 -2.4286 0.9755
4.3591 3.6628 -2.4284 0.9755
4.2429 3.7950 -2.4279 0.9755
4.2192 3.8210 -2.4278 0.9756
4.1953 3.8469 -2.4277 0.9756
4.1712 3.8726 -2.4276 0.9756
4.1470 3.8982 -2.4275 0.9756
4.0981 3.9488 -2.4272 0.9756
4.0734 3.9739 -2.4271 0.9756
4.0486 3.9988 -2.4270 0.9756
4.0236 4.0236 -2.4269 0.9756
3.9985 4.0482 -2.4268 0.9756
3.9221 4.1212 -2.4265 0.9756
3.8964 4.1451 -2.4264 0.9756
3.8705 4.1690 -2.4262 0.9756
3.8445 4.1926 -2.4261 0.9756
3.7920 4.2394 -2.4259 0.9756
3.7121 4.3084 -2.4255 0.9756
3.6852 4.3310 -2.4254 0.9756
3.6582 4.3535 -2.4253 0.9756
3.6310 4.3758 -2.4251 0.9756
3.6037 4.3980 -2.4250 0.9756
3.5762 4.4200 -2.4249 0.9756
3.4087 4.5481 -2.4241 0.9756
3.3518 4.5894 -2.4238 0.9756
3.3232 4.6098 -2.4237 0.9756
3.2944 4.6300 -2.4236 0.9756
3.0918 4.6426 -2.3790 0.9760
3.0520 4.6449 -2.3705 0.9761
3.0125 4.6472 -2.3620 0.9762
2.9733 4.6494 -2.3538 0.9763
2.8956 4.6538 -2.3377 0.9764
2.7809 4.6601 -2.3145 0.9767
2.7432 4.6621 -2.3071 0.9768
2.6684 4.6661 -2.2925 0.9769
2.6314 4.6681 -2.2855 0.9770
2.5611 4.6778 -2.2745 0.9771
2.5266 4.6832 -2.2695 0.9771
2.4653 4.7082 -2.2667 0.9772
2.4360 4.7230 -2.2665 0.9772
2.3771 4.7522 -2.2663 0.9772
2.2881 4.7945 -2.2658 0.9772
2.1682 4.8484 -2.2652 0.9772
2.1380 4.8614 -2.2651 0.9772
2.1078 4.8742 -2.2649 0.9772
2.0471 4.8992 -2.2646 0.9772
2.0166 4.9114 -2.2644 0.9772
1.9861 4.9235 -2.2643 0.9772
1.9554 4.9353 -2.2641 0.9772
1.9247 4.9470 -2.2640 0.9772
1.8940 4.9584 -2.2638 0.9772
1.8631 4.9697 -2.2637 0.9772
1.8323 4.9808 -2.2635 0.9772
1.7703 5.0024 -2.2632 0.9772
1.7080 5.0232 -2.2629 0.9772
1.6142 5.0529 -2.2624 0.9772
1.5829 5.0624 -2.2622 0.9772
1.5199 5.0809 -2.2619 0.9772
1.4250 5.1071 -2.2614 0.9772
1.3933 5.1154 -2.2612 0.9772
1.3616 5.1236 -2.2611 0.9772
1.3297 5.1315 -2.2609 0.9772
1.2660 5.1468 -2.2606 0.9772
1.1379 5.1750 -2.2599 0.9772
1.1059 5.1816 -2.2597 0.9772
1.0093 5.2000 -2.2592 0.9772
0.8477 5.2267 -2.2584 0.9772
0.7829 5.2360 -2.2580 0.9772
0.7180 5.2445 -2.2577 0.9772
0.6855 5.2484 -2.2575 0.9772
0.6530 5.2522 -2.2573 0.9772
0.4901 5.2678 -2.2564 0.9773
0.4574 5.2703 -2.2563 0.9773
0.4248 5.2726 -2.2561 0.9773
0.3922 5.2747 -2.2559 0.9773
0.3269 5.2783 -2.2555 0.9773
0.2615 5.2811 -2.2552 0.9773
0.2288 5.2822 -2.2550 0.9773
0.1961 5.2831 -2.2548 0.9773
0.1634 5.2838 -2.2547 0.9773
0.1307 5.2843 -2.2545 0.9773
0.0980 5.2846 -2.2543 0.9773
-0.0327 5.2837 -2.2536 0.9773
-0.0654 5.2830 -2.2534 0.9773
-0.1307 5.2809 -2.2530 0.9773
-0.1633 5.2796 -2.2528 0.9773
-0.1959 5.2780 -2.2527 0.9773
-0.2937 5.2722 -2.2521 0.9773
-0.3263 5.2699 -2.2519 0.9773
-0.3914 5.2646 -2.2516 0.9773
-0.4239 5.2616 -2.2514 0.9773
-0.4564 5.2585 -2.2512 0.9773
-0.4889 5.2552 -2.2510 0.9773
-0.5213 5.2516 -2.2508 0.9773
-0.5862 5.2439 -2.2505 0.9773
-0.6832 5.2308 -2.2499 0.9773
-0.8121 5.2106 -2.2492 0.9773
-0.8442 5.2051 -2.2490 0.9773
-0.8763 5.1994 -2.2488 0.9773
-0.9404 5.1872 -2.2485 0.9773
-0.9724 5.1809 -2.2483 0.9773
-1.0043 5.1744 -2.2481 0.9773
-1.0362 5.1677 -2.2479 0.9773
-1.0999 5.1536 -2.2475 0.9773
-1.1316 5.1463 -2.2474 0.9773
-1.1950 5.1311 -2.2470 0.9774
-1.2582 5.1151 -2.2466 0.9774
-1.2897 5.1068 -2.2464 0.9774
-1.3211 5.0983 -2.2463 0.9774
-1.3525 5.0896 -2.2461 0.9774
-1.4464 5.0624 -2.2455 0.9774
-1.4775 5.0529 -2.2453 0.9774
-1.5396 5.0334 -2.2450 0.9774
-1.6015 5.0132 -2.2446 0.9774
-1.8765 4.9128 -2.2430 0.9774
-1.9068 4.9007 -2.2428 0.9774
-1.9369 4.8884 -2.2426 0.9774
-2.0268 4.8505 -2.2421 0.9774
-2.1454 4.7974 -2.2414 0.9774
-2.2052 4.7717 -2.2420 0.9774
-2.2391 4.7676 -2.2465 0.9774
-2.2733 4.7634 -2.2511 0.9773
-2.3075 4.7593 -2.2559 0.9773
-2.3437 4.7587 -2.2624 0.9772
-2.4166 4.7574 -2.2758 0.9771
-2.4534 4.7568 -2.2827 0.9770
-2.5277 4.7554 -2.2969 0.9769
-2.5652 4.7547 -2.3042 0.9768
-2.6408 4.7533 -2.3191 0.9766
-2.7173 4.7517 -2.3346 0.9765
-2.8736 4.7483 -2.3672 0.9762
-2.9533 4.7465 -2.3843 0.9760
-3.0752 4.6803 -2.3885 0.9759
-3.1039 4.6609 -2.3883 0.9759
-3.1608 4.6215 -2.3880 0.9759
-3.2173 4.5813 -2.3876 0.9759
-3.3010 4.5198 -2.3871 0.9760
-3.3286 4.4990 -2.3869 0.9760
-3.3835 4.4568 -2.3866 0.9760
-3.4107 4.4355 -2.3864 0.9760
-3.4379 4.4140 -2.3862 0.9760
-3.5184 4.3485 -2.3857 0.9760
-3.5977 4.2816 -2.3852 0.9760
-3.6239 4.2589 -2.3850 0.9760
-3.7270 4.1668 -2.3844 0.9760
-3.8279 4.0722 -2.3837 0.9760
-3.8527 4.0482 -2.3835 0.9760
-4.0460 3.8507 -2.3822 0.9760
-4.1618 3.7225 -2.3815 0.9760
-4.2070 3.6703 -2.3811 0.9760
-4.2293 3.6439 -2.3810 0.9760
-4.2735 3.5909 -2.3807 0.9760
-4.3171 3.5373 -2.3804 0.9760
-4.3386 3.5103 -2.3802 0.9760
-4.3599 3.4832 -2.3801 0.9760
-4.3811 3.4560 -2.3799 0.9760
-4.4021 3.4286 -2.3798 0.9760
-4.4230 3.4011 -2.3797 0.9760
-4.4436 3.3735 -2.3795 0.9760
-4.4642 3.3457 -2.3794 0.9760
-4.5047 3.2899 -2.3791 0.9760
-4.5246 3.2618 -2.3789 0.9760
-4.5836 3.1767 -2.3785 0.9760
-4.6029 3.1481 -2.3784 0.9760
-4.6220 3.1194 -2.3782 0.9760
-4.6782 3.0326 -2.3778 0.9760
-4.7149 2.9742 -2.3776 0.9760
-4.7329 2.9448 -2.3774 0.9761
-4.7684 2.8857 -2.3772 0.9761
-4.8204 2.7963 -2.3768 0.9761
-4.8373 2.7663 -2.3767 0.9761
-4.8706 2.7060 -2.3764 0.9761
-4.9507 2.5534 -2.3758 0.9761
-4.9661 2.5226 -2.3757 0.9761
-4.9814 2.4917 -2.3756 0.9761
-4.9964 2.4608 -2.3754 0.9761
-5.0113 2.4297 -2.3753 0.9761
-5.0260 2.3986 -2.3752 0.9761
-5.0405 2.3673 -2.3751 0.9761
-5.1234 2.1781 -2.3744 0.9761
-5.1366 2.1463 -2.3743 0.9761
-5.1495 2.1143 -2.3742 0.9761
-5.1622 2.0824 -2.3741 0.9761
-5.1871 2.0182 -2.3739 0.9761
-5.1993 1.9860 -2.3738 0.9761
-5.2230 1.9214 -2.3736 0.9761
-5.2346 1.8890 -2.3735 0.9761
-5.2571 1.8239 -2.3733 0.9761
-5.2681 1.7913 -2.3732 0.9761
-5.2788 1.7586 -2.3731 0.9761
-5.2894 1.7259 -2.3730 0.9761
-5.2998 1.6930 -2.3729 0.9761
-5.3099 1.6602 -2.3728 0.9761
-5.3296 1.5942 -2.3726 0.9761
-5.3577 1.4949 -2.3724 0.9761
-5.3667 1.4617 -2.3723 0.9761
-5.3839 1.3951 -2.3721 0.9761
-5.4160 1.2614 -2.3718 0.9761
-5.4235 1.2278 -2.3717 0.9761
-5.4309 1.1942 -2.3716 0.9761
-5.4380 1.1606 -2.3715 0.9761
-5.4580 1.0594 -2.3713 0.9761
-5.4874 0.8900 -2.3710 0.9761
-5.4926 0.8560 -2.3709 0.9761
-5.5115 0.7198 -2.3706 0.9761
-5.5235 0.6174 -2.3705 0.9761
-5.5271 0.5832 -2.3704 0.9761
-5.5304 0.5490 -2.3704 0.9761
-5.5366 0.4805 -2.3702 0.9761
-5.5393 0.4463 -2.3702 0.9761
-5.5418 0.4120 -2.3701 0.9761
-5.5441 0.3777 -2.3701 0.9761
-5.5463 0.3434 -2.3700 0.9761
-5.5482 0.3091 -2.3700 0.9761
-5.5537 0.1718 -2.3698 0.9761
-5.5546 0.1374 -2.3698 0.9761
-5.5552 0.1031 -2.3697 0.9761
-5.5556 0.0687 -2.3697 0.9761
-5.4443 -0.0673 -2.3701 0.9765
-5.4429 -0.1347 -2.3701 0.9765
-5.4419 -0.1683 -2.3700 0.9765
-5.4407 -0.2020 -2.3700 0.9765
-5.4377 -0.2693 -2.3699 0.9765
-5.4358 -0.3029 -2.3699 0.9765
-5.4291 -0.4037 -2.3698 0.9765
-5.4236 -0.4708 -2.3698 0.9765
-5.4101 -0.6047 -2.3697 0.9765
-5.4062 -0.6382 -2.3697 0.9765
-5.3979 -0.7050 -2.3697 0.9765
-5.3934 -0.7384 -2.3697 0.9765
-5.3887 -0.7717 -2.3697 0.9765
-5.3734 -0.8715 -2.3696 0.9765
-5.3621 -0.9379 -2.3696 0.9765
-5.3438 -1.0372 -2.3696 0.9765
-5.3373 -1.0702 -2.3696 0.9765
-5.3165 -1.1691 -2.3696 0.9765
-5.3092 -1.2019 -2.3696 0.9765
-5.2939 -1.2675 -2.3696 0.9765
-5.2610 -1.3981 -2.3697 0.9765
-5.2523 -1.4306 -2.3697 0.9765
-5.2434 -1.4631 -2.3697 0.9765
-5.2250 -1.5278 -2.3697 0.9765
-5.2155 -1.5601 -2.3697 0.9765
-5.2058 -1.5924 -2.3697 0.9765
-5.1958 -1.6245 -2.3698 0.9765
-5.1857 -1.6566 -2.3698 0.9765
-5.1650 -1.7207 -2.3698 0.9765
-5.1434 -1.7845 -2.3699 0.9765
-5.1323 -1.8163 -2.3699 0.9765
-5.0979 -1.9112 -2.3700 0.9765
-5.0860 -1.9428 -2.3700 0.9765
-5.0617 -2.0056 -2.3701 0.9765
-5.0493 -2.0368 -2.3701 0.9765
-5.0367 -2.0681 -2.3701 0.9765
-5.0239 -2.0992 -2.3702 0.9765
-5.0109 -2.1303 -2.3702 0.9765
-4.9844 -2.1922 -2.3703 0.9765
-4.9570 -2.2537 -2.3704 0.9765
-4.9431 -2.2843 -2.3704 0.9765
-4.9289 -2.3149 -2.3705 0.9765
-4.9001 -2.3758 -2.3705 0.9765
-4.8706 -2.4363 -2.3706 0.9765
-4.8555 -2.4664 -2.3707 0.9765
-4.8092 -2.5563 -2.3708 0.9765
-4.7775 -2.6157 -2.3710 0.9765
-4.7450 -2.6747 -2.3711 0.9765
-4.6079 -2.9067 -2.3716 0.9765
-4.5899 -2.9352 -2.3716 0.9765
-4.5718 -2.9636 -2.3717 0.9765
-4.5535 -2.9919 -2.3718 0.9765
-4.5350 -3.0201 -2.3718 0.9765
-4.4787 -3.1040 -2.3720 0.9765
-4.4402 -3.1594 -2.3722 0.9765
-4.4207 -3.1869 -2.3723 0.9765
-4.4011 -3.2142 -2.3724 0.9765
-4.2797 -3.3760 -2.3728 0.9765
-4.2589 -3.4025 -2.3729 0.9765
-4.2379 -3.4289 -2.3730 0.9765
-4.2168 -3.4552 -2.3731 0.9765
-4.1955 -3.4813 -2.3732 0.9765
-4.1740 -3.5073 -2.3733 0.9765
-4.1524 -3.5332 -2.3734 0.9765
-4.0644 -3.6354 -2.3737 0.9765
-3.9967 -3.7106 -2.3740 0.9765
-3.9739 -3.7354 -2.3741 0.9765
-3.9509 -3.7601 -2.3742 0.9765
-3.9044 -3.8090 -2.3744 0.9765
-3.8809 -3.8332 -2.3745 0.9765
-3.8573 -3.8573 -2.3746 0.9765
-3.8336 -3.8813 -2.3747 0.9765
-3.8096 -3.9051 -2.3748 0.9765
-3.7856 -3.9287 -2.3749 0.9765
-3.7614 -3.9523 -2.3751 0.9765
-3.7370 -3.9756 -2.3752 0.9765
-3.7126 -3.9988 -2.3753 0.9765
-3.6632 -4.0448 -2.3755 0.9765
-3.5880 -4.1127 -2.3758 0.9765
-3.5372 -4.1571 -2.3761 0.9765
-3.4340 -4.2442 -2.3765 0.9765
-3.4079 -4.2656 -2.3766 0.9765
-3.3552 -4.3078 -2.3769 0.9765
-3.3287 -4.3287 -2.3770 0.9765
-3.2483 -4.3904 -2.3774 0.9765
-3.2212 -4.4107 -2.3775 0.9765
-3.1393 -4.4704 -2.3779 0.9765
-3.1118 -4.4900 -2.3780 0.9764
