ply
format ascii 1.0
element vertex 1547
property float32 x
property float32 y
property float32 z
property float32 I
end_header
16.2796 1.3116 -2.4802 0.9361
16.2629 1.5129 -2.4803 0.9361
16.2535 1.6135 -2.4804 0.9361
16.2435 1.7140 -2.4804 0.9361
16.2329 1.8145 -2.4805 0.9361
16.1971 2.1154 -2.4806 0.9360
16.1839 2.2156 -2.4806 0.9360
16.1701 2.3156 -2.4806 0.9360
16.1556 2.4156 -2.4806 0.9360
16.0912 2.8145 -2.4807 0.9360
16.0736 2.9140 -2.4807 0.9360
16.0552 3.0133 -2.4807 0.9360
15.9542 3.5082 -2.4807 0.9360
15.9321 3.6068 -2.4807 0.9360
15.9094 3.7052 -2.4806 0.9360
15.8860 3.8035 -2.4806 0.9360
15.7863 4.1951 -2.4805 0.9361
15.7050 4.4870 -2.4804 0.9361
15.6767 4.5839 -2.4803 0.9361
15.6181 4.7773 -2.4802 0.9361
15.5879 4.8737 -2.4802 0.9361
15.5571 4.9698 -2.4801 0.9361
15.4936 5.1616 -2.4800 0.9361
15.4610 5.2572 -2.4799 0.9361
15.3939 5.4477 -2.4798 0.9361
15.2886 5.7317 -2.4795 0.9361
15.2523 5.8260 -2.4794 0.9361
15.2155 5.9200 -2.4793 0.9361
15.1780 6.0137 -2.4792 0.9361
15.1399 6.1072 -2.4791 0.9361
15.0620 6.2935 -2.4789 0.9361
15.0221 6.3863 -2.4788 0.9361
14.8990 6.6629 -2.4785 0.9361
14.8568 6.7546 -2.4784 0.9361
14.7707 6.9372 -2.4781 0.9361
14.6822 7.1186 -2.4779 0.9361
14.5915 7.2989 -2.4776 0.9361
14.4984 7.4779 -2.4773 0.9361
14.4031 7.6557 -2.4770 0.9361
14.3546 7.7442 -2.4769 0.9361
14.2058 8.0076 -2.4764 0.9362
13.9995 8.3543 -2.4757 0.9362
12.9606 8.0640 -2.3181 0.9401
12.9095 8.1434 -2.3179 0.9401
12.8059 8.3012 -2.3175 0.9401
12.5926 8.6127 -2.3168 0.9401
12.3715 8.9185 -2.3160 0.9402
12.2007 9.1440 -2.3154 0.9402
12.1428 9.2185 -2.3152 0.9402
12.0845 9.2926 -2.3150 0.9402
11.8464 9.5850 -2.3141 0.9402
11.7247 9.7288 -2.3136 0.9402
11.6011 9.8712 -2.3132 0.9402
11.4758 10.0118 -2.3127 0.9402
11.3488 10.1508 -2.3122 0.9403
11.1549 10.3563 -2.3115 0.9403
10.9572 10.5580 -2.3107 0.9403
10.8233 10.6903 -2.3102 0.9403
10.6878 10.8208 -2.3097 0.9403
10.5507 10.9496 -2.3091 0.9403
10.4121 11.0767 -2.3086 0.9403
10.2719 11.2020 -2.3080 0.9404
10.2012 11.2640 -2.3078 0.9404
10.1301 11.3255 -2.3075 0.9404
9.9146 11.5073 -2.3066 0.9404
9.8421 11.5669 -2.3064 0.9404
9.7691 11.6261 -2.3061 0.9404
9.6958 11.6848 -2.3058 0.9404
9.6221 11.7431 -2.3055 0.9404
9.4738 11.8582 -2.3049 0.9404
9.3240 11.9713 -2.3043 0.9405
9.2485 12.0272 -2.3040 0.9405
9.0202 12.1918 -2.3031 0.9405
8.9434 12.2457 -2.3028 0.9405
8.6331 12.4563 -2.3015 0.9405
8.5546 12.5077 -2.3012 0.9405
8.3970 12.6091 -2.3005 0.9405
8.3176 12.6589 -2.3002 0.9406
8.2380 12.7083 -2.2999 0.9406
7.9166 12.9007 -2.2985 0.9406
5.3724 9.1306 -1.6088 0.9580
5.3287 9.1859 -1.6127 0.9579
7.1915 13.1352 -2.2741 0.9412
7.0913 13.1444 -2.2681 0.9414
6.8924 13.1627 -2.2563 0.9417
6.7937 13.1718 -2.2506 0.9418
6.6954 13.1808 -2.2451 0.9419
6.5977 13.1898 -2.2396 0.9421
6.5004 13.1987 -2.2343 0.9422
6.4036 13.2076 -2.2290 0.9423
6.1880 13.1755 -2.2105 0.9428
5.9981 13.1929 -2.2008 0.9431
5.9038 13.2016 -2.1961 0.9432
5.8099 13.2102 -2.1915 0.9433
5.7164 13.2188 -2.1871 0.9434
5.6233 13.2274 -2.1827 0.9435
5.5514 13.2860 -2.1866 0.9434
5.1917 12.8702 -2.1075 0.9454
4.9255 12.8947 -2.0962 0.9457
4.8373 12.9028 -2.0926 0.9458
4.7495 12.9109 -2.0891 0.9459
4.6619 12.9189 -2.0857 0.9459
4.5747 12.9269 -2.0824 0.9460
4.4877 12.9349 -2.0791 0.9461
3.4449 10.5579 -1.6865 0.9561
4.0566 12.9746 -2.0644 0.9465
3.1684 10.3583 -1.6449 0.9571
3.1151 10.9032 -1.7220 0.9552
3.7250 13.6760 -2.1525 0.9443
2.6936 10.6660 -1.6706 0.9565
2.8751 11.6886 -1.8279 0.9525
2.9142 12.1716 -1.9006 0.9506
2.7601 13.7647 -2.1319 0.9448
1.9428 10.3515 -1.5994 0.9583
2.4997 13.7886 -2.1281 0.9449
1.8183 10.3955 -1.6026 0.9582
1.7580 10.4308 -1.6064 0.9581
1.7018 10.4926 -1.6142 0.9579
1.7325 11.1169 -1.7086 0.9555
1.6585 11.0919 -1.7032 0.9556
1.9814 13.8362 -2.1226 0.9450
1.8952 13.8441 -2.1220 0.9450
1.7231 13.8599 -2.1210 0.9451
1.4650 13.8836 -2.1201 0.9451
1.2930 13.8994 -2.1199 0.9451
1.2071 13.9073 -2.1199 0.9451
1.1211 13.9152 -2.1200 0.9451
1.0351 13.9231 -2.1202 0.9451
0.7771 13.9468 -2.1212 0.9451
0.6909 13.9547 -2.1218 0.9450
0.6048 13.9627 -2.1223 0.9450
0.5186 13.9706 -2.1230 0.9450
0.1732 14.0023 -2.1265 0.9449
-0.2605 14.0421 -2.1328 0.9448
-0.5222 14.0662 -2.1375 0.9446
-0.6096 14.0742 -2.1393 0.9446
-0.7850 14.0903 -2.1431 0.9445
-0.8730 14.0984 -2.1451 0.9445
-0.9611 14.1065 -2.1472 0.9444
-1.1378 14.1227 -2.1516 0.9443
-1.3154 14.1390 -2.1564 0.9442
-1.4937 14.1554 -2.1616 0.9440
-1.5832 14.1636 -2.1643 0.9440
-1.6729 14.1718 -2.1671 0.9439
-1.8530 14.1884 -2.1729 0.9438
-1.9435 14.1967 -2.1760 0.9437
-1.8064 12.6140 -1.9351 0.9498
-2.1252 14.2133 -2.1824 0.9435
-2.3080 14.2301 -2.1892 0.9433
-2.3998 14.2386 -2.1928 0.9433
-1.9886 10.9691 -1.6929 0.9559
-2.1323 10.9858 -1.6994 0.9557
-2.3741 10.7965 -1.6787 0.9563
-2.4568 10.8521 -1.6897 0.9560
-2.5046 10.7543 -1.6769 0.9563
-3.6213 14.3393 -2.2459 0.9419
-2.8839 11.1292 -1.7459 0.9546
-3.8844 14.2614 -2.2446 0.9420
-4.0589 14.2069 -2.2438 0.9420
-3.4537 11.8114 -1.8688 0.9514
-4.2327 14.1501 -2.2429 0.9420
-5.0047 13.8690 -2.2391 0.9421
-5.2582 13.7659 -2.2378 0.9421
-5.6759 13.5840 -2.2357 0.9422
-5.2679 12.3915 -2.0447 0.9470
-5.9236 13.4688 -2.2344 0.9422
-6.0057 13.4294 -2.2340 0.9422
-6.1690 13.3491 -2.2332 0.9422
-5.3152 11.3172 -1.8987 0.9507
-3.6817 7.3602 -1.2497 0.9673
-3.6466 7.1788 -1.2227 0.9679
-3.7303 7.2324 -1.2358 0.9676
-3.8271 7.3089 -1.2529 0.9672
-3.8640 7.2695 -1.2502 0.9672
-3.9850 7.2785 -1.2601 0.9670
-3.9713 7.1482 -1.2418 0.9675
-4.2149 7.4773 -1.3035 0.9659
-4.3092 7.5353 -1.3182 0.9655
-4.3289 7.1532 -1.2697 0.9667
-4.2443 6.9165 -1.2323 0.9677
-4.3149 6.9349 -1.2403 0.9675
-4.4640 7.0767 -1.2706 0.9667
-4.3872 6.8605 -1.2366 0.9676
-4.7284 7.1003 -1.2955 0.9661
-4.9680 7.1682 -1.3244 0.9653
-5.0994 7.1668 -1.3357 0.9650
-5.0976 6.9798 -1.3125 0.9656
-5.1386 6.9454 -1.3120 0.9656
-5.2127 6.8663 -1.3091 0.9657
-5.3877 6.8299 -1.3210 0.9654
-5.5102 6.8103 -1.3303 0.9652
-5.5993 6.7480 -1.3316 0.9651
-5.7575 6.7666 -1.3492 0.9647
-5.8294 6.7659 -1.3562 0.9645
-5.9730 6.7616 -1.3701 0.9642
-6.1213 6.8437 -1.3943 0.9635
-6.2466 6.8123 -1.4036 0.9633
-6.4296 6.8400 -1.4256 0.9627
-6.5467 6.7942 -1.4328 0.9625
-6.4532 6.5335 -1.3945 0.9635
-6.8032 6.7195 -1.4521 0.9621
-7.1036 6.8448 -1.4980 0.9609
-7.2104 6.7777 -1.5028 0.9608
-7.3088 6.7856 -1.5145 0.9605
-7.4219 6.8056 -1.5292 0.9601
-7.5040 6.7959 -1.5374 0.9599
-7.7046 6.8061 -1.5612 0.9593
-7.7766 6.7845 -1.5672 0.9591
-8.0549 6.7683 -1.5977 0.9583
-7.9582 6.6035 -1.5704 0.9590
-8.3623 6.8519 -1.6417 0.9572
-8.4822 6.7766 -1.6487 0.9570
-8.6488 6.8226 -1.6729 0.9564
-8.7915 6.8473 -1.6922 0.9559
-8.9511 6.7955 -1.7067 0.9555
-9.1985 6.8056 -1.7376 0.9548
-9.3654 6.8398 -1.7611 0.9542
-9.4932 6.8435 -1.7772 0.9538
-9.6539 6.8691 -1.7993 0.9532
-9.7293 6.8325 -1.8054 0.9530
-9.7949 6.7885 -1.8098 0.9529
-9.7209 6.6486 -1.7885 0.9535
-10.0239 6.7653 -1.8365 0.9522
-10.3338 6.8818 -1.8854 0.9510
-10.5294 6.9184 -1.9133 0.9503
-10.6426 6.8989 -1.9260 0.9500
-11.3824 6.9849 -2.0280 0.9474
-11.3001 6.8385 -2.0058 0.9480
-11.5762 6.9081 -2.0472 0.9469
-12.0444 6.9870 -2.1145 0.9452
-11.7759 6.7343 -2.0600 0.9466
-12.3956 6.9873 -2.1608 0.9441
-12.6706 6.9372 -2.1937 0.9432
-12.7523 6.7783 -2.1931 0.9432
-12.7924 6.6985 -2.1929 0.9433
-12.8320 6.6184 -2.1926 0.9433
-12.8712 6.5382 -2.1923 0.9433
-12.9857 6.2960 -2.1916 0.9433
-13.0229 6.2149 -2.1913 0.9433
-13.0596 6.1335 -2.1911 0.9433
-13.1666 5.8882 -2.1903 0.9433
-13.2692 5.6411 -2.1896 0.9433
-13.3351 5.4754 -2.1891 0.9433
-13.3673 5.3922 -2.1889 0.9434
-13.5228 5.1653 -2.1983 0.9431
-14.0543 5.1701 -2.2741 0.9412
-14.3401 5.1748 -2.3151 0.9402
-14.5874 4.8597 -2.3349 0.9397
-14.7239 4.4044 -2.3339 0.9397
-14.7496 4.3129 -2.3337 0.9397
-14.7992 4.1294 -2.3332 0.9397
-14.8694 3.8531 -2.3327 0.9397
-14.8918 3.7608 -2.3325 0.9397
-14.9347 3.5757 -2.3321 0.9398
-14.9554 3.4830 -2.3319 0.9398
-14.9754 3.3902 -2.3317 0.9398
-14.9950 3.2973 -2.3315 0.9398
-15.0139 3.2043 -2.3314 0.9398
-15.0502 3.0179 -2.3310 0.9398
-15.1004 2.7376 -2.3305 0.9398
-15.1310 2.5502 -2.3302 0.9398
-15.1454 2.4564 -2.3300 0.9398
-15.1594 2.3626 -2.3299 0.9398
-15.1977 2.0805 -2.3294 0.9398
-15.2093 1.9864 -2.3293 0.9398
-15.2309 1.7979 -2.3290 0.9398
-15.2503 1.6092 -2.3288 0.9398
-15.2591 1.5148 -2.3286 0.9398
-15.2673 1.4203 -2.3285 0.9398
-15.2750 1.3258 -2.3284 0.9399
-15.2821 1.2312 -2.3283 0.9399
-15.2886 1.1367 -2.3281 0.9399
-15.2946 1.0420 -2.3280 0.9399
-15.3000 0.9474 -2.3279 0.9399
-15.3160 0.5685 -2.3275 0.9399
-15.3231 0.0948 -2.3270 0.9399
-14.6128 -0.0904 -2.3303 0.9425
-14.6096 -0.2711 -2.3301 0.9425
-14.6072 -0.3615 -2.3300 0.9425
-14.6008 -0.5420 -2.3299 0.9425
-14.5921 -0.7225 -2.3298 0.9425
-14.5870 -0.8127 -2.3297 0.9425
-14.5752 -0.9930 -2.3296 0.9425
-14.5685 -1.0831 -2.3296 0.9425
-14.5534 -1.2632 -2.3295 0.9425
-14.5450 -1.3531 -2.3294 0.9425
-14.5267 -1.5329 -2.3293 0.9425
-14.5062 -1.7124 -2.3293 0.9426
-14.4836 -1.8916 -2.3292 0.9426
-14.4456 -2.1599 -2.3292 0.9426
-14.4319 -2.2492 -2.3291 0.9426
-14.4176 -2.3385 -2.3291 0.9426
-14.4028 -2.4275 -2.3291 0.9426
-14.3874 -2.5165 -2.3291 0.9426
-14.3552 -2.6943 -2.3291 0.9426
-14.3028 -2.9601 -2.3291 0.9426
-14.2652 -3.1368 -2.3291 0.9426
-14.2048 -3.4010 -2.3292 0.9426
-14.1836 -3.4888 -2.3292 0.9426
-14.1397 -3.6641 -2.3292 0.9426
-14.1170 -3.7515 -2.3293 0.9426
-14.0937 -3.8387 -2.3293 0.9425
-14.0699 -3.9259 -2.3293 0.9425
-14.0455 -4.0129 -2.3294 0.9425
-14.0207 -4.0997 -2.3294 0.9425
-13.9161 -4.4456 -2.3296 0.9425
-13.8887 -4.5317 -2.3297 0.9425
-13.8032 -4.7889 -2.3298 0.9425
-13.7437 -4.9596 -2.3300 0.9425
-13.7132 -5.0446 -2.3300 0.9425
-13.6506 -5.2142 -2.3302 0.9425
-13.5859 -5.3829 -2.3303 0.9425
-13.4852 -5.6347 -2.3306 0.9425
-13.3073 -6.0501 -2.3311 0.9425
-13.2326 -6.2148 -2.3313 0.9425
-13.1560 -6.3786 -2.3315 0.9425
-13.0373 -6.6226 -2.3318 0.9425
-12.9968 -6.7034 -2.3320 0.9425
-12.9558 -6.7840 -2.3321 0.9425
-12.8723 -6.9445 -2.3323 0.9425
-12.8298 -7.0244 -2.3325 0.9425
-12.6995 -7.2624 -2.3329 0.9425
-12.4728 -7.6540 -2.3336 0.9424
-12.3788 -7.8087 -2.3339 0.9424
-12.3312 -7.8856 -2.3341 0.9424
-12.2830 -7.9623 -2.3342 0.9424
-12.1358 -8.1905 -2.3347 0.9424
-12.0858 -8.2661 -2.3349 0.9424
-11.9844 -8.4162 -2.3352 0.9424
-11.8812 -8.5650 -2.3356 0.9424
-11.8290 -8.6391 -2.3358 0.9424
-11.7762 -8.7127 -2.3360 0.9424
-11.7231 -8.7861 -2.3362 0.9424
-11.5609 -9.0043 -2.3367 0.9424
-11.4506 -9.1482 -2.3371 0.9424
-11.3948 -9.2196 -2.3373 0.9424
-11.3386 -9.2907 -2.3376 0.9424
-11.2248 -9.4319 -2.3380 0.9423
-11.0510 -9.6412 -2.3386 0.9423
-10.8733 -9.8473 -2.3393 0.9423
-10.6919 -10.0503 -2.3400 0.9423
-10.5688 -10.1838 -2.3404 0.9423
-10.3813 -10.3813 -2.3412 0.9423
-10.3180 -10.4464 -2.3414 0.9423
-10.2543 -10.5112 -2.3416 0.9423
-10.1902 -10.5755 -2.3419 0.9422
-10.1256 -10.6395 -2.3421 0.9422
-9.9298 -10.8290 -2.3429 0.9422
-9.8637 -10.8914 -2.3432 0.9422
-9.7304 -11.0151 -2.3437 0.9422
-9.5277 -11.1975 -2.3445 0.9422
-9.3907 -11.3172 -2.3451 0.9422
-9.3216 -11.3764 -2.3453 0.9422
-9.2522 -11.4352 -2.3456 0.9422
-9.0417 -11.6091 -2.3465 0.9421
-8.9709 -11.6662 -2.3468 0.9421
-8.8996 -11.7229 -2.3471 0.9421
-8.8281 -11.7792 -2.3473 0.9421
-8.6839 -11.8905 -2.3479 0.9421
-8.6113 -11.9455 -2.3482 0.9421
-8.4651 -12.0542 -2.3488 0.9421
-8.3915 -12.1079 -2.3491 0.9421
-8.3175 -12.1611 -2.3495 0.9421
-8.0937 -12.3182 -2.3504 0.9420
-7.8670 -12.4713 -2.3513 0.9420
-7.7907 -12.5214 -2.3517 0.9420
-7.7142 -12.5711 -2.3520 0.9420
-7.6374 -12.6203 -2.3523 0.9420
-7.5603 -12.6690 -2.3526 0.9420
-7.4828 -12.7173 -2.3530 0.9420
-7.3270 -12.8125 -2.3536 0.9420
-7.2487 -12.8594 -2.3540 0.9420
-7.0911 -12.9518 -2.3546 0.9419
-7.0118 -12.9972 -2.3550 0.9419
-6.9324 -13.0423 -2.3553 0.9419
-6.8526 -13.0868 -2.3556 0.9419
-6.7725 -13.1308 -2.3560 0.9419
-6.6921 -13.1744 -2.3563 0.9419
-6.5306 -13.2601 -2.3570 0.9419
-6.3680 -13.3438 -2.3577 0.9419
-6.2863 -13.3850 -2.3581 0.9419
-6.2044 -13.4256 -2.3585 0.9419
-6.1221 -13.4658 -2.3588 0.9418
-6.0397 -13.5054 -2.3592 0.9418
-5.9570 -13.5446 -2.3595 0.9418
-5.8740 -13.5833 -2.3599 0.9418
-5.7908 -13.6215 -2.3603 0.9418
-5.7073 -13.6591 -2.3606 0.9418
-5.5397 -13.7330 -2.3614 0.9418
-5.4555 -13.7691 -2.3617 0.9418
-5.3711 -13.8048 -2.3621 0.9418
-5.2865 -13.8400 -2.3625 0.9418
-5.1165 -13.9087 -2.3632 0.9417
-4.4282 -14.1632 -2.3663 0.9417
-4.1668 -14.2500 -2.3675 0.9416
-3.7273 -14.3841 -2.3695 0.9416
-3.4616 -14.4581 -2.3707 0.9416
-3.1051 -14.5493 -2.3723 0.9415
-3.0155 -14.5708 -2.3728 0.9415
-2.8361 -14.6120 -2.3736 0.9415
-2.7462 -14.6318 -2.3740 0.9415
-2.4755 -14.6880 -2.3752 0.9415
-2.3851 -14.7056 -2.3757 0.9414
-2.0220 -14.7706 -2.3773 0.9414
-1.9310 -14.7855 -2.3778 0.9414
-1.2910 -14.8739 -2.3808 0.9413
-1.1992 -14.8843 -2.3812 0.9413
-0.9234 -14.9122 -2.3825 0.9413
-0.7391 -14.9279 -2.3834 0.9413
-0.6469 -14.9349 -2.3838 0.9412
-0.3699 -14.9526 -2.3851 0.9412
-0.0925 -14.9652 -2.3865 0.9412
0.0926 -14.9708 -2.3873 0.9412
0.1853 -14.9727 -2.3878 0.9412
0.2779 -14.9740 -2.3882 0.9411
0.3706 -14.9748 -2.3887 0.9411
0.6487 -14.9738 -2.3900 0.9411
0.7414 -14.9723 -2.3905 0.9411
0.8341 -14.9702 -2.3909 0.9411
0.9269 -14.9676 -2.3914 0.9411
1.0196 -14.9644 -2.3918 0.9411
1.1123 -14.9606 -2.3923 0.9410
1.2978 -14.9513 -2.3932 0.9410
1.4831 -14.9397 -2.3941 0.9410
1.5758 -14.9331 -2.3945 0.9410
1.7610 -14.9181 -2.3954 0.9410
1.8536 -14.9097 -2.3959 0.9410
2.0386 -14.8913 -2.3968 0.9409
2.3159 -14.8594 -2.3981 0.9409
2.7768 -14.7948 -2.4004 0.9408
2.9607 -14.7649 -2.4013 0.9408
3.0525 -14.7491 -2.4018 0.9408
3.1443 -14.7328 -2.4022 0.9408
3.2359 -14.7158 -2.4027 0.9408
3.3275 -14.6983 -2.4032 0.9408
3.4190 -14.6803 -2.4036 0.9408
3.5104 -14.6616 -2.4041 0.9408
3.6929 -14.6226 -2.4050 0.9407
3.7839 -14.6023 -2.4054 0.9407
3.9657 -14.5599 -2.4064 0.9407
4.1471 -14.5152 -2.4073 0.9407
4.4182 -14.4440 -2.4086 0.9407
4.5982 -14.3937 -2.4096 0.9406
4.6880 -14.3677 -2.4100 0.9406
4.7777 -14.3412 -2.4105 0.9406
4.8672 -14.3141 -2.4109 0.9406
5.0458 -14.2581 -2.4118 0.9406
5.1349 -14.2294 -2.4123 0.9406
5.2237 -14.2000 -2.4127 0.9406
5.4894 -14.1086 -2.4141 0.9405
5.5776 -14.0771 -2.4146 0.9405
5.8411 -13.9790 -2.4159 0.9405
6.0158 -13.9109 -2.4168 0.9405
6.1028 -13.8760 -2.4173 0.9404
6.1896 -13.8406 -2.4177 0.9404
6.3627 -13.7681 -2.4186 0.9404
6.5350 -13.6935 -2.4195 0.9404
6.7063 -13.6166 -2.4204 0.9404
7.2148 -13.3732 -2.4231 0.9403
7.2986 -13.3307 -2.4235 0.9403
7.3823 -13.2878 -2.4240 0.9403
7.4657 -13.2443 -2.4244 0.9403
7.5488 -13.2003 -2.4249 0.9403
7.6317 -13.1557 -2.4253 0.9403
7.7967 -13.0651 -2.4262 0.9402
7.8787 -13.0189 -2.4266 0.9402
8.4453 -12.6816 -2.4296 0.9402
8.6045 -12.5806 -2.4305 0.9401
8.7626 -12.4777 -2.4314 0.9401
9.0748 -12.2656 -2.4331 0.9401
9.1521 -12.2114 -2.4335 0.9401
9.3056 -12.1015 -2.4343 0.9400
9.5335 -11.9329 -2.4356 0.9400
9.7582 -11.7599 -2.4368 0.9400
9.8323 -11.7013 -2.4372 0.9400
9.9062 -11.6422 -2.4376 0.9400
10.0528 -11.5227 -2.4384 0.9399
10.1979 -11.4013 -2.4393 0.9399
10.9008 -10.7667 -2.4432 0.9398
11.0366 -10.6345 -2.4440 0.9398
11.2373 -10.4328 -2.4451 0.9398
11.3690 -10.2962 -2.4459 0.9398
11.5634 -10.0881 -2.4470 0.9397
11.7538 -9.8763 -2.4481 0.9397
11.8165 -9.8050 -2.4485 0.9397
11.9404 -9.6609 -2.4492 0.9397
12.0017 -9.5884 -2.4496 0.9397
12.0625 -9.5153 -2.4500 0.9397
12.2423 -9.2940 -2.4510 0.9396
12.3013 -9.2194 -2.4514 0.9396
12.3599 -9.1445 -2.4517 0.9396
12.5894 -8.8410 -2.4531 0.9396
12.7013 -8.6870 -2.4538 0.9396
12.7565 -8.6094 -2.4541 0.9396
12.8112 -8.5316 -2.4545 0.9396
12.8655 -8.4533 -2.4548 0.9395
12.9726 -8.2958 -2.4555 0.9395
13.0254 -8.2165 -2.4558 0.9395
13.0776 -8.1368 -2.4561 0.9395
13.1295 -8.0569 -2.4564 0.9395
13.1807 -7.9765 -2.4568 0.9395
13.2316 -7.8959 -2.4571 0.9395
13.2818 -7.8150 -2.4574 0.9395
13.3809 -7.6520 -2.4580 0.9395
13.4779 -7.4878 -2.4586 0.9395
13.5256 -7.4053 -2.4589 0.9395
13.5728 -7.3224 -2.4592 0.9394
13.6195 -7.2392 -2.4596 0.9394
13.6657 -7.1557 -2.4598 0.9394
13.7113 -7.0719 -2.4601 0.9394
13.7565 -6.9878 -2.4604 0.9394
13.8451 -6.8187 -2.4610 0.9394
13.8886 -6.7338 -2.4613 0.9394
13.9316 -6.6486 -2.4616 0.9394
13.9740 -6.5630 -2.4619 0.9394
14.0160 -6.4772 -2.4622 0.9394
14.0982 -6.3048 -2.4627 0.9394
14.1385 -6.2182 -2.4630 0.9394
14.2174 -6.0442 -2.4635 0.9393
14.2561 -5.9567 -2.4638 0.9393
14.5111 -5.3381 -2.4656 0.9393
14.5789 -5.1593 -2.4661 0.9393
14.6120 -5.0695 -2.4663 0.9393
14.7385 -4.7083 -2.4673 0.9393
14.7687 -4.6175 -2.4675 0.9392
14.7983 -4.5265 -2.4677 0.9392
14.8274 -4.4354 -2.4679 0.9392
14.8559 -4.3439 -2.4682 0.9392
14.8837 -4.2523 -2.4684 0.9392
14.9378 -4.0687 -2.4688 0.9392
15.0145 -3.7918 -2.4694 0.9392
15.0627 -3.6064 -2.4698 0.9392
15.1086 -3.4203 -2.4702 0.9392
15.1306 -3.3271 -2.4704 0.9392
15.1521 -3.2337 -2.4706 0.9392
15.1729 -3.1402 -2.4708 0.9392
15.1932 -3.0465 -2.4710 0.9392
15.2319 -2.8588 -2.4713 0.9392
15.2504 -2.7647 -2.4715 0.9392
15.2855 -2.5763 -2.4719 0.9391
15.3022 -2.4819 -2.4720 0.9391
15.3337 -2.2927 -2.4724 0.9391
15.3486 -2.1980 -2.4725 0.9391
15.3766 -2.0082 -2.4728 0.9391
15.4251 -1.6277 -2.4734 0.9391
15.4458 -1.4369 -2.4737 0.9391
15.4552 -1.3414 -2.4738 0.9391
15.4723 -1.1503 -2.4741 0.9391
15.4799 -1.0547 -2.4742 0.9391
15.4932 -0.8632 -2.4744 0.9391
15.5087 -0.5757 -2.4748 0.9391
15.5160 -0.3839 -2.4750 0.9391
15.5234 0.0960 -2.4755 0.9391
15.5221 0.2880 -2.4756 0.9391
15.5155 0.5760 -2.4759 0.9390
15.5121 0.6720 -2.4759 0.9390
15.5081 0.7679 -2.4760 0.9390
15.4982 0.9597 -2.4761 0.9390
15.4924 1.0555 -2.4762 0.9390
15.4788 1.2471 -2.4763 0.9390
15.4629 1.4385 -2.4764 0.9390
15.4539 1.5342 -2.4764 0.9390
15.4444 1.6297 -2.4765 0.9390
15.4235 1.8207 -2.4766 0.9390
15.3607 2.2967 -2.4767 0.9390
15.3313 2.4866 -2.4767 0.9390
15.3157 2.5814 -2.4767 0.9390
15.2654 2.8651 -2.4768 0.9390
15.2287 3.0537 -2.4768 0.9390
15.2095 3.1478 -2.4768 0.9390
15.1896 3.2418 -2.4767 0.9390
15.1693 3.3356 -2.4767 0.9390
15.1483 3.4294 -2.4767 0.9390
15.1266 3.5229 -2.4767 0.9390
14.9845 4.0814 -2.4765 0.9390
14.9588 4.1739 -2.4765 0.9390
14.9325 4.2663 -2.4765 0.9390
14.8498 4.5423 -2.4763 0.9390
14.8212 4.6339 -2.4763 0.9390
14.7918 4.7254 -2.4762 0.9390
14.7620 4.8166 -2.4761 0.9390
14.7005 4.9986 -2.4760 0.9390
14.6040 5.2700 -2.4758 0.9390
14.5368 5.4499 -2.4756 0.9391
14.4317 5.7180 -2.4754 0.9391
14.3588 5.8956 -2.4752 0.9391
14.2452 6.1602 -2.4749 0.9391
14.2062 6.2479 -2.4748 0.9391
14.1666 6.3354 -2.4747 0.9391
14.0030 6.6826 -2.4742 0.9391
13.9178 6.8546 -2.4740 0.9391
13.6494 7.3637 -2.4731 0.9391
13.6028 7.4475 -2.4730 0.9391
13.5080 7.6143 -2.4727 0.9391
13.3618 7.8621 -2.4722 0.9391
13.3121 7.9440 -2.4720 0.9391
12.4199 7.5162 -2.3149 0.9429
12.3243 7.6681 -2.3146 0.9429
12.2758 7.7437 -2.3145 0.9429
12.2268 7.8188 -2.3143 0.9429
12.1773 7.8937 -2.3141 0.9429
12.1273 7.9683 -2.3140 0.9429
11.9229 8.2633 -2.3132 0.9429
11.7646 8.4810 -2.3127 0.9429
11.7110 8.5529 -2.3125 0.9430
11.6570 8.6244 -2.3123 0.9430
11.6023 8.6956 -2.3121 0.9430
11.5474 8.7664 -2.3119 0.9430
11.3797 8.9767 -2.3113 0.9430
11.2082 9.1838 -2.3107 0.9430
11.0916 9.3200 -2.3102 0.9430
10.9734 9.4546 -2.3098 0.9430
10.7929 9.6537 -2.3091 0.9430
10.5465 9.9136 -2.3081 0.9431
10.4209 10.0412 -2.3077 0.9431
10.2936 10.1671 -2.3072 0.9431
10.0346 10.4141 -2.3061 0.9431
9.9029 10.5350 -2.3056 0.9431
9.7697 10.6544 -2.3051 0.9431
9.7025 10.7133 -2.3049 0.9431
9.5671 10.8300 -2.3043 0.9431
9.4988 10.8878 -2.3041 0.9432
9.3612 11.0018 -2.3035 0.9432
9.1522 11.1696 -2.3027 0.9432
9.0819 11.2246 -2.3024 0.9432
9.0112 11.2792 -2.3021 0.9432
8.8688 11.3869 -2.3016 0.9432
8.7971 11.4401 -2.3013 0.9432
8.6528 11.5451 -2.3007 0.9432
8.5801 11.5970 -2.3004 0.9432
8.3602 11.7496 -2.2995 0.9433
8.2864 11.7995 -2.2992 0.9433
8.2121 11.8490 -2.2989 0.9433
7.9877 11.9945 -2.2980 0.9433
7.9123 12.0420 -2.2977 0.9433
7.6079 12.2273 -2.2964 0.9433
7.5310 12.2724 -2.2961 0.9433
5.3284 9.1853 -1.6933 0.9579
7.0646 12.5327 -2.2942 0.9434
6.9070 12.6155 -2.2935 0.9434
6.8279 12.6561 -2.2932 0.9434
6.5089 12.8135 -2.2918 0.9434
6.4286 12.8516 -2.2915 0.9435
3.3445 7.1210 -1.2545 0.9686
5.9420 13.0693 -2.2894 0.9435
5.8601 13.1037 -2.2890 0.9435
5.7780 13.1377 -2.2887 0.9435
5.6958 13.1711 -2.2883 0.9435
4.8373 12.9027 -2.1973 0.9457
4.7494 12.9107 -2.1937 0.9458
4.6619 12.9188 -2.1901 0.9459
4.5746 12.9268 -2.1866 0.9460
4.4876 12.9348 -2.1832 0.9461
3.4087 10.4468 -1.7523 0.9565
3.3250 10.4082 -1.7424 0.9567
3.2461 10.3823 -1.7346 0.9569
3.0125 10.3024 -1.7117 0.9575
2.9570 10.3500 -1.7165 0.9573
2.8362 10.4128 -1.7210 0.9572
2.7455 10.5950 -1.7453 0.9566
2.8713 11.6732 -1.9169 0.9525
3.1088 13.7325 -2.2452 0.9446
2.0512 10.5680 -1.7167 0.9573
1.9167 10.5726 -1.7134 0.9574
1.8199 10.4049 -1.6844 0.9581
1.6609 10.6568 -1.7199 0.9573
1.7230 13.8598 -2.2271 0.9450
1.6370 13.8677 -2.2267 0.9450
1.4650 13.8835 -2.2262 0.9450
1.3790 13.8914 -2.2261 0.9450
1.2071 13.9072 -2.2260 0.9450
1.1211 13.9151 -2.2261 0.9450
0.6909 13.9546 -2.2280 0.9450
0.6048 13.9625 -2.2286 0.9450
0.5186 13.9704 -2.2293 0.9449
0.2596 13.9942 -2.2320 0.9449
0.0866 14.0101 -2.2341 0.9448
-0.0868 14.0260 -2.2367 0.9448
-0.1736 14.0340 -2.2381 0.9447
-0.2605 14.0420 -2.2396 0.9447
-0.4348 14.0580 -2.2428 0.9446
-0.5221 14.0660 -2.2446 0.9446
-0.6096 14.0741 -2.2464 0.9445
-0.8730 14.0982 -2.2525 0.9444
-0.9611 14.1063 -2.2547 0.9443
-1.0494 14.1144 -2.2570 0.9443
-1.2237 14.0995 -2.2568 0.9443
-1.5710 14.0546 -2.2552 0.9443
-1.6575 14.0421 -2.2548 0.9443
-1.8305 14.0154 -2.2539 0.9444
-1.8086 12.6295 -2.0345 0.9496
-2.0890 13.9713 -2.2527 0.9444
-2.1749 13.9556 -2.2523 0.9444
-2.4639 12.6944 -2.0621 0.9490
-2.1792 10.8675 -1.7675 0.9561
-2.2431 10.8384 -1.7650 0.9562
-3.4488 13.6565 -2.2461 0.9445
-2.8839 11.1293 -1.8333 0.9545
-3.8658 13.5309 -2.2440 0.9446
-3.4537 11.8114 -1.9624 0.9514
-4.1139 13.4496 -2.2428 0.9446
-3.8332 12.2603 -2.0484 0.9493
-4.4421 13.3340 -2.2412 0.9447
-2.7134 7.2376 -1.2326 0.9692
-3.1458 7.2745 -1.2638 0.9684
-3.1790 7.2282 -1.2592 0.9685
-3.2513 7.2702 -1.2700 0.9683
-3.3044 7.2680 -1.2731 0.9682
-3.3219 7.0731 -1.2461 0.9688
-3.4373 7.0895 -1.2564 0.9686
-3.5631 7.0144 -1.2546 0.9686
-3.6616 7.0993 -1.2738 0.9682
-3.7723 7.2041 -1.2968 0.9676
-3.8740 7.1808 -1.3011 0.9675
-3.9427 7.2012 -1.3092 0.9673
-4.0607 7.1008 -1.3044 0.9674
-4.0396 6.8655 -1.2703 0.9682
-4.2278 6.8896 -1.2890 0.9678
-4.4171 6.7227 -1.2827 0.9679
-4.5447 6.8245 -1.3075 0.9673
-4.6671 6.9151 -1.3304 0.9668
-4.8713 6.8463 -1.3399 0.9665
-4.9055 6.8049 -1.3377 0.9666
-4.9985 6.7561 -1.3402 0.9665
-5.1561 6.8798 -1.3710 0.9658
-5.1848 6.7426 -1.3563 0.9661
-5.4111 6.7730 -1.3824 0.9655
-5.5299 6.7489 -1.3913 0.9653
-5.8061 6.8236 -1.4287 0.9644
-5.6125 6.5141 -1.3712 0.9658
-5.8125 6.4984 -1.3903 0.9653
-5.8879 6.5013 -1.3987 0.9651
-6.3015 6.7874 -1.4769 0.9632
-6.1311 6.5225 -1.4275 0.9644
-6.2163 6.5317 -1.4379 0.9641
-6.4535 6.5338 -1.4644 0.9635
-6.7037 6.5399 -1.4934 0.9628
-7.2583 6.7387 -1.5794 0.9607
-7.2913 6.6859 -1.5775 0.9607
-7.4928 6.7858 -1.6120 0.9599
-7.5326 6.5717 -1.5941 0.9603
-8.0466 6.7614 -1.6760 0.9583
-7.9586 6.6038 -1.6491 0.9590
-8.3299 6.8254 -1.7173 0.9573
-8.8298 6.7899 -1.7762 0.9559
-8.8742 6.7371 -1.7767 0.9559
-8.8538 6.6357 -1.7644 0.9562
-9.3863 6.8551 -1.8534 0.9540
-9.6612 6.8742 -1.8908 0.9531
-9.7562 6.8514 -1.9011 0.9529
-10.5624 6.9401 -2.0154 0.9501
-10.6472 6.9019 -2.0234 0.9499
-10.9268 6.8927 -2.0601 0.9490
-11.2992 6.9338 -2.1140 0.9477
-11.9188 6.9141 -2.1973 0.9457
-11.9599 6.8395 -2.1970 0.9457
-12.0005 6.7646 -2.1967 0.9457
-12.1196 6.5384 -2.1960 0.9457
-12.1584 6.4626 -2.1957 0.9458
-12.2346 6.3103 -2.1952 0.9458
-12.2719 6.2338 -2.1949 0.9458
-12.3089 6.1571 -2.1947 0.9458
-12.3453 6.0801 -2.1944 0.9458
-12.4168 5.9257 -2.1940 0.9458
-12.4865 5.7704 -2.1935 0.9458
-12.5873 5.5360 -2.1928 0.9458
-12.6200 5.4575 -2.1925 0.9458
-12.6522 5.3788 -2.1923 0.9458
-12.7151 5.2208 -2.1919 0.9458
-13.7664 5.0642 -2.3391 0.9423
-13.7962 4.9785 -2.3389 0.9423
-13.8254 4.8926 -2.3386 0.9423
-13.8541 4.8066 -2.3384 0.9423
-13.9637 4.4608 -2.3376 0.9424
-13.9898 4.3740 -2.3374 0.9424
-14.0153 4.2871 -2.3372 0.9424
-14.0404 4.1999 -2.3370 0.9424
-14.1123 3.9377 -2.3364 0.9424
-14.1352 3.8501 -2.3362 0.9424
-14.1576 3.7623 -2.3360 0.9424
-14.2008 3.5863 -2.3356 0.9424
-14.2216 3.4982 -2.3354 0.9424
-14.2617 3.3215 -2.3351 0.9424
-14.2809 3.2330 -2.3349 0.9424
-14.3353 2.9668 -2.3344 0.9424
-14.3523 2.8779 -2.3342 0.9424
-14.3849 2.6998 -2.3339 0.9424
-14.4296 2.4320 -2.3335 0.9425
-14.4568 2.2531 -2.3332 0.9425
-14.4817 2.0738 -2.3329 0.9425
-14.4934 1.9841 -2.3327 0.9425
-14.5046 1.8944 -2.3326 0.9425
-14.5348 1.6247 -2.3322 0.9425
-14.5437 1.5347 -2.3321 0.9425
-14.5522 1.4446 -2.3320 0.9425
-14.5601 1.3545 -2.3318 0.9425
-14.5675 1.2644 -2.3317 0.9425
-14.5743 1.1742 -2.3316 0.9425
-14.5961 0.8133 -2.3312 0.9425
-14.6093 0.4519 -2.3308 0.9425
-14.6112 0.3615 -2.3307 0.9425
-14.6126 0.2711 -2.3306 0.9425
-13.9656 0.0000 -2.3335 0.9449
-13.9648 -0.0864 -2.3334 0.9449
-13.9636 -0.1727 -2.3333 0.9449
-13.9618 -0.2591 -2.3332 0.9449
-13.9567 -0.4317 -2.3331 0.9449
-13.9496 -0.6043 -2.3330 0.9449
-13.9404 -0.7767 -2.3329 0.9450
-13.9226 -1.0351 -2.3327 0.9450
-13.9082 -1.2072 -2.3326 0.9450
-13.8918 -1.3790 -2.3325 0.9450
-13.8828 -1.4650 -2.3325 0.9450
-13.8732 -1.5507 -2.3325 0.9450
-13.8416 -1.8078 -2.3324 0.9450
-13.8300 -1.8933 -2.3324 0.9450
-13.8179 -1.9788 -2.3323 0.9450
-13.8053 -2.0642 -2.3323 0.9450
-13.7922 -2.1495 -2.3323 0.9450
-13.7786 -2.2348 -2.3323 0.9450
-13.7644 -2.3199 -2.3323 0.9450
-13.7498 -2.4050 -2.3323 0.9450
-13.7346 -2.4900 -2.3323 0.9450
-13.7189 -2.5749 -2.3323 0.9450
-13.6688 -2.8289 -2.3323 0.9450
-13.6329 -2.9978 -2.3323 0.9450
-13.5950 -3.1662 -2.3323 0.9450
-13.5130 -3.5016 -2.3324 0.9450
-13.4912 -3.5852 -2.3324 0.9450
-13.4462 -3.7519 -2.3325 0.9450
-13.4230 -3.8350 -2.3325 0.9450
-13.3750 -4.0009 -2.3326 0.9450
-13.3249 -4.1661 -2.3327 0.9450
-13.2992 -4.2486 -2.3328 0.9450
-13.2730 -4.3308 -2.3328 0.9450
-13.2463 -4.4129 -2.3329 0.9450
-13.2190 -4.4949 -2.3329 0.9449
-13.1913 -4.5766 -2.3330 0.9449
-13.1630 -4.6582 -2.3330 0.9449
-13.1344 -4.7397 -2.3331 0.9449
-13.1052 -4.8210 -2.3332 0.9449
-13.0453 -4.9830 -2.3333 0.9449
-13.0147 -5.0637 -2.3334 0.9449
-12.9835 -5.1443 -2.3335 0.9449
-12.9519 -5.2247 -2.3335 0.9449
-12.9198 -5.3048 -2.3336 0.9449
-12.8872 -5.3848 -2.3337 0.9449
-12.8541 -5.4646 -2.3338 0.9449
-12.8206 -5.5442 -2.3339 0.9449
-12.6456 -5.9392 -2.3343 0.9449
-12.6092 -6.0175 -2.3344 0.9449
-12.5350 -6.1736 -2.3347 0.9449
-12.4971 -6.2513 -2.3348 0.9449
-12.4588 -6.3287 -2.3349 0.9449
-12.4201 -6.4060 -2.3350 0.9449
-12.3808 -6.4830 -2.3351 0.9449
-12.3412 -6.5598 -2.3352 0.9449
-12.3010 -6.6363 -2.3354 0.9449
-12.1778 -6.8645 -2.3357 0.9449
-12.0933 -7.0154 -2.3360 0.9449
-12.0504 -7.0904 -2.3362 0.9449
-12.0071 -7.1653 -2.3363 0.9449
-11.9190 -7.3141 -2.3366 0.9449
-11.8743 -7.3882 -2.3367 0.9449
-11.8291 -7.4619 -2.3369 0.9449
-11.5488 -7.8988 -2.3378 0.9448
-11.5006 -7.9707 -2.3380 0.9448
-11.2528 -8.3255 -2.3389 0.9448
-11.2020 -8.3956 -2.3390 0.9448
-11.1507 -8.4654 -2.3392 0.9448
-10.9415 -8.7414 -2.3400 0.9448
-10.8881 -8.8096 -2.3402 0.9448
-10.8343 -8.8775 -2.3404 0.9448
-10.6705 -9.0793 -2.3410 0.9448
-10.6151 -9.1459 -2.3412 0.9448
-10.5592 -9.2122 -2.3414 0.9448
-10.3319 -9.4740 -2.3422 0.9447
-10.2741 -9.5386 -2.3424 0.9447
-10.1573 -9.6668 -2.3429 0.9447
-10.0983 -9.7304 -2.3431 0.9447
-10.0389 -9.7936 -2.3433 0.9447
-9.9189 -9.9190 -2.3438 0.9447
-9.8584 -9.9811 -2.3440 0.9447
-9.7975 -10.0429 -2.3443 0.9447
-9.7362 -10.1043 -2.3445 0.9447
-9.6745 -10.1654 -2.3448 0.9447
-9.4240 -10.4059 -2.3457 0.9447
-9.3605 -10.4651 -2.3460 0.9446
-9.2966 -10.5240 -2.3462 0.9446
-9.1028 -10.6981 -2.3470 0.9446
-9.0374 -10.7554 -2.3473 0.9446
-8.9057 -10.8688 -2.3478 0.9446
-8.7726 -10.9806 -2.3483 0.9446
-8.7056 -11.0360 -2.3486 0.9446
-8.5704 -11.1454 -2.3492 0.9446
-8.3652 -11.3065 -2.3500 0.9446
-8.2961 -11.3594 -2.3503 0.9446
-8.2267 -11.4119 -2.3506 0.9445
-8.0869 -11.5156 -2.3512 0.9445
-7.8035 -11.7179 -2.3523 0.9445
-7.6599 -11.8166 -2.3529 0.9445
-7.5877 -11.8653 -2.3532 0.9445
-7.4423 -11.9613 -2.3538 0.9445
-7.3691 -12.0087 -2.3542 0.9445
-7.2957 -12.0556 -2.3545 0.9445
-7.2219 -12.1021 -2.3548 0.9444
-7.1479 -12.1482 -2.3551 0.9444
-7.0736 -12.1938 -2.3554 0.9444
-6.9990 -12.2389 -2.3557 0.9444
-6.4690 -12.5425 -2.3580 0.9444
-6.3152 -12.6250 -2.3587 0.9444
-6.2379 -12.6657 -2.3590 0.9444
-6.1603 -12.7058 -2.3593 0.9443
-6.0044 -12.7847 -2.3600 0.9443
-5.7687 -12.8995 -2.3610 0.9443
-5.6104 -12.9737 -2.3617 0.9443
-5.5308 -13.0100 -2.3621 0.9443
-5.4511 -13.0459 -2.3624 0.9443
-5.2909 -13.1162 -2.3631 0.9443
-5.2105 -13.1507 -2.3635 0.9442
-5.1298 -13.1847 -2.3639 0.9442
-4.9679 -13.2511 -2.3646 0.9442
-4.5593 -13.4087 -2.3664 0.9442
-4.4770 -13.4387 -2.3668 0.9442
-4.3945 -13.4683 -2.3671 0.9442
-4.3118 -13.4973 -2.3675 0.9442
-4.0626 -13.5814 -2.3686 0.9441
-3.9792 -13.6085 -2.3690 0.9441
-3.8955 -13.6350 -2.3694 0.9441
-3.8118 -13.6610 -2.3698 0.9441
-3.7278 -13.6865 -2.3701 0.9441
-3.6437 -13.7115 -2.3705 0.9441
-3.4749 -13.7600 -2.3713 0.9441
-3.3056 -13.8064 -2.3721 0.9441
-3.2206 -13.8288 -2.3724 0.9440
-3.1356 -13.8508 -2.3728 0.9440
-2.8795 -13.9134 -2.3740 0.9440
-2.6222 -13.9714 -2.3752 0.9440
-2.4500 -14.0075 -2.3760 0.9440
-2.2773 -14.0414 -2.3768 0.9439
-2.1908 -14.0576 -2.3772 0.9439
-1.9306 -14.1030 -2.3784 0.9439
-1.8437 -14.1171 -2.3788 0.9439
-1.7567 -14.1307 -2.3792 0.9439
-1.5823 -14.1562 -2.3800 0.9439
-1.4950 -14.1681 -2.3804 0.9439
-1.4076 -14.1795 -2.3808 0.9439
-1.3201 -14.1904 -2.3813 0.9438
-1.0571 -14.2199 -2.3825 0.9438
-0.8815 -14.2368 -2.3833 0.9438
-0.7936 -14.2445 -2.3837 0.9438
-0.7056 -14.2516 -2.3842 0.9438
-0.6176 -14.2582 -2.3846 0.9438
-0.5295 -14.2642 -2.3850 0.9438
-0.4413 -14.2697 -2.3854 0.9437
-0.3531 -14.2747 -2.3858 0.9437
-0.2649 -14.2791 -2.3863 0.9437
0.0000 -14.2892 -2.3875 0.9437
0.1768 -14.2931 -2.3884 0.9437
0.3537 -14.2949 -2.3892 0.9437
0.5307 -14.2946 -2.3901 0.9436
0.6192 -14.2935 -2.3905 0.9436
0.9733 -14.2841 -2.3922 0.9436
1.2387 -14.2713 -2.3935 0.9436
1.3272 -14.2659 -2.3939 0.9436
1.5041 -14.2535 -2.3948 0.9435
1.5925 -14.2466 -2.3952 0.9435
1.7692 -14.2309 -2.3961 0.9435
2.0340 -14.2033 -2.3974 0.9435
2.2984 -14.1708 -2.3987 0.9434
2.4744 -14.1464 -2.3996 0.9434
2.6501 -14.1199 -2.4004 0.9434
2.9132 -14.0759 -2.4017 0.9434
3.0007 -14.0602 -2.4022 0.9434
3.0882 -14.0439 -2.4026 0.9434
3.1756 -14.0271 -2.4030 0.9433
3.2629 -14.0097 -2.4035 0.9433
3.6110 -13.9349 -2.4052 0.9433
3.6978 -13.9148 -2.4057 0.9433
3.7845 -13.8942 -2.4061 0.9433
3.8710 -13.8730 -2.4065 0.9433
3.9574 -13.8513 -2.4070 0.9433
4.0437 -13.8291 -2.4074 0.9432
4.3877 -13.7348 -2.4091 0.9432
4.4734 -13.7098 -2.4096 0.9432
4.6443 -13.6584 -2.4105 0.9432
4.7295 -13.6319 -2.4109 0.9432
4.8996 -13.5772 -2.4118 0.9431
5.1533 -13.4913 -2.4131 0.9431
5.2376 -13.4616 -2.4135 0.9431
5.4056 -13.4005 -2.4144 0.9431
5.4894 -13.3692 -2.4148 0.9431
5.5730 -13.3374 -2.4152 0.9431
5.8226 -13.2388 -2.4165 0.9430
5.9054 -13.2049 -2.4169 0.9430
6.0704 -13.1355 -2.4178 0.9430
6.3164 -13.0275 -2.4191 0.9430
6.3979 -12.9905 -2.4195 0.9430
6.5604 -12.9150 -2.4204 0.9429
6.6414 -12.8764 -2.4208 0.9429
6.8025 -12.7978 -2.4216 0.9429
6.8827 -12.7577 -2.4221 0.9429
7.0424 -12.6760 -2.4229 0.9429
7.2801 -12.5497 -2.4242 0.9429
7.3589 -12.5066 -2.4246 0.9428
7.5156 -12.4189 -2.4254 0.9428
7.9027 -12.1910 -2.4275 0.9428
8.0556 -12.0964 -2.4283 0.9428
8.2073 -11.9999 -2.4291 0.9427
8.4328 -11.8515 -2.4303 0.9427
8.5074 -11.8011 -2.4308 0.9427
8.5816 -11.7502 -2.4312 0.9427
8.7292 -11.6471 -2.4320 0.9427
9.0205 -11.4351 -2.4336 0.9426
9.0925 -11.3809 -2.4340 0.9426
9.2355 -11.2713 -2.4347 0.9426
9.3066 -11.2158 -2.4351 0.9426
9.3773 -11.1598 -2.4355 0.9426
9.4477 -11.1034 -2.4359 0.9426
9.5873 -10.9892 -2.4367 0.9426
9.6566 -10.9314 -2.4371 0.9426
9.7255 -10.8732 -2.4375 0.9426
9.7942 -10.8145 -2.4379 0.9425
9.8624 -10.7554 -2.4382 0.9425
9.9303 -10.6959 -2.4386 0.9425
9.9978 -10.6360 -2.4390 0.9425
10.0649 -10.5756 -2.4394 0.9425
10.1981 -10.4535 -2.4401 0.9425
10.5244 -10.1410 -2.4420 0.9425
10.7156 -9.9484 -2.4431 0.9424
10.7785 -9.8834 -2.4434 0.9424
10.9648 -9.6860 -2.4445 0.9424
11.0870 -9.5525 -2.4452 0.9424
11.2672 -9.3492 -2.4463 0.9424
11.3264 -9.2806 -2.4466 0.9423
11.3852 -9.2117 -2.4470 0.9423
11.4435 -9.1424 -2.4473 0.9423
11.5015 -9.0728 -2.4477 0.9423
11.5589 -9.0027 -2.4480 0.9423
11.6160 -8.9323 -2.4484 0.9423
11.6726 -8.8615 -2.4487 0.9423
11.7288 -8.7904 -2.4490 0.9423
11.8399 -8.6470 -2.4497 0.9423
11.8947 -8.5747 -2.4500 0.9423
12.0031 -8.4292 -2.4507 0.9423
12.0566 -8.3559 -2.4510 0.9422
12.1096 -8.2823 -2.4513 0.9422
12.1622 -8.2084 -2.4516 0.9422
12.3171 -7.9844 -2.4526 0.9422
12.3679 -7.9091 -2.4529 0.9422
12.5172 -7.6812 -2.4538 0.9422
12.6144 -7.5277 -2.4544 0.9422
12.7096 -7.3729 -2.4550 0.9422
12.7565 -7.2950 -2.4553 0.9421
12.8029 -7.2168 -2.4556 0.9421
12.8943 -7.0596 -2.4562 0.9421
12.9837 -6.9012 -2.4568 0.9421
13.0711 -6.7417 -2.4574 0.9421
13.1564 -6.5810 -2.4579 0.9421
13.1983 -6.5002 -2.4582 0.9421
13.3211 -6.2563 -2.4590 0.9421
13.3610 -6.1745 -2.4593 0.9421
13.4775 -5.9275 -2.4601 0.9420
13.5526 -5.7615 -2.4606 0.9420
13.6614 -5.5108 -2.4613 0.9420
13.6966 -5.4268 -2.4616 0.9420
13.7312 -5.3425 -2.4618 0.9420
13.8965 -4.9178 -2.4630 0.9420
14.0191 -4.5742 -2.4639 0.9419
14.0771 -4.4013 -2.4644 0.9419
14.1600 -4.1404 -2.4650 0.9419
14.1865 -4.0531 -2.4652 0.9419
14.2125 -3.9657 -2.4654 0.9419
14.2628 -3.7902 -2.4658 0.9419
14.3340 -3.5258 -2.4664 0.9419
14.3787 -3.3487 -2.4668 0.9419
14.4416 -3.0821 -2.4673 0.9419
14.4614 -2.9929 -2.4675 0.9419
14.5175 -2.7247 -2.4680 0.9419
14.5520 -2.5453 -2.4684 0.9418
14.5685 -2.4554 -2.4685 0.9418
14.5996 -2.2754 -2.4688 0.9418
14.6143 -2.1852 -2.4690 0.9418
14.6284 -2.0948 -2.4691 0.9418
14.6420 -2.0045 -2.4693 0.9418
14.6674 -1.8234 -2.4696 0.9418
14.6904 -1.6421 -2.4699 0.9418
14.7011 -1.5513 -2.4700 0.9418
14.7112 -1.4604 -2.4701 0.9418
14.7207 -1.3695 -2.4702 0.9418
14.7297 -1.2785 -2.4704 0.9418
14.7381 -1.1875 -2.4705 0.9418
14.7458 -1.0963 -2.4706 0.9418
14.7531 -1.0052 -2.4707 0.9418
14.7761 -0.6401 -2.4712 0.9418
14.7841 -0.4573 -2.4714 0.9418
14.7872 -0.3659 -2.4715 0.9418
14.7898 -0.2744 -2.4716 0.9418
14.7917 -0.1829 -2.4717 0.9418
14.7939 0.0000 -2.4719 0.9418
14.7914 0.3660 -2.4722 0.9418
14.7893 0.4575 -2.4723 0.9418
14.7833 0.6404 -2.4724 0.9418
14.7700 0.9146 -2.4726 0.9418
14.7644 1.0060 -2.4726 0.9418
14.7583 1.0972 -2.4727 0.9417
14.7514 1.1885 -2.4728 0.9417
14.7441 1.2797 -2.4728 0.9417
14.7362 1.3709 -2.4728 0.9417
14.7090 1.6441 -2.4730 0.9417
14.6987 1.7351 -2.4730 0.9417
14.6879 1.8260 -2.4730 0.9417
14.6519 2.0982 -2.4731 0.9417
14.6108 2.3697 -2.4732 0.9417
14.5645 2.6404 -2.4732 0.9417
14.5307 2.8204 -2.4732 0.9417
14.4947 2.9998 -2.4732 0.9417
14.4758 3.0894 -2.4732 0.9417
14.4563 3.1788 -2.4732 0.9417
14.4363 3.2682 -2.4731 0.9417
14.3277 3.7128 -2.4730 0.9417
14.1788 4.2413 -2.4728 0.9417
14.1520 4.3288 -2.4728 0.9417
14.0684 4.5903 -2.4726 0.9418
14.0394 4.6771 -2.4725 0.9418
14.0098 4.7637 -2.4725 0.9418
13.9179 5.0224 -2.4723 0.9418
13.6843 5.6187 -2.4717 0.9418
13.6127 5.7871 -2.4715 0.9418
13.5013 6.0379 -2.4712 0.9418
13.4632 6.1210 -2.4711 0.9418
13.3852 6.2865 -2.4709 0.9418
13.3454 6.3688 -2.4707 0.9418
13.3052 6.4509 -2.4706 0.9418
13.2231 6.6144 -2.4704 0.9418
13.1813 6.6957 -2.4703 0.9418
13.0961 6.8574 -2.4700 0.9418
13.0527 6.9379 -2.4699 0.9418
12.9644 7.0980 -2.4696 0.9418
12.9195 7.1777 -2.4694 0.9418
12.7350 7.4932 -2.4688 0.9418
12.6876 7.5713 -2.4687 0.9418
11.8373 7.1636 -2.3118 0.9454
11.8181 7.2522 -2.3168 0.9453
11.5107 7.6654 -2.3107 0.9455
11.3640 7.8759 -2.3102 0.9455
11.3142 7.9454 -2.3100 0.9455
11.2639 8.0146 -2.3098 0.9455
11.2133 8.0835 -2.3097 0.9455
11.0587 8.2881 -2.3091 0.9455
11.0064 8.3557 -2.3089 0.9455
10.9536 8.4229 -2.3087 0.9455
10.9004 8.4898 -2.3085 0.9455
10.8467 8.5563 -2.3083 0.9455
10.7927 8.6225 -2.3081 0.9455
10.5162 8.9480 -2.3071 0.9455
10.4597 9.0120 -2.3069 0.9455
10.4028 9.0757 -2.3067 0.9456
10.3455 9.1390 -2.3065 0.9456
10.1713 9.3266 -2.3058 0.9456
10.1124 9.3884 -2.3056 0.9456
10.0531 9.4498 -2.3053 0.9456
9.9935 9.5109 -2.3051 0.9456
9.9335 9.5716 -2.3049 0.9456
9.6279 9.8690 -2.3037 0.9456
9.4402 10.0428 -2.3030 0.9456
9.3769 10.0999 -2.3027 0.9456
9.3133 10.1566 -2.3025 0.9456
9.2493 10.2129 -2.3022 0.9457
9.1849 10.2688 -2.3020 0.9457
9.1202 10.3243 -2.3017 0.9457
8.8582 10.5420 -2.3007 0.9457
8.7251 10.6483 -2.3002 0.9457
8.6581 10.7008 -2.2999 0.9457
8.4551 10.8557 -2.2991 0.9457
8.1800 11.0562 -2.2980 0.9458
8.1105 11.1053 -2.2977 0.9458
7.9002 11.2496 -2.2969 0.9458
7.8295 11.2969 -2.2966 0.9458
7.7585 11.3436 -2.2963 0.9458
7.6157 11.4358 -2.2957 0.9458
7.3993 11.5706 -2.2948 0.9458
7.3266 11.6146 -2.2945 0.9458
7.2537 11.6582 -2.2942 0.9458
7.0334 11.7860 -2.2933 0.9459
6.8108 11.9096 -2.2923 0.9459
3.7186 6.7920 -1.2938 0.9691
3.7012 6.8605 -1.3025 0.9689
3.5884 6.8530 -1.2925 0.9691
3.4490 6.8950 -1.2882 0.9692
3.4103 6.9244 -1.2897 0.9692
3.2936 7.0128 -1.2945 0.9691
3.1780 6.8768 -1.2658 0.9697
5.5882 12.4956 -2.2871 0.9460
2.9663 7.0992 -1.2856 0.9693
2.9526 7.1911 -1.2989 0.9690
2.9185 7.2350 -1.3035 0.9689
4.9574 12.7412 -2.2844 0.9461
4.7979 12.7976 -2.2836 0.9461
4.7179 12.8251 -2.2833 0.9461
4.6378 12.8520 -2.2829 0.9461
4.5575 12.8784 -2.2826 0.9461
4.3965 12.9297 -2.2819 0.9461
3.4461 10.5617 -1.8563 0.9559
4.1423 12.9664 -2.2744 0.9463
4.0565 12.9743 -2.2713 0.9464
2.1436 7.1660 -1.2498 0.9701
3.2018 11.2068 -1.9474 0.9538
2.8630 10.2606 -1.7799 0.9577
3.4192 13.1949 -2.2775 0.9462
1.7898 7.2766 -1.2521 0.9701
2.4773 10.6371 -1.8249 0.9567
2.6130 11.8830 -2.0329 0.9519
2.8418 13.3155 -2.2749 0.9463
2.2199 10.7262 -1.8302 0.9566
2.6760 13.3453 -2.2742 0.9463
2.5930 13.3594 -2.2738 0.9463
1.9414 10.3441 -1.7585 0.9582
1.6945 10.4478 -1.7685 0.9580
1.6348 10.4899 -1.7739 0.9579
1.8431 13.4629 -2.2704 0.9464
1.5922 13.4880 -2.2693 0.9464
1.1735 13.5194 -2.2674 0.9465
1.0896 13.5240 -2.2670 0.9465
1.0058 13.5282 -2.2666 0.9465
0.9220 13.5319 -2.2662 0.9465
0.6704 13.5397 -2.2651 0.9465
0.5866 13.5413 -2.2647 0.9465
0.5028 13.5424 -2.2643 0.9465
0.3351 13.5429 -2.2635 0.9465
0.1675 13.5414 -2.2627 0.9466
-0.0837 13.5351 -2.2616 0.9466
-0.1673 13.5320 -2.2612 0.9466
-0.2510 13.5284 -2.2608 0.9466
-0.3346 13.5242 -2.2604 0.9466
-0.5017 13.5143 -2.2596 0.9466
-0.6685 13.5024 -2.2588 0.9467
-0.8352 13.4884 -2.2580 0.9467
-1.3336 13.4341 -2.2557 0.9467
-1.4164 13.4232 -2.2553 0.9467
-1.5818 13.4000 -2.2545 0.9467
-1.7468 13.3747 -2.2537 0.9468
-1.9935 13.3330 -2.2525 0.9468
-2.0756 13.3181 -2.2521 0.9468
-2.2394 13.2868 -2.2513 0.9468
-1.9296 11.0318 -1.8712 0.9556
-2.4027 13.2534 -2.2506 0.9468
-1.3690 7.2940 -1.2400 0.9704
-1.4156 7.2933 -1.2414 0.9703
-2.5154 12.1540 -2.0738 0.9509
-2.8088 13.1613 -2.2486 0.9469
-2.8897 13.1413 -2.2482 0.9469
-3.0778 12.8549 -2.2086 0.9478
-1.8247 7.4184 -1.2765 0.9695
-3.2917 13.0343 -2.2462 0.9469
-2.8839 11.1293 -1.9210 0.9544
-3.4515 12.9881 -2.2455 0.9470
-3.5311 12.9642 -2.2451 0.9470
-2.1177 7.2425 -1.2608 0.9699
-2.1661 7.2413 -1.2629 0.9698
-3.9268 12.8377 -2.2431 0.9470
-3.4565 10.8200 -1.8979 0.9550
-2.4334 7.4579 -1.3108 0.9687
-2.5304 7.1504 -1.2673 0.9697
-2.8066 7.0837 -1.2731 0.9696
-2.9822 7.2631 -1.3119 0.9687
-3.0255 7.2408 -1.3112 0.9687
-3.0726 7.1053 -1.2934 0.9691
-3.0066 6.8362 -1.2478 0.9702
-3.0716 6.8685 -1.2572 0.9699
-3.1297 6.8837 -1.2635 0.9698
-3.1883 6.8991 -1.2699 0.9696
-3.1988 6.8108 -1.2573 0.9699
-3.4272 6.9588 -1.2961 0.9690
-3.8878 7.1011 -1.3527 0.9677
-3.9310 7.0757 -1.3525 0.9677
-3.9057 6.9287 -1.3290 0.9683
-3.9827 6.8656 -1.3262 0.9683
-4.0173 6.8276 -1.3236 0.9684
-4.3695 6.7407 -1.3422 0.9679
-4.4063 6.7062 -1.3407 0.9680
-4.5072 6.7681 -1.3587 0.9676
-4.7801 6.7181 -1.3777 0.9671
-4.9964 6.7533 -1.4036 0.9665
-5.2239 6.7934 -1.4319 0.9658
-5.6114 6.6782 -1.4574 0.9652
-5.8367 6.7743 -1.4941 0.9644
-5.9755 6.7644 -1.5081 0.9641
-6.1193 6.7569 -1.5232 0.9637
-6.0482 6.5146 -1.4853 0.9646
-6.5471 6.7111 -1.5665 0.9627
-6.7170 6.7170 -1.5872 0.9622
-6.8348 6.7508 -1.6051 0.9618
-6.8798 6.7117 -1.6059 0.9618
-7.0476 6.7908 -1.6353 0.9611
-6.8830 6.5506 -1.5876 0.9622
-6.9681 6.5499 -1.5979 0.9620
-7.4242 6.8077 -1.6831 0.9600
-7.4703 6.7655 -1.6840 0.9600
-7.6444 6.7529 -1.7043 0.9595
-7.8452 6.7594 -1.7303 0.9589
-7.9479 6.7627 -1.7437 0.9586
-8.1663 6.8619 -1.7822 0.9577
-7.9589 6.6041 -1.7280 0.9589
-8.2945 6.7964 -1.7917 0.9574
-8.5811 6.7691 -1.8262 0.9566
-8.6281 6.7201 -1.8273 0.9566
-8.7858 6.7560 -1.8518 0.9560
-9.1402 6.8503 -1.9085 0.9547
-9.4022 6.8667 -1.9454 0.9539
-9.4634 6.6457 -1.9321 0.9542
-9.8122 6.8005 -1.9948 0.9527
-10.1046 6.8197 -2.0369 0.9518
-10.0383 6.6850 -2.0151 0.9523
-10.5638 6.9410 -2.1120 0.9500
-10.9333 6.8968 -2.1599 0.9489
-11.0287 6.8621 -2.1703 0.9487
-11.2253 6.8884 -2.2006 0.9480
-11.3069 6.7474 -2.2001 0.9480
-11.3471 6.6766 -2.1998 0.9480
-11.3868 6.6055 -2.1995 0.9480
-11.4261 6.5342 -2.1993 0.9480
-11.4650 6.4627 -2.1990 0.9480
-11.5415 6.3190 -2.1985 0.9480
-11.6528 6.1017 -2.1978 0.9481
-11.6890 6.0289 -2.1976 0.9481
-11.7248 5.9558 -2.1973 0.9481
-11.7950 5.8091 -2.1968 0.9481
-11.8295 5.7355 -2.1966 0.9481
-11.8634 5.6616 -2.1964 0.9481
-11.8970 5.5875 -2.1961 0.9481
-11.9301 5.5133 -2.1959 0.9481
-11.9627 5.4388 -2.1957 0.9481
-12.0266 5.2894 -2.1953 0.9481
-12.2113 5.1024 -2.2113 0.9477
-12.4345 5.1056 -2.2460 0.9469
-12.6648 5.1088 -2.2818 0.9461
-12.9024 5.1121 -2.3189 0.9453
-13.0654 5.0834 -2.3425 0.9447
-13.0953 5.0021 -2.3422 0.9447
-13.1248 4.9205 -2.3420 0.9447
-13.1538 4.8388 -2.3418 0.9447
-13.1823 4.7570 -2.3416 0.9448
-13.2102 4.6749 -2.3414 0.9448
-13.2647 4.5104 -2.3410 0.9448
-13.3172 4.3453 -2.3406 0.9448
-13.3921 4.0964 -2.3400 0.9448
-13.4161 4.0132 -2.3398 0.9448
-13.4396 3.9298 -2.3396 0.9448
-13.4625 3.8463 -2.3394 0.9448
-13.4850 3.7627 -2.3392 0.9448
-13.5070 3.6789 -2.3390 0.9448
-13.5284 3.5951 -2.3389 0.9448
-13.5493 3.5111 -2.3387 0.9448
-13.5698 3.4269 -2.3385 0.9448
-13.6280 3.1739 -2.3380 0.9448
-13.6464 3.0893 -2.3378 0.9448
-13.6643 3.0047 -2.3377 0.9448
-13.6817 2.9199 -2.3375 0.9448
-13.7307 2.6651 -2.3370 0.9449
-13.7461 2.5799 -2.3369 0.9449
-13.7752 2.4094 -2.3366 0.9449
-13.8150 2.1531 -2.3362 0.9449
-13.8272 2.0675 -2.3360 0.9449
-13.8389 1.9818 -2.3359 0.9449
-13.8608 1.8103 -2.3356 0.9449
-13.8806 1.6385 -2.3354 0.9449
-13.8898 1.5526 -2.3352 0.9449
-13.9065 1.3805 -2.3350 0.9449
-13.9277 1.1221 -2.3347 0.9449
-13.9337 1.0359 -2.3346 0.9449
-13.9392 0.9497 -2.3345 0.9449
-13.9442 0.8635 -2.3344 0.9449
-13.9526 0.6908 -2.3342 0.9449
-13.9560 0.6045 -2.3341 0.9449
-13.9590 0.5182 -2.3340 0.9449
-13.9613 0.4318 -2.3339 0.9449
-13.9646 0.2591 -2.3337 0.9449
-13.9658 0.0863 -2.3335 0.9449
-13.3712 0.0000 -2.3363 0.9472
-13.3693 -0.1654 -2.3362 0.9472
-13.3655 -0.3307 -2.3360 0.9472
-13.3597 -0.4960 -2.3359 0.9472
-13.3560 -0.5785 -2.3359 0.9472
-13.3364 -0.9086 -2.3356 0.9472
-13.3236 -1.0735 -2.3356 0.9472
-13.3165 -1.1558 -2.3355 0.9472
-13.3089 -1.2381 -2.3355 0.9472
-13.2921 -1.4026 -2.3354 0.9472
-13.2830 -1.4848 -2.3354 0.9472
-13.2634 -1.6489 -2.3353 0.9472
-13.2417 -1.8128 -2.3353 0.9472
-13.2301 -1.8946 -2.3353 0.9472
-13.2180 -1.9764 -2.3352 0.9472
-13.1924 -2.1397 -2.3352 0.9472
-13.1038 -2.6276 -2.3352 0.9472
-13.0873 -2.7086 -2.3352 0.9472
-13.0350 -2.9510 -2.3352 0.9472
-13.0166 -3.0315 -2.3352 0.9472
-12.9977 -3.1120 -2.3353 0.9472
-12.9585 -3.2725 -2.3353 0.9472
-12.9381 -3.3527 -2.3353 0.9472
-12.8959 -3.5125 -2.3354 0.9472
-12.8742 -3.5923 -2.3354 0.9472
-12.8519 -3.6719 -2.3354 0.9472
-12.8291 -3.7513 -2.3355 0.9472
-12.8059 -3.8306 -2.3355 0.9472
-12.7822 -3.9098 -2.3356 0.9472
-12.7580 -3.9889 -2.3356 0.9472
-12.7333 -4.0678 -2.3356 0.9472
-12.7082 -4.1466 -2.3357 0.9472
-12.6300 -4.3819 -2.3359 0.9472
-12.6029 -4.4600 -2.3359 0.9472
-12.5754 -4.5380 -2.3360 0.9472
-12.5475 -4.6158 -2.3360 0.9472
-12.5190 -4.6934 -2.3361 0.9472
-12.4309 -4.9253 -2.3363 0.9472
-12.2748 -5.3082 -2.3367 0.9471
-12.2091 -5.4600 -2.3369 0.9471
-12.1416 -5.6111 -2.3371 0.9471
-12.0012 -5.9107 -2.3375 0.9471
-11.8536 -6.2069 -2.3379 0.9471
-11.7771 -6.3536 -2.3381 0.9471
-11.7382 -6.4267 -2.3383 0.9471
-11.6590 -6.5721 -2.3385 0.9471
-11.4535 -6.9313 -2.3392 0.9471
-11.4110 -7.0024 -2.3393 0.9471
-11.3682 -7.0733 -2.3394 0.9471
-11.3250 -7.1439 -2.3396 0.9471
-11.2371 -7.2843 -2.3399 0.9471
-11.1926 -7.3542 -2.3400 0.9471
-11.1476 -7.4237 -2.3402 0.9471
-11.1022 -7.4930 -2.3403 0.9471
-11.0564 -7.5620 -2.3405 0.9471
-11.0102 -7.6308 -2.3407 0.9471
-10.9636 -7.6992 -2.3408 0.9471
-10.8211 -7.9030 -2.3413 0.9470
-10.6750 -8.1042 -2.3418 0.9470
-10.6255 -8.1707 -2.3420 0.9470
-10.4745 -8.3683 -2.3426 0.9470
-10.4234 -8.4336 -2.3427 0.9470
-10.3719 -8.4986 -2.3429 0.9470
-10.3200 -8.5633 -2.3431 0.9470
-9.9456 -9.0072 -2.3445 0.9470
-9.7794 -9.1926 -2.3451 0.9470
-9.7233 -9.2538 -2.3454 0.9470
-9.6668 -9.3146 -2.3456 0.9469
-9.4950 -9.4950 -2.3462 0.9469
-9.4370 -9.5545 -2.3465 0.9469
-9.3786 -9.6136 -2.3467 0.9469
-9.3199 -9.6723 -2.3469 0.9469
-9.2608 -9.7307 -2.3471 0.9469
-9.2013 -9.7888 -2.3474 0.9469
-9.1416 -9.8465 -2.3476 0.9469
-9.0209 -9.9608 -2.3481 0.9469
-8.9600 -10.0174 -2.3483 0.9469
-8.8373 -10.1296 -2.3488 0.9469
-8.7132 -10.2403 -2.3493 0.9469
-8.6506 -10.2951 -2.3496 0.9469
-8.5877 -10.3495 -2.3498 0.9469
-8.5245 -10.4035 -2.3501 0.9468
-8.4609 -10.4572 -2.3503 0.9468
-8.3327 -10.5633 -2.3508 0.9468
-8.2033 -10.6680 -2.3514 0.9468
-8.1381 -10.7197 -2.3516 0.9468
-8.0067 -10.8220 -2.3522 0.9468
-7.8741 -10.9228 -2.3527 0.9468
-7.8073 -10.9725 -2.3530 0.9468
-7.7402 -11.0219 -2.3533 0.9468
-7.6051 -11.1195 -2.3538 0.9468
-7.5371 -11.1676 -2.3541 0.9468
-7.4688 -11.2154 -2.3544 0.9468
-7.4002 -11.2627 -2.3547 0.9467
-7.3313 -11.3096 -2.3550 0.9467
-7.1926 -11.4023 -2.3556 0.9467
-7.1228 -11.4480 -2.3559 0.9467
-7.0528 -11.4932 -2.3562 0.9467
-6.9825 -11.5381 -2.3564 0.9467
-6.8410 -11.6265 -2.3570 0.9467
-6.6267 -11.7560 -2.3580 0.9467
-6.5547 -11.7983 -2.3583 0.9467
-6.4824 -11.8401 -2.3586 0.9467
-6.3372 -11.9226 -2.3592 0.9466
-5.9696 -12.1209 -2.3608 0.9466
-5.8953 -12.1592 -2.3611 0.9466
-5.8208 -12.1972 -2.3614 0.9466
-5.7461 -12.2346 -2.3618 0.9466
-5.6711 -12.2716 -2.3621 0.9466
-5.5204 -12.3443 -2.3627 0.9466
-5.2927 -12.4498 -2.3637 0.9465
-5.0630 -12.5512 -2.3648 0.9465
-4.9088 -12.6165 -2.3654 0.9465
-4.5979 -12.7415 -2.3668 0.9465
-4.4412 -12.8012 -2.3675 0.9465
-4.3627 -12.8303 -2.3679 0.9465
-4.2049 -12.8871 -2.3686 0.9464
-3.8872 -12.9950 -2.3700 0.9464
-3.8073 -13.0208 -2.3704 0.9464
-3.7273 -13.0461 -2.3707 0.9464
-3.6471 -13.0709 -2.3711 0.9464
-3.5668 -13.0952 -2.3715 0.9464
-3.3247 -13.1653 -2.3726 0.9464
-3.2438 -13.1876 -2.3729 0.9463
-2.9184 -13.2721 -2.3744 0.9463
-2.5909 -13.3487 -2.3759 0.9463
-2.4264 -13.3840 -2.3767 0.9463
-2.0959 -13.4486 -2.3782 0.9462
-2.0130 -13.4635 -2.3786 0.9462
-1.9300 -13.4779 -2.3790 0.9462
-1.8470 -13.4917 -2.3794 0.9462
-1.6805 -13.5179 -2.3801 0.9462
-1.5137 -13.5421 -2.3809 0.9462
-1.4302 -13.5535 -2.3813 0.9462
-1.3465 -13.5643 -2.3817 0.9462
-1.2628 -13.5746 -2.3821 0.9461
-1.0952 -13.5937 -2.3829 0.9461
-0.9273 -13.6107 -2.3837 0.9461
-0.6750 -13.6324 -2.3849 0.9461
-0.5907 -13.6386 -2.3853 0.9461
-0.4222 -13.6495 -2.3861 0.9461
-0.2534 -13.6582 -2.3869 0.9460
-0.1689 -13.6618 -2.3873 0.9460
-0.0845 -13.6649 -2.3877 0.9460
0.0000 -13.6675 -2.3881 0.9460
0.2537 -13.6721 -2.3893 0.9460
0.3384 -13.6726 -2.3897 0.9460
0.4230 -13.6726 -2.3901 0.9460
0.6769 -13.6694 -2.3913 0.9459
0.7615 -13.6673 -2.3918 0.9459
1.1001 -13.6536 -2.3934 0.9459
1.8608 -13.5924 -2.3971 0.9458
2.1137 -13.5625 -2.3984 0.9458
2.1980 -13.5516 -2.3988 0.9458
2.2821 -13.5401 -2.3992 0.9458
2.5343 -13.5024 -2.4004 0.9457
2.7858 -13.4601 -2.4017 0.9457
2.9530 -13.4292 -2.4025 0.9457
3.0366 -13.4131 -2.4029 0.9457
3.1200 -13.3963 -2.4034 0.9457
3.2033 -13.3791 -2.4038 0.9457
3.3697 -13.3431 -2.4046 0.9457
3.5357 -13.3050 -2.4054 0.9456
3.8664 -13.2227 -2.4071 0.9456
4.2771 -13.1081 -2.4092 0.9455
4.3588 -13.0837 -2.4096 0.9455
4.6032 -13.0073 -2.4109 0.9455
4.6843 -12.9808 -2.4113 0.9455
