ply
format ascii 1.0
element vertex 1594
property float32 x
property float32 y
property float32 z
property float32 I
end_header
-0.8469 5.4341 -2.2497 0.9765
-0.8804 5.4283 -2.2495 0.9765
-0.9139 5.4224 -2.2494 0.9765
-0.9473 5.4162 -2.2492 0.9765
-1.0807 5.3894 -2.2485 0.9765
-1.1471 5.3748 -2.2481 0.9765
-1.1802 5.3671 -2.2480 0.9765
-1.2133 5.3593 -2.2478 0.9765
-1.2792 5.3431 -2.2474 0.9765
-1.5410 5.2700 -2.2460 0.9766
-1.5734 5.2599 -2.2458 0.9766
-1.6057 5.2497 -2.2457 0.9766
-1.7025 5.2177 -2.2451 0.9766
-1.7986 5.1841 -2.2446 0.9766
-1.8304 5.1724 -2.2444 0.9766
-1.8623 5.1606 -2.2443 0.9766
-1.9256 5.1364 -2.2439 0.9766
-1.9572 5.1240 -2.2437 0.9766
-2.0201 5.0986 -2.2434 0.9766
-2.0514 5.0856 -2.2432 0.9766
-2.1139 5.0590 -2.2429 0.9766
-2.2068 5.0178 -2.2423 0.9766
-2.2377 5.0037 -2.2422 0.9766
-2.2684 4.9893 -2.2420 0.9766
-2.2990 4.9748 -2.2418 0.9766
-2.3296 4.9601 -2.2416 0.9766
-2.3904 4.9302 -2.2413 0.9766
-2.4207 4.9149 -2.2411 0.9766
-2.4809 4.8839 -2.2408 0.9766
-2.5108 4.8681 -2.2406 0.9766
-2.5407 4.8521 -2.2404 0.9766
-2.6001 4.8196 -2.2401 0.9766
-2.6885 4.7694 -2.2396 0.9766
-2.7218 4.7596 -2.2428 0.9766
-2.7578 4.7540 -2.2482 0.9765
-2.7939 4.7483 -2.2537 0.9765
-2.8325 4.7464 -2.2610 0.9764
-2.9108 4.7434 -2.2766 0.9762
-2.9903 4.7404 -2.2927 0.9761
-3.0304 4.7388 -2.3009 0.9760
-3.1525 4.7339 -2.3265 0.9757
-3.2353 4.7304 -2.3443 0.9755
-3.2773 4.7287 -2.3535 0.9754
-3.3621 4.7251 -2.3722 0.9752
-3.4049 4.7233 -2.3818 0.9752
-3.5007 4.6710 -2.3878 0.9751
-3.5293 4.6489 -2.3876 0.9751
-3.5577 4.6266 -2.3874 0.9751
-3.5860 4.6042 -2.3873 0.9751
-3.6421 4.5588 -2.3869 0.9751
-3.6977 4.5128 -2.3866 0.9751
-3.7527 4.4661 -2.3863 0.9751
-3.7800 4.4425 -2.3861 0.9751
-3.8071 4.4187 -2.3859 0.9751
-3.8342 4.3948 -2.3858 0.9751
-3.8610 4.3707 -2.3856 0.9751
-3.9142 4.3220 -2.3853 0.9751
-3.9406 4.2974 -2.3851 0.9751
-3.9929 4.2478 -2.3848 0.9751
-4.0446 4.1975 -2.3844 0.9751
-4.0702 4.1721 -2.3843 0.9751
-4.1209 4.1209 -2.3840 0.9751
-4.1460 4.0951 -2.3838 0.9751
-4.2204 4.0167 -2.3833 0.9751
-4.2450 3.9902 -2.3832 0.9751
-4.2934 3.9369 -2.3829 0.9751
-4.3174 3.9100 -2.3827 0.9751
-4.3883 3.8285 -2.3822 0.9751
-4.4117 3.8011 -2.3821 0.9751
-4.4348 3.7735 -2.3819 0.9751
-4.4805 3.7179 -2.3816 0.9752
-4.5256 3.6617 -2.3813 0.9752
-4.5479 3.6334 -2.3812 0.9752
-4.5700 3.6050 -2.3810 0.9752
-4.5919 3.5764 -2.3809 0.9752
-4.6137 3.5478 -2.3808 0.9752
-4.6566 3.4900 -2.3805 0.9752
-4.6989 3.4317 -2.3802 0.9752
-4.7609 3.3434 -2.3798 0.9752
-4.7812 3.3137 -2.3796 0.9752
-4.8013 3.2838 -2.3795 0.9752
-4.8212 3.2539 -2.3793 0.9752
-4.9740 3.0101 -2.3783 0.9752
-5.0103 2.9480 -2.3780 0.9752
-5.0806 2.8226 -2.3775 0.9752
-5.1478 2.6955 -2.3770 0.9752
-5.1641 2.6635 -2.3769 0.9752
-5.1961 2.5992 -2.3766 0.9752
-5.2273 2.5344 -2.3764 0.9752
-5.2577 2.4693 -2.3761 0.9752
-5.2727 2.4367 -2.3760 0.9752
-5.2874 2.4039 -2.3759 0.9752
-5.3162 2.3381 -2.3757 0.9752
-5.3847 2.1721 -2.3751 0.9752
-5.3978 2.1387 -2.3750 0.9752
-5.4106 2.1051 -2.3749 0.9752
-5.4233 2.0716 -2.3748 0.9752
-5.4480 2.0041 -2.3746 0.9752
-5.4720 1.9365 -2.3744 0.9752
-5.4836 1.9025 -2.3743 0.9752
-5.5062 1.8344 -2.3741 0.9752
-5.5490 1.6973 -2.3737 0.9752
-5.5592 1.6629 -2.3736 0.9752
-5.5789 1.5939 -2.3734 0.9752
-5.6069 1.4900 -2.3732 0.9752
-5.6157 1.4552 -2.3731 0.9752
-5.6412 1.3506 -2.3728 0.9752
-5.6792 1.1754 -2.3724 0.9752
-5.6930 1.1050 -2.3722 0.9752
-5.6995 1.0697 -2.3722 0.9752
-5.7058 1.0344 -2.3721 0.9753
-5.7289 0.8928 -2.3718 0.9753
-5.7342 0.8574 -2.3717 0.9753
-5.7392 0.8219 -2.3716 0.9753
-5.7486 0.7508 -2.3715 0.9753
-5.7571 0.6796 -2.3714 0.9753
-5.7716 0.5369 -2.3711 0.9753
-5.7746 0.5012 -2.3711 0.9753
-5.7801 0.4297 -2.3709 0.9753
-5.7847 0.3582 -2.3708 0.9753
-5.7867 0.3224 -2.3708 0.9753
-5.7884 0.2866 -2.3707 0.9753
-5.7899 0.2508 -2.3707 0.9753
-5.7923 0.1791 -2.3706 0.9753
-5.7932 0.1433 -2.3705 0.9753
-5.7939 0.1075 -2.3705 0.9753
-5.7945 0.0358 -2.3704 0.9753
-5.6752 -0.0351 -2.3709 0.9757
-5.6741 -0.1053 -2.3708 0.9757
-5.6733 -0.1404 -2.3708 0.9757
-5.6722 -0.1755 -2.3707 0.9757
-5.6709 -0.2105 -2.3707 0.9757
-5.6694 -0.2456 -2.3707 0.9757
-5.6677 -0.2807 -2.3706 0.9757
-5.6559 -0.4557 -2.3705 0.9757
-5.6529 -0.4907 -2.3704 0.9757
-5.6427 -0.5954 -2.3703 0.9757
-5.6347 -0.6651 -2.3703 0.9757
-5.6213 -0.7696 -2.3702 0.9757
-5.6163 -0.8043 -2.3702 0.9757
-5.6112 -0.8390 -2.3702 0.9757
-5.6059 -0.8737 -2.3702 0.9757
-5.5946 -0.9429 -2.3701 0.9757
-5.5695 -1.0810 -2.3701 0.9757
-5.5626 -1.1154 -2.3701 0.9757
-5.5556 -1.1498 -2.3701 0.9757
-5.5174 -1.3210 -2.3701 0.9757
-5.5006 -1.3891 -2.3701 0.9757
-5.4919 -1.4231 -2.3701 0.9757
-5.4830 -1.4571 -2.3701 0.9757
-5.4253 -1.6595 -2.3701 0.9757
-5.4149 -1.6930 -2.3701 0.9757
-5.3827 -1.7932 -2.3701 0.9757
-5.3248 -1.9588 -2.3702 0.9757
-5.2620 -2.1226 -2.3703 0.9757
-5.2081 -2.2522 -2.3704 0.9757
-5.1800 -2.3165 -2.3705 0.9757
-5.1511 -2.3805 -2.3706 0.9757
-5.1214 -2.4441 -2.3706 0.9757
-5.1063 -2.4757 -2.3707 0.9757
-5.0909 -2.5073 -2.3707 0.9757
-5.0438 -2.6015 -2.3708 0.9757
-5.0277 -2.6327 -2.3709 0.9757
-4.9949 -2.6947 -2.3710 0.9757
-4.9783 -2.7256 -2.3710 0.9757
-4.9444 -2.7871 -2.3711 0.9757
-4.8564 -2.9389 -2.3714 0.9757
-4.8382 -2.9690 -2.3714 0.9757
-4.8013 -3.0287 -2.3715 0.9757
-4.7826 -3.0584 -2.3716 0.9757
-4.7447 -3.1175 -2.3717 0.9757
-4.7060 -3.1761 -2.3718 0.9757
-4.6863 -3.2053 -2.3719 0.9757
-4.6062 -3.3205 -2.3721 0.9757
-4.5857 -3.3491 -2.3722 0.9757
-4.5650 -3.3775 -2.3723 0.9757
-4.5442 -3.4057 -2.3723 0.9757
-4.4591 -3.5175 -2.3726 0.9757
-4.4155 -3.5726 -2.3728 0.9757
-4.3934 -3.6000 -2.3729 0.9757
-4.3713 -3.6272 -2.3729 0.9757
-4.3489 -3.6543 -2.3730 0.9757
-4.2808 -3.7347 -2.3733 0.9757
-4.2578 -3.7612 -2.3733 0.9757
-4.2346 -3.7876 -2.3734 0.9757
-4.1402 -3.8918 -2.3738 0.9757
-4.1162 -3.9175 -2.3739 0.9757
-4.0677 -3.9684 -2.3740 0.9757
-4.0433 -3.9936 -2.3741 0.9757
-4.0187 -4.0187 -2.3742 0.9757
-3.9439 -4.0930 -2.3745 0.9757
-3.8933 -4.1418 -2.3747 0.9757
-3.8678 -4.1660 -2.3748 0.9757
-3.8421 -4.1900 -2.3749 0.9757
-3.7903 -4.2376 -2.3751 0.9757
-3.7642 -4.2611 -2.3752 0.9757
-3.7379 -4.2845 -2.3753 0.9757
-3.6850 -4.3308 -2.3755 0.9757
-3.6314 -4.3764 -2.3757 0.9756
-3.6044 -4.3990 -2.3758 0.9756
-3.5774 -4.4214 -2.3759 0.9756
-3.5501 -4.4437 -2.3760 0.9756
-3.3838 -4.5736 -2.3767 0.9756
-3.3556 -4.5946 -2.3768 0.9756
-3.3273 -4.6155 -2.3769 0.9756
-3.2988 -4.6362 -2.3771 0.9756
-3.2415 -4.6772 -2.3773 0.9756
-3.1838 -4.7174 -2.3775 0.9756
-3.1547 -4.7372 -2.3777 0.9756
-3.1255 -4.7569 -2.3778 0.9756
-3.0668 -4.7957 -2.3780 0.9756
-3.0075 -4.8337 -2.3783 0.9756
-2.9478 -4.8711 -2.3785 0.9756
-2.8877 -4.9077 -2.3788 0.9756
-2.7966 -4.9613 -2.3792 0.9756
-2.6736 -5.0300 -2.3797 0.9756
-2.6426 -5.0468 -2.3799 0.9756
-2.6115 -5.0633 -2.3800 0.9756
-2.4860 -5.1275 -2.3805 0.9756
-2.4227 -5.1585 -2.3808 0.9756
-2.3909 -5.1737 -2.3810 0.9756
-2.3590 -5.1887 -2.3811 0.9756
-2.3270 -5.2035 -2.3812 0.9756
-2.2627 -5.2325 -2.3815 0.9756
-2.2305 -5.2467 -2.3817 0.9756
-2.0351 -5.3278 -2.3826 0.9756
-2.0022 -5.3406 -2.3827 0.9756
-1.8367 -5.4017 -2.3835 0.9756
-1.7030 -5.4469 -2.3841 0.9756
-1.6357 -5.4683 -2.3844 0.9756
-1.5682 -5.4888 -2.3847 0.9756
-1.5343 -5.4987 -2.3849 0.9756
-1.3298 -5.5541 -2.3858 0.9755
-1.2955 -5.5626 -2.3860 0.9755
-1.2611 -5.5709 -2.3862 0.9755
-1.1578 -5.5945 -2.3867 0.9755
-1.1233 -5.6019 -2.3868 0.9755
-1.0887 -5.6091 -2.3870 0.9755
-0.8454 -5.6538 -2.3882 0.9755
-0.8104 -5.6593 -2.3883 0.9755
-0.7755 -5.6646 -2.3885 0.9755
-0.7404 -5.6697 -2.3887 0.9755
-0.6704 -5.6792 -2.3890 0.9755
-0.6353 -5.6837 -2.3892 0.9755
-0.5650 -5.6919 -2.3895 0.9755
-0.5299 -5.6957 -2.3897 0.9755
-0.4947 -5.6993 -2.3899 0.9755
-0.4595 -5.7027 -2.3900 0.9755
-0.3889 -5.7087 -2.3904 0.9755
-0.2830 -5.7162 -2.3909 0.9755
-0.1770 -5.7218 -2.3914 0.9755
-0.1416 -5.7232 -2.3916 0.9755
-0.1062 -5.7244 -2.3918 0.9755
-0.0708 -5.7253 -2.3920 0.9755
0.0000 -5.7266 -2.3923 0.9755
0.0354 -5.7269 -2.3925 0.9755
0.0709 -5.7270 -2.3927 0.9755
0.1417 -5.7266 -2.3930 0.9755
0.1771 -5.7260 -2.3932 0.9755
0.2125 -5.7252 -2.3934 0.9755
0.2834 -5.7230 -2.3938 0.9755
0.3188 -5.7216 -2.3939 0.9755
0.3542 -5.7200 -2.3941 0.9755
0.3896 -5.7181 -2.3943 0.9755
0.4957 -5.7112 -2.3948 0.9755
0.5311 -5.7084 -2.3950 0.9755
0.6370 -5.6989 -2.3956 0.9754
0.6723 -5.6953 -2.3957 0.9754
0.7076 -5.6914 -2.3959 0.9754
0.7428 -5.6874 -2.3961 0.9754
0.7780 -5.6831 -2.3963 0.9754
0.8132 -5.6786 -2.3965 0.9754
0.8484 -5.6739 -2.3967 0.9754
0.8835 -5.6690 -2.3968 0.9754
0.9186 -5.6639 -2.3970 0.9754
1.1286 -5.6285 -2.3981 0.9754
1.1635 -5.6218 -2.3983 0.9754
1.2332 -5.6079 -2.3987 0.9754
1.2679 -5.6006 -2.3989 0.9754
1.3026 -5.5931 -2.3991 0.9754
1.3719 -5.5774 -2.3994 0.9754
1.4755 -5.5522 -2.4000 0.9754
1.5099 -5.5434 -2.4002 0.9754
1.5786 -5.5252 -2.4005 0.9754
1.6129 -5.5157 -2.4007 0.9754
1.6812 -5.4962 -2.4011 0.9754
1.7493 -5.4759 -2.4015 0.9754
1.8172 -5.4546 -2.4018 0.9754
1.9857 -5.3979 -2.4027 0.9754
2.1856 -5.3230 -2.4038 0.9754
2.2516 -5.2963 -2.4042 0.9754
2.2845 -5.2827 -2.4044 0.9754
2.4477 -5.2115 -2.4053 0.9753
2.4800 -5.1967 -2.4055 0.9753
2.5123 -5.1817 -2.4057 0.9753
2.5766 -5.1510 -2.4060 0.9753
2.6405 -5.1195 -2.4064 0.9753
2.6723 -5.1034 -2.4066 0.9753
2.7040 -5.0872 -2.4068 0.9753
2.7986 -5.0373 -2.4073 0.9753
2.8299 -5.0202 -2.4075 0.9753
2.8611 -5.0030 -2.4077 0.9753
2.9541 -4.9502 -2.4082 0.9753
3.0155 -4.9140 -2.4085 0.9753
3.0461 -4.8956 -2.4087 0.9753
3.1068 -4.8583 -2.4091 0.9753
3.1671 -4.8202 -2.4094 0.9753
3.2270 -4.7813 -2.4098 0.9753
3.3158 -4.7217 -2.4103 0.9753
3.3452 -4.7014 -2.4105 0.9753
3.3745 -4.6810 -2.4106 0.9753
3.4326 -4.6395 -2.4110 0.9753
3.4615 -4.6186 -2.4112 0.9753
3.5188 -4.5760 -2.4115 0.9753
3.5757 -4.5328 -2.4119 0.9753
3.6599 -4.4667 -2.4124 0.9753
3.7703 -4.3760 -2.4130 0.9753
3.8247 -4.3296 -2.4134 0.9753
3.8785 -4.2825 -2.4137 0.9753
3.9051 -4.2588 -2.4139 0.9753
3.9317 -4.2348 -2.4140 0.9753
3.9580 -4.2107 -2.4142 0.9753
3.9843 -4.1864 -2.4143 0.9753
4.0877 -4.0877 -2.4150 0.9753
4.2135 -3.9607 -2.4158 0.9752
4.2382 -3.9348 -2.4159 0.9752
4.2627 -3.9088 -2.4161 0.9752
4.2871 -3.8826 -2.4163 0.9752
4.3113 -3.8562 -2.4164 0.9752
4.3353 -3.8298 -2.4166 0.9752
4.4299 -3.7223 -2.4172 0.9752
4.4761 -3.6677 -2.4175 0.9752
4.4990 -3.6402 -2.4176 0.9752
4.5217 -3.6125 -2.4178 0.9752
4.5442 -3.5847 -2.4179 0.9752
4.5666 -3.5567 -2.4181 0.9752
4.5888 -3.5286 -2.4182 0.9752
4.6108 -3.5004 -2.4184 0.9752
4.6971 -3.3861 -2.4189 0.9752
4.7182 -3.3572 -2.4191 0.9752
4.7599 -3.2989 -2.4194 0.9752
4.7805 -3.2696 -2.4195 0.9752
4.8807 -3.1212 -2.4202 0.9752
4.9002 -3.0911 -2.4203 0.9752
4.9195 -3.0609 -2.4205 0.9752
4.9386 -3.0306 -2.4206 0.9752
4.9575 -3.0001 -2.4207 0.9752
4.9948 -2.9389 -2.4210 0.9752
5.0493 -2.8462 -2.4214 0.9752
5.0846 -2.7838 -2.4217 0.9752
5.1020 -2.7525 -2.4218 0.9752
5.1530 -2.6578 -2.4222 0.9752
5.2022 -2.5621 -2.4225 0.9752
5.2182 -2.5300 -2.4227 0.9752
5.2341 -2.4978 -2.4228 0.9752
5.2803 -2.4007 -2.4231 0.9752
5.2953 -2.3681 -2.4232 0.9752
5.3532 -2.2368 -2.4237 0.9752
5.3672 -2.2038 -2.4238 0.9752
5.3946 -2.1374 -2.4240 0.9752
5.4079 -2.1041 -2.4241 0.9752
5.4340 -2.0372 -2.4244 0.9752
5.4592 -1.9700 -2.4246 0.9752
5.4716 -1.9363 -2.4247 0.9752
5.5073 -1.8347 -2.4250 0.9751
5.5187 -1.8007 -2.4251 0.9751
5.5300 -1.7666 -2.4252 0.9751
5.5410 -1.7325 -2.4253 0.9751
5.5519 -1.6982 -2.4254 0.9751
5.5625 -1.6639 -2.4255 0.9751
5.5729 -1.6295 -2.4256 0.9751
5.5830 -1.5951 -2.4257 0.9751
5.5930 -1.5606 -2.4258 0.9751
5.6028 -1.5261 -2.4259 0.9751
5.6308 -1.4220 -2.4261 0.9751
5.6397 -1.3872 -2.4262 0.9751
5.6483 -1.3524 -2.4263 0.9751
5.6568 -1.3174 -2.4264 0.9751
5.7099 -1.0717 -2.4270 0.9751
5.7166 -1.0364 -2.4271 0.9751
5.7573 -0.7882 -2.4276 0.9751
5.7622 -0.7526 -2.4276 0.9751
5.7669 -0.7169 -2.4277 0.9751
5.7714 -0.6813 -2.4278 0.9751
5.7757 -0.6456 -2.4278 0.9751
5.7797 -0.6099 -2.4279 0.9751
5.7835 -0.5741 -2.4280 0.9751
5.7936 -0.4668 -2.4282 0.9751
5.8017 -0.3592 -2.4283 0.9751
5.8040 -0.3234 -2.4284 0.9751
5.8078 -0.2516 -2.4285 0.9751
5.8107 -0.1797 -2.4286 0.9751
5.8118 -0.1438 -2.4287 0.9751
5.8127 -0.1078 -2.4287 0.9751
5.8134 -0.0719 -2.4288 0.9751
5.8139 -0.0359 -2.4288 0.9751
5.8138 0.0719 -2.4289 0.9751
5.8134 0.1079 -2.4290 0.9751
5.8127 0.1438 -2.4290 0.9751
5.8107 0.2157 -2.4291 0.9751
5.8093 0.2516 -2.4291 0.9751
5.8078 0.2876 -2.4292 0.9751
5.7992 0.4311 -2.4293 0.9751
5.7965 0.4670 -2.4293 0.9751
5.7936 0.5028 -2.4294 0.9751
5.7904 0.5387 -2.4294 0.9751
5.7713 0.7175 -2.4295 0.9751
5.7571 0.8244 -2.4296 0.9751
5.7466 0.8956 -2.4296 0.9751
5.7410 0.9311 -2.4297 0.9751
5.7351 0.9666 -2.4297 0.9751
5.7291 1.0021 -2.4297 0.9751
5.7228 1.0375 -2.4297 0.9751
5.7026 1.1435 -2.4297 0.9751
5.6955 1.1787 -2.4297 0.9751
5.6881 1.2139 -2.4297 0.9751
5.6805 1.2491 -2.4298 0.9751
5.6564 1.3543 -2.4298 0.9751
5.6392 1.4241 -2.4298 0.9751
5.6212 1.4938 -2.4298 0.9751
5.6118 1.5285 -2.4298 0.9751
5.6022 1.5632 -2.4298 0.9751
5.5925 1.5978 -2.4297 0.9751
5.5824 1.6323 -2.4297 0.9751
5.5722 1.6668 -2.4297 0.9751
5.5618 1.7012 -2.4297 0.9751
5.5292 1.8041 -2.4297 0.9751
5.4946 1.9063 -2.4296 0.9751
5.4706 1.9741 -2.4296 0.9751
5.4456 2.0416 -2.4296 0.9751
5.4329 2.0752 -2.4295 0.9751
5.4199 2.1087 -2.4295 0.9751
5.4067 2.1422 -2.4295 0.9751
5.3933 2.1756 -2.4295 0.9751
5.3518 2.2752 -2.4294 0.9751
5.3231 2.3411 -2.4293 0.9751
5.3085 2.3740 -2.4293 0.9751
5.2786 2.4394 -2.4292 0.9751
5.2633 2.4719 -2.4292 0.9751
5.2163 2.5690 -2.4291 0.9751
5.2002 2.6012 -2.4290 0.9751
5.1839 2.6333 -2.4290 0.9751
5.1675 2.6652 -2.4289 0.9751
5.1339 2.7288 -2.4289 0.9751
4.9918 2.9789 -2.4285 0.9751
4.9354 3.0708 -2.4283 0.9751
4.9162 3.1012 -2.4282 0.9751
4.8772 3.1616 -2.4281 0.9751
4.8375 3.2215 -2.4280 0.9751
4.8173 3.2513 -2.4279 0.9751
4.7970 3.2809 -2.4279 0.9751
4.7139 3.3982 -2.4276 0.9751
4.6926 3.4271 -2.4275 0.9751
4.6712 3.4560 -2.4274 0.9751
4.6496 3.4847 -2.4274 0.9751
4.6059 3.5417 -2.4272 0.9751
4.5837 3.5700 -2.4271 0.9751
4.5163 3.6541 -2.4269 0.9751
4.4704 3.7094 -2.4268 0.9751
4.4004 3.7913 -2.4265 0.9751
4.3768 3.8183 -2.4264 0.9751
4.3529 3.8452 -2.4263 0.9751
4.3288 3.8719 -2.4262 0.9751
4.3046 3.8984 -2.4262 0.9751
4.2803 3.9249 -2.4261 0.9751
4.2558 3.9511 -2.4260 0.9751
4.2311 3.9772 -2.4259 0.9751
4.2063 4.0032 -2.4258 0.9751
4.1813 4.0289 -2.4257 0.9751
4.1308 4.0800 -2.4255 0.9751
4.1054 4.1053 -2.4254 0.9751
4.0797 4.1305 -2.4253 0.9751
4.0280 4.1803 -2.4251 0.9751
3.9492 4.2537 -2.4248 0.9752
3.9227 4.2779 -2.4247 0.9752
3.8691 4.3257 -2.4245 0.9752
3.8422 4.3494 -2.4244 0.9752
3.8150 4.3729 -2.4243 0.9752
3.7603 4.4193 -2.4241 0.9752
3.7327 4.4423 -2.4240 0.9752
3.6772 4.4877 -2.4237 0.9752
3.6492 4.5101 -2.4236 0.9752
3.5644 4.5764 -2.4233 0.9752
3.4784 4.6411 -2.4229 0.9752
3.3912 4.7041 -2.4226 0.9752
3.1514 4.7322 -2.3752 0.9757
3.0293 4.7370 -2.3489 0.9759
2.9493 4.7400 -2.3322 0.9761
2.9096 4.7415 -2.3240 0.9762
2.7924 4.7458 -2.3003 0.9764
2.6430 4.7573 -2.2735 0.9767
2.6075 4.7624 -2.2682 0.9767
2.5756 4.7741 -2.2661 0.9768
2.5161 4.8050 -2.2659 0.9768
2.4562 4.8352 -2.2656 0.9768
2.4261 4.8500 -2.2655 0.9768
2.3959 4.8647 -2.2653 0.9768
2.3353 4.8933 -2.2651 0.9768
2.2437 4.9349 -2.2647 0.9768
2.2130 4.9484 -2.2645 0.9768
2.1822 4.9617 -2.2644 0.9768
2.1514 4.9748 -2.2643 0.9768
2.0894 5.0004 -2.2640 0.9768
2.0271 5.0252 -2.2637 0.9768
1.9959 5.0373 -2.2636 0.9768
1.9017 5.0726 -2.2631 0.9768
1.8069 5.1060 -2.2627 0.9768
1.7434 5.1273 -2.2624 0.9768
1.7116 5.1376 -2.2622 0.9768
1.6477 5.1577 -2.2619 0.9768
1.5836 5.1770 -2.2616 0.9768
1.4870 5.2045 -2.2612 0.9768
1.4547 5.2132 -2.2610 0.9768
1.4223 5.2217 -2.2609 0.9768
1.3899 5.2301 -2.2607 0.9768
1.3574 5.2382 -2.2606 0.9768
1.3249 5.2462 -2.2604 0.9768
1.2598 5.2614 -2.2601 0.9768
1.1944 5.2759 -2.2598 0.9768
1.0632 5.3024 -2.2592 0.9768
1.0303 5.3084 -2.2590 0.9768
0.9974 5.3143 -2.2589 0.9768
0.9315 5.3255 -2.2585 0.9768
0.7993 5.3454 -2.2579 0.9768
0.7662 5.3499 -2.2577 0.9768
0.6998 5.3582 -2.2574 0.9768
0.6001 5.3691 -2.2569 0.9769
0.5336 5.3753 -2.2566 0.9769
0.4670 5.3807 -2.2563 0.9769
0.4337 5.3831 -2.2561 0.9769
0.4004 5.3853 -2.2559 0.9769
0.2670 5.3920 -2.2553 0.9769
0.1669 5.3948 -2.2548 0.9769
0.1335 5.3953 -2.2546 0.9769
0.0334 5.3956 -2.2541 0.9769
0.0000 5.3954 -2.2539 0.9769
-0.0334 5.3948 -2.2538 0.9769
-0.1001 5.3932 -2.2534 0.9769
-0.1667 5.3907 -2.2531 0.9769
-0.2667 5.3855 -2.2526 0.9769
-0.3332 5.3810 -2.2522 0.9769
-0.3664 5.3784 -2.2521 0.9769
-0.3996 5.3756 -2.2519 0.9769
-0.4329 5.3726 -2.2517 0.9769
-0.4660 5.3695 -2.2516 0.9769
-0.5324 5.3625 -2.2512 0.9769
-0.6316 5.3504 -2.2507 0.9769
-0.6976 5.3414 -2.2504 0.9769
-0.7306 5.3366 -2.2502 0.9769
-0.8621 5.3152 -2.2495 0.9769
-0.8949 5.3094 -2.2493 0.9769
-0.9276 5.3034 -2.2491 0.9769
-0.9930 5.2907 -2.2488 0.9769
-1.0256 5.2840 -2.2486 0.9769
-1.0582 5.2772 -2.2485 0.9769
-1.0907 5.2701 -2.2483 0.9769
-1.1232 5.2629 -2.2481 0.9769
-1.1556 5.2554 -2.2479 0.9769
-1.1880 5.2478 -2.2478 0.9769
-1.2204 5.2399 -2.2476 0.9769
-1.2527 5.2319 -2.2474 0.9769
-1.2849 5.2236 -2.2472 0.9770
-1.3170 5.2152 -2.2471 0.9770
-1.3492 5.2065 -2.2469 0.9770
-1.3812 5.1977 -2.2467 0.9770
-1.4771 5.1700 -2.2462 0.9770
-1.5089 5.1603 -2.2460 0.9770
-1.5724 5.1405 -2.2457 0.9770
-1.6040 5.1303 -2.2455 0.9770
-1.6985 5.0985 -2.2450 0.9770
-1.7299 5.0875 -2.2448 0.9770
-1.7612 5.0763 -2.2447 0.9770
-1.8546 5.0416 -2.2441 0.9770
-1.8856 5.0296 -2.2440 0.9770
-1.9474 5.0052 -2.2436 0.9770
-1.9782 4.9927 -2.2435 0.9770
-2.1004 4.9407 -2.2428 0.9770
-2.1610 4.9136 -2.2424 0.9770
-2.1912 4.8998 -2.2423 0.9770
-2.2513 4.8715 -2.2419 0.9770
-2.2812 4.8572 -2.2418 0.9770
-2.3704 4.8129 -2.2413 0.9770
-2.3999 4.7978 -2.2411 0.9770
-2.4294 4.7825 -2.2409 0.9770
-2.5270 4.7542 -2.2492 0.9769
-2.5621 4.7490 -2.2542 0.9769
-2.5988 4.7468 -2.2608 0.9768
-2.6364 4.7454 -2.2678 0.9767
-2.6741 4.7440 -2.2750 0.9767
-2.9057 4.7352 -2.3209 0.9762
-2.9452 4.7336 -2.3290 0.9761
-2.9850 4.7320 -2.3373 0.9760
-3.0654 4.7288 -2.3542 0.9759
-3.1881 4.7237 -2.3807 0.9756
-3.2287 4.7206 -2.3892 0.9755
-3.2575 4.7003 -2.3890 0.9755
-3.4001 4.5957 -2.3882 0.9755
-3.4282 4.5742 -2.3880 0.9755
-3.4840 4.5308 -2.3877 0.9755
-3.5118 4.5089 -2.3875 0.9755
-3.5393 4.4868 -2.3874 0.9755
-3.6482 4.3966 -2.3867 0.9755
-3.7018 4.3506 -2.3864 0.9755
-3.7811 4.2803 -2.3859 0.9755
-3.8591 4.2085 -2.3854 0.9756
-3.8848 4.1843 -2.3852 0.9756
-3.9103 4.1599 -2.3851 0.9756
-3.9357 4.1354 -2.3849 0.9756
-3.9609 4.1107 -2.3848 0.9756
-4.0109 4.0609 -2.3844 0.9756
-4.0357 4.0357 -2.3843 0.9756
-4.0848 3.9850 -2.3840 0.9756
-4.1572 3.9077 -2.3835 0.9756
-4.1810 3.8817 -2.3834 0.9756
-4.2047 3.8555 -2.3832 0.9756
-4.2282 3.8292 -2.3831 0.9756
-4.2515 3.8027 -2.3829 0.9756
-4.2747 3.7761 -2.3828 0.9756
-4.2977 3.7494 -2.3826 0.9756
-4.3205 3.7225 -2.3825 0.9756
-4.3431 3.6955 -2.3823 0.9756
-4.3657 3.6683 -2.3822 0.9756
-4.3880 3.6411 -2.3820 0.9756
-4.4102 3.6136 -2.3819 0.9756
-4.4756 3.5305 -2.3814 0.9756
-4.5184 3.4745 -2.3811 0.9756
-4.5395 3.4463 -2.3810 0.9756
-4.5813 3.3895 -2.3807 0.9756
-4.6019 3.3609 -2.3806 0.9756
-4.7217 3.1867 -2.3798 0.9756
-4.7603 3.1277 -2.3795 0.9756
-4.8166 3.0384 -2.3791 0.9756
-4.8351 3.0084 -2.3790 0.9756
-4.8714 2.9480 -2.3787 0.9756
-4.9245 2.8567 -2.3783 0.9756
-4.9418 2.8260 -2.3782 0.9756
-4.9926 2.7334 -2.3778 0.9756
-5.0254 2.6712 -2.3776 0.9756
-5.0416 2.6400 -2.3775 0.9756
-5.0577 2.6086 -2.3773 0.9756
-5.0734 2.5771 -2.3772 0.9756
-5.1196 2.4822 -2.3769 0.9756
-5.1494 2.4185 -2.3766 0.9756
-5.1640 2.3865 -2.3765 0.9756
-5.1784 2.3544 -2.3764 0.9756
-5.1926 2.3222 -2.3763 0.9756
-5.2066 2.2899 -2.3762 0.9756
-5.2475 2.1926 -2.3759 0.9756
-5.2865 2.0946 -2.3755 0.9757
-5.2992 2.0618 -2.3754 0.9757
-5.3116 2.0289 -2.3753 0.9757
-5.3358 1.9629 -2.3751 0.9757
-5.3592 1.8966 -2.3749 0.9757
-5.3818 1.8300 -2.3747 0.9757
-5.4036 1.7631 -2.3745 0.9757
-5.4142 1.7296 -2.3744 0.9757
-5.4246 1.6960 -2.3743 0.9757
-5.4347 1.6624 -2.3742 0.9757
-5.4447 1.6287 -2.3741 0.9757
-5.4734 1.5272 -2.3739 0.9757
-5.4825 1.4933 -2.3738 0.9757
-5.5329 1.2886 -2.3733 0.9757
-5.5406 1.2543 -2.3732 0.9757
-5.5758 1.0822 -2.3728 0.9757
-5.5822 1.0477 -2.3727 0.9757
-5.5884 1.0131 -2.3726 0.9757
-5.5944 0.9785 -2.3726 0.9757
-5.6162 0.8398 -2.3723 0.9757
-5.6303 0.7353 -2.3721 0.9757
-5.6346 0.7005 -2.3720 0.9757
-5.6387 0.6656 -2.3720 0.9757
-5.6462 0.5958 -2.3718 0.9757
-5.6529 0.5259 -2.3717 0.9757
-5.6558 0.4909 -2.3716 0.9757
-5.6636 0.3858 -2.3715 0.9757
-5.6657 0.3508 -2.3714 0.9757
-5.6709 0.2456 -2.3713 0.9757
-5.6721 0.2106 -2.3712 0.9757
-5.6747 0.1053 -2.3711 0.9757
-5.5604 -0.0000 -2.3715 0.9761
-5.5601 -0.0344 -2.3715 0.9761
-5.5597 -0.0688 -2.3714 0.9761
-5.5591 -0.1032 -2.3714 0.9761
-5.5572 -0.1719 -2.3713 0.9761
-5.5560 -0.2062 -2.3713 0.9761
-5.5545 -0.2406 -2.3712 0.9761
-5.5528 -0.2750 -2.3712 0.9761
-5.5488 -0.3436 -2.3711 0.9761
-5.5440 -0.4122 -2.3711 0.9761
-5.5383 -0.4807 -2.3710 0.9761
-5.5352 -0.5150 -2.3710 0.9761
-5.5319 -0.5492 -2.3710 0.9761
-5.5206 -0.6517 -2.3709 0.9761
-5.5164 -0.6858 -2.3709 0.9761
-5.4975 -0.8220 -2.3708 0.9761
-5.4923 -0.8560 -2.3708 0.9761
-5.4869 -0.8899 -2.3708 0.9761
-5.4631 -1.0254 -2.3707 0.9761
-5.4566 -1.0591 -2.3707 0.9761
-5.4360 -1.1601 -2.3707 0.9761
-5.4135 -1.2608 -2.3707 0.9761
-5.4056 -1.2942 -2.3707 0.9761
-5.3892 -1.3610 -2.3707 0.9761
-5.3806 -1.3943 -2.3707 0.9761
-5.3630 -1.4607 -2.3707 0.9761
-5.3538 -1.4939 -2.3707 0.9761
-5.3350 -1.5600 -2.3707 0.9761
-5.3154 -1.6259 -2.3707 0.9761
-5.2949 -1.6915 -2.3707 0.9761
-5.2626 -1.7895 -2.3708 0.9761
-5.2287 -1.8868 -2.3708 0.9761
-5.2169 -1.9191 -2.3708 0.9761
-5.2050 -1.9514 -2.3708 0.9761
-5.1929 -1.9835 -2.3709 0.9761
-5.1805 -2.0157 -2.3709 0.9761
-5.0889 -2.2381 -2.3711 0.9761
-5.0750 -2.2696 -2.3711 0.9761
-5.0467 -2.3322 -2.3712 0.9761
-5.0176 -2.3946 -2.3712 0.9761
-4.9725 -2.4873 -2.3713 0.9761
-4.9571 -2.5181 -2.3714 0.9761
-4.9258 -2.5793 -2.3715 0.9761
-4.8937 -2.6401 -2.3715 0.9761
-4.8441 -2.7306 -2.3717 0.9761
-4.7929 -2.8202 -2.3718 0.9761
-4.7755 -2.8498 -2.3719 0.9761
-4.7401 -2.9088 -2.3720 0.9761
-4.7221 -2.9381 -2.3720 0.9761
-4.6857 -2.9964 -2.3721 0.9761
-4.6671 -3.0254 -2.3722 0.9761
-4.6485 -3.0543 -2.3723 0.9761
-4.6105 -3.1117 -2.3724 0.9761
-4.5914 -3.1403 -2.3724 0.9761
-4.5524 -3.1970 -2.3726 0.9761
-4.5327 -3.2252 -2.3726 0.9761
-4.4724 -3.3090 -2.3728 0.9761
-4.4520 -3.3367 -2.3729 0.9761
-4.4314 -3.3642 -2.3730 0.9761
-4.3474 -3.4732 -2.3732 0.9761
-4.3259 -3.5001 -2.3733 0.9761
-4.2606 -3.5801 -2.3735 0.9761
-4.1939 -3.6589 -2.3738 0.9761
-4.1714 -3.6849 -2.3739 0.9761
-4.1257 -3.7365 -2.3740 0.9761
-4.1027 -3.7621 -2.3741 0.9761
-4.0562 -3.8128 -2.3743 0.9761
-4.0327 -3.8379 -2.3744 0.9761
-4.0090 -3.8629 -2.3745 0.9761
-3.9612 -3.9125 -2.3746 0.9761
-3.9371 -3.9371 -2.3747 0.9761
-3.9128 -3.9615 -2.3748 0.9761
-3.8638 -4.0099 -2.3750 0.9761
-3.8391 -4.0339 -2.3751 0.9761
-3.8143 -4.0578 -2.3752 0.9761
-3.7641 -4.1049 -2.3754 0.9761
-3.7387 -4.1283 -2.3755 0.9761
-3.7133 -4.1515 -2.3756 0.9761
-3.6877 -4.1746 -2.3757 0.9761
-3.6361 -4.2203 -2.3759 0.9761
-3.5840 -4.2652 -2.3761 0.9761
-3.5313 -4.3096 -2.3763 0.9761
-3.4780 -4.3534 -2.3765 0.9761
-3.3971 -4.4178 -2.3768 0.9761
-3.3150 -4.4807 -2.3772 0.9761
-3.2874 -4.5013 -2.3773 0.9761
-3.2597 -4.5217 -2.3774 0.9761
-3.2038 -4.5621 -2.3776 0.9760
-3.1757 -4.5821 -2.3778 0.9760
-3.1191 -4.6215 -2.3780 0.9760
-3.0906 -4.6409 -2.3781 0.9760
-3.0620 -4.6602 -2.3782 0.9760
-3.0044 -4.6982 -2.3785 0.9760
-2.9754 -4.7169 -2.3786 0.9760
-2.9464 -4.7355 -2.3787 0.9760
-2.8879 -4.7721 -2.3790 0.9760
-2.8585 -4.7901 -2.3791 0.9760
-2.7993 -4.8256 -2.3793 0.9760
-2.7696 -4.8430 -2.3795 0.9760
-2.7397 -4.8604 -2.3796 0.9760
-2.7097 -4.8775 -2.3797 0.9760
-2.6797 -4.8944 -2.3799 0.9760
-2.5888 -4.9441 -2.3803 0.9760
-2.5584 -4.9603 -2.3804 0.9760
-2.5277 -4.9763 -2.3805 0.9760
-2.4971 -4.9921 -2.3807 0.9760
-2.4663 -5.0077 -2.3808 0.9760
-2.4045 -5.0384 -2.3811 0.9760
-2.3422 -5.0684 -2.3813 0.9760
-2.2796 -5.0976 -2.3816 0.9760
-2.2167 -5.1259 -2.3819 0.9760
-2.1851 -5.1399 -2.3820 0.9760
-2.1534 -5.1536 -2.3822 0.9760
-2.0897 -5.1805 -2.3825 0.9760
-2.0578 -5.1936 -2.3826 0.9760
-1.9936 -5.2193 -2.3829 0.9760
-1.9614 -5.2318 -2.3831 0.9760
-1.7993 -5.2916 -2.3838 0.9760
-1.7339 -5.3141 -2.3841 0.9760
-1.6683 -5.3359 -2.3844 0.9760
-1.4697 -5.3962 -2.3853 0.9760
-1.3697 -5.4236 -2.3858 0.9760
-1.3362 -5.4323 -2.3860 0.9760
-1.3027 -5.4408 -2.3861 0.9760
-1.0326 -5.5016 -2.3874 0.9760
-0.9986 -5.5082 -2.3876 0.9760
-0.9646 -5.5147 -2.3877 0.9759
-0.9305 -5.5209 -2.3879 0.9759
-0.7254 -5.5539 -2.3889 0.9759
-0.6567 -5.5632 -2.3892 0.9759
-0.5879 -5.5717 -2.3896 0.9759
-0.4846 -5.5828 -2.3901 0.9759
-0.4155 -5.5892 -2.3904 0.9759
-0.3810 -5.5921 -2.3906 0.9759
-0.2426 -5.6014 -2.3913 0.9759
-0.2080 -5.6032 -2.3914 0.9759
-0.1040 -5.6073 -2.3919 0.9759
-0.0347 -5.6090 -2.3923 0.9759
0.0000 -5.6095 -2.3925 0.9759
0.0694 -5.6099 -2.3928 0.9759
0.1388 -5.6094 -2.3932 0.9759
0.1735 -5.6089 -2.3933 0.9759
0.2082 -5.6081 -2.3935 0.9759
0.2776 -5.6059 -2.3939 0.9759
0.3470 -5.6029 -2.3942 0.9759
0.3816 -5.6011 -2.3944 0.9759
0.4510 -5.5967 -2.3948 0.9759
0.4856 -5.5943 -2.3949 0.9759
0.5202 -5.5916 -2.3951 0.9759
0.5548 -5.5887 -2.3953 0.9759
0.6240 -5.5822 -2.3956 0.9759
0.6586 -5.5786 -2.3958 0.9759
0.6931 -5.5749 -2.3960 0.9759
0.7276 -5.5709 -2.3962 0.9759
0.7621 -5.5667 -2.3964 0.9759
0.7966 -5.5623 -2.3965 0.9759
0.8310 -5.5577 -2.3967 0.9759
0.8998 -5.5478 -2.3971 0.9759
0.9342 -5.5426 -2.3973 0.9759
0.9685 -5.5371 -2.3974 0.9759
1.0028 -5.5314 -2.3976 0.9759
1.0713 -5.5194 -2.3980 0.9758
1.2079 -5.4929 -2.3987 0.9758
1.2419 -5.4857 -2.3989 0.9758
1.3098 -5.4708 -2.3992 0.9758
1.3438 -5.4630 -2.3994 0.9758
1.3776 -5.4550 -2.3996 0.9758
1.4114 -5.4467 -2.3998 0.9758
1.4452 -5.4383 -2.4000 0.9758
1.5462 -5.4118 -2.4005 0.9758
1.5798 -5.4026 -2.4007 0.9758
1.6133 -5.3931 -2.4009 0.9758
1.6801 -5.3735 -2.4012 0.9758
1.7134 -5.3634 -2.4014 0.9758
1.7799 -5.3426 -2.4018 0.9758
1.8130 -5.3319 -2.4020 0.9758
1.9121 -5.2986 -2.4025 0.9758
2.0105 -5.2634 -2.4030 0.9758
2.0757 -5.2389 -2.4034 0.9758
2.1407 -5.2136 -2.4038 0.9758
2.1731 -5.2007 -2.4039 0.9758
2.2054 -5.1875 -2.4041 0.9758
2.2375 -5.1742 -2.4043 0.9758
2.3017 -5.1468 -2.4047 0.9758
2.3337 -5.1329 -2.4048 0.9758
2.4290 -5.0899 -2.4054 0.9758
2.4607 -5.0751 -2.4055 0.9758
2.4922 -5.0602 -2.4057 0.9758
2.5549 -5.0297 -2.4061 0.9758
2.6794 -4.9664 -2.4068 0.9758
2.7410 -4.9336 -2.4071 0.9758
2.8022 -4.9001 -2.4075 0.9758
2.8327 -4.8830 -2.4077 0.9758
2.8630 -4.8657 -2.4078 0.9757
2.8932 -4.8483 -2.4080 0.9757
2.9234 -4.8307 -2.4082 0.9757
2.9534 -4.8128 -2.4084 0.9757
2.9834 -4.7948 -2.4085 0.9757
3.0131 -4.7766 -2.4087 0.9757
3.0429 -4.7582 -2.4089 0.9757
3.0724 -4.7397 -2.4091 0.9757
3.1019 -4.7209 -2.4092 0.9757
3.1896 -4.6635 -2.4097 0.9757
3.2187 -4.6441 -2.4099 0.9757
3.3049 -4.5845 -2.4104 0.9757
3.3335 -4.5643 -2.4106 0.9757
3.3901 -4.5234 -2.4109 0.9757
3.4183 -4.5026 -2.4111 0.9757
3.4463 -4.4817 -2.4113 0.9757
3.5296 -4.4179 -2.4118 0.9757
3.5571 -4.3963 -2.4119 0.9757
3.6388 -4.3305 -2.4124 0.9757
3.7984 -4.1942 -2.4134 0.9757
3.8246 -4.1709 -2.4136 0.9757
3.9021 -4.1000 -2.4140 0.9757
3.9276 -4.0761 -2.4142 0.9757
3.9530 -4.0520 -2.4144 0.9757
4.0777 -3.9292 -2.4151 0.9757
4.1986 -3.8024 -2.4159 0.9757
4.2223 -3.7766 -2.4161 0.9757
4.2458 -3.7506 -2.4162 0.9757
4.3611 -3.6187 -2.4170 0.9757
4.4283 -3.5378 -2.4174 0.9757
4.4504 -3.5106 -2.4175 0.9757
4.4940 -3.4557 -2.4178 0.9756
4.6412 -3.2593 -2.4188 0.9756
4.6615 -3.2307 -2.4190 0.9756
4.7017 -3.1732 -2.4192 0.9756
4.7215 -3.1442 -2.4194 0.9756
4.7605 -3.0859 -2.4196 0.9756
4.7989 -3.0271 -2.4199 0.9756
4.8178 -2.9976 -2.4200 0.9756
4.8550 -2.9381 -2.4203 0.9756
4.9272 -2.8177 -2.4208 0.9756
4.9448 -2.7873 -2.4210 0.9756
4.9794 -2.7262 -2.4212 0.9756
4.9964 -2.6955 -2.4213 0.9756
5.0133 -2.6647 -2.4215 0.9756
5.0464 -2.6027 -2.4217 0.9756
5.0626 -2.5717 -2.4218 0.9756
5.0787 -2.5404 -2.4219 0.9756
5.1102 -2.4776 -2.4222 0.9756
5.1257 -2.4461 -2.4223 0.9756
5.1410 -2.4145 -2.4224 0.9756
5.1560 -2.3828 -2.4225 0.9756
5.1709 -2.3509 -2.4226 0.9756
5.1856 -2.3190 -2.4228 0.9756
5.2695 -2.1257 -2.4234 0.9756
5.2959 -2.0605 -2.4236 0.9756
5.3087 -2.0278 -2.4237 0.9756
5.3214 -1.9950 -2.4239 0.9756
5.3461 -1.9292 -2.4241 0.9756
5.3817 -1.8299 -2.4244 0.9756
5.4044 -1.7634 -2.4246 0.9756
5.4154 -1.7300 -2.4247 0.9756
5.4262 -1.6965 -2.4248 0.9756
5.4574 -1.5958 -2.4250 0.9756
5.4673 -1.5620 -2.4251 0.9756
5.4771 -1.5283 -2.4252 0.9756
5.4960 -1.4605 -2.4254 0.9756
5.5140 -1.3925 -2.4256 0.9756
5.5227 -1.3585 -2.4257 0.9756
5.5395 -1.2901 -2.4258 0.9756
5.5631 -1.1873 -2.4261 0.9756
5.5777 -1.1184 -2.4262 0.9756
5.5847 -1.0840 -2.4263 0.9756
5.5914 -1.0494 -2.4264 0.9756
5.5980 -1.0149 -2.4265 0.9756
5.6105 -0.9456 -2.4266 0.9756
5.6473 -0.7021 -2.4271 0.9756
5.6517 -0.6672 -2.4272 0.9756
5.6598 -0.5972 -2.4273 0.9756
5.6635 -0.5623 -2.4274 0.9756
5.6789 -0.3869 -2.4277 0.9756
5.6813 -0.3518 -2.4277 0.9756
5.6835 -0.3167 -2.4278 0.9756
5.6888 -0.2112 -2.4280 0.9755
5.6901 -0.1760 -2.4280 0.9755
5.6912 -0.1408 -2.4281 0.9755
5.6921 -0.1056 -2.4281 0.9755
5.6927 -0.0704 -2.4281 0.9755
5.6934 -0.0000 -2.4282 0.9755
5.6934 0.0352 -2.4283 0.9755
5.6927 0.1056 -2.4284 0.9755
5.6901 0.2113 -2.4285 0.9755
5.6812 0.3871 -2.4287 0.9755
5.6788 0.4222 -2.4287 0.9755
5.6702 0.5275 -2.4288 0.9755
5.6669 0.5626 -2.4288 0.9755
5.6596 0.6326 -2.4289 0.9755
5.6557 0.6676 -2.4289 0.9755
5.6515 0.7026 -2.4289 0.9755
5.6376 0.8074 -2.4290 0.9755
5.6273 0.8770 -2.4290 0.9755
5.6218 0.9118 -2.4290 0.9755
5.6160 0.9465 -2.4290 0.9755
5.6040 1.0159 -2.4291 0.9755
5.5911 1.0852 -2.4291 0.9755
5.5843 1.1197 -2.4291 0.9755
5.5772 1.1543 -2.4291 0.9755
5.5625 1.2232 -2.4291 0.9755
5.5549 1.2575 -2.4291 0.9755
5.5470 1.2919 -2.4291 0.9755
5.5389 1.3262 -2.4291 0.9755
5.5306 1.3604 -2.4291 0.9755
5.5221 1.3946 -2.4291 0.9755
5.4953 1.4967 -2.4291 0.9755
5.4859 1.5307 -2.4291 0.9755
5.4763 1.5646 -2.4291 0.9755
5.4665 1.5984 -2.4291 0.9755
5.4463 1.6659 -2.4291 0.9755
5.4359 1.6995 -2.4291 0.9755
5.4033 1.8001 -2.4290 0.9755
5.3806 1.8667 -2.4290 0.9755
5.3449 1.9662 -2.4290 0.9755
5.3326 1.9992 -2.4289 0.9755
5.2945 2.0977 -2.4289 0.9755
5.2813 2.1304 -2.4288 0.9755
5.2680 2.1630 -2.4288 0.9755
5.2545 2.1955 -2.4288 0.9755
5.2267 2.2603 -2.4287 0.9755
5.2126 2.2925 -2.4287 0.9755
5.1837 2.3567 -2.4286 0.9755
5.1690 2.3887 -2.4286 0.9755
5.1540 2.4206 -2.4286 0.9755
5.1389 2.4524 -2.4285 0.9755
5.1080 2.5157 -2.4285 0.9755
5.0602 2.6099 -2.4283 0.9755
5.0274 2.6722 -2.4283 0.9755
5.0106 2.7032 -2.4282 0.9755
4.9938 2.7341 -2.4282 0.9755
4.9766 2.7648 -2.4281 0.9755
4.9242 2.8565 -2.4280 0.9755
4.8882 2.9171 -2.4279 0.9755
4.8516 2.9772 -2.4278 0.9756
4.8330 3.0070 -2.4277 0.9756
4.8142 3.0368 -2.4276 0.9756
4.7952 3.0665 -2.4276 0.9756
4.7760 3.0960 -2.4275 0.9756
4.7567 3.1254 -2.4275 0.9756
4.7174 3.1838 -2.4273 0.9756
4.6975 3.2128 -2.4273 0.9756
4.6774 3.2417 -2.4272 0.9756
4.5743 3.3843 -2.4269 0.9756
4.5318 3.4404 -2.4267 0.9756
4.5103 3.4683 -2.4266 0.9756
4.4668 3.5236 -2.4265 0.9756
4.4448 3.5510 -2.4264 0.9756
4.4003 3.6055 -2.4263 0.9756
4.2859 3.7392 -2.4259 0.9756
4.2626 3.7655 -2.4258 0.9756
4.2391 3.7916 -2.4257 0.9756
4.2154 3.8176 -2.4256 0.9756
4.1676 3.8692 -2.4254 0.9756
4.1191 3.9202 -2.4252 0.9756
4.0203 4.0202 -2.4249 0.9756
3.9445 4.0936 -2.4246 0.9756
3.9189 4.1178 -2.4245 0.9756
3.8932 4.1418 -2.4244 0.9756
3.8153 4.2127 -2.4241 0.9756
3.7360 4.2822 -2.4238 0.9756
3.6824 4.3278 -2.4236 0.9756
3.6554 4.3503 -2.4235 0.9756
3.6283 4.3726 -2.4233 0.9756
3.5460 4.4385 -2.4230 0.9756
3.5184 4.4602 -2.4229 0.9756
3.4626 4.5029 -2.4227 0.9756
3.4063 4.5450 -2.4224 0.9756
3.3780 4.5657 -2.4223 0.9756
3.3495 4.5863 -2.4222 0.9756
3.2634 4.6470 -2.4218 0.9756
3.2344 4.6668 -2.4217 0.9756
3.2054 4.6865 -2.4216 0.9756
3.1049 4.7254 -2.4115 0.9757
3.0642 4.7270 -2.4026 0.9758
3.0239 4.7286 -2.3939 0.9759
2.9045 4.7332 -2.3685 0.9761
2.8653 4.7346 -2.3603 0.9762
2.8263 4.7361 -2.3523 0.9763
2.7491 4.7389 -2.3366 0.9765
2.6728 4.7417 -2.3215 0.9766
2.4500 4.7502 -2.2796 0.9770
2.4154 4.7549 -2.2746 0.9771
2.3167 4.7783 -2.2648 0.9772
2.2870 4.7922 -2.2647 0.9772
2.2572 4.8060 -2.2646 0.9772
2.1672 4.8462 -2.2642 0.9772
2.1371 4.8592 -2.2640 0.9772
2.1069 4.8720 -2.2639 0.9772
2.0158 4.9094 -2.2635 0.9772
1.9853 4.9214 -2.2634 0.9772
1.9546 4.9333 -2.2632 0.9772
1.9240 4.9450 -2.2631 0.9772
1.8933 4.9565 -2.2629 0.9772
1.8316 4.9789 -2.2626 0.9772
1.8006 4.9898 -2.2625 0.9772
1.7386 5.0111 -2.2622 0.9772
1.6762 5.0316 -2.2619 0.9772
1.5823 5.0608 -2.2615 0.9772
1.4563 5.0971 -2.2609 0.9772
1.4246 5.1057 -2.2608 0.9772
1.3929 5.1140 -2.2606 0.9772
1.3294 5.1302 -2.2603 0.9772
1.2975 5.1379 -2.2602 0.9772
1.2337 5.1529 -2.2599 0.9772
1.2017 5.1601 -2.2597 0.9772
1.1698 5.1671 -2.2595 0.9772
1.1056 5.1804 -2.2592 0.9772
1.0735 5.1868 -2.2591 0.9772
1.0413 5.1930 -2.2589 0.9772
0.9446 5.2104 -2.2585 0.9772
0.9123 5.2157 -2.2583 0.9772
0.8476 5.2259 -2.2580 0.9772
0.7828 5.2353 -2.2577 0.9772
0.7504 5.2396 -2.2575 0.9772
0.7179 5.2438 -2.2574 0.9772
0.6203 5.2551 -2.2569 0.9773
0.5878 5.2585 -2.2567 0.9773
0.5552 5.2616 -2.2566 0.9773
0.4900 5.2673 -2.2562 0.9773
0.4248 5.2722 -2.2559 0.9773
0.3921 5.2744 -2.2558 0.9773
0.3595 5.2764 -2.2556 0.9773
0.3268 5.2781 -2.2554 0.9773
0.2615 5.2810 -2.2551 0.9773
0.2288 5.2821 -2.2550 0.9773
0.1961 5.2830 -2.2548 0.9773
0.0981 5.2846 -2.2543 0.9773
0.0654 5.2847 -2.2541 0.9773
0.0000 5.2843 -2.2538 0.9773
-0.1633 5.2799 -2.2530 0.9773
-0.2937 5.2727 -2.2523 0.9773
-0.3263 5.2704 -2.2521 0.9773
-0.3589 5.2679 -2.2520 0.9773
-0.4240 5.2622 -2.2516 0.9773
-0.5214 5.2523 -2.2511 0.9773
-0.5863 5.2446 -2.2508 0.9773
-0.6187 5.2405 -2.2506 0.9773
-0.6510 5.2362 -2.2505 0.9773
-0.6833 5.2317 -2.2503 0.9773
-0.7155 5.2270 -2.2501 0.9773
-0.7478 5.2221 -2.2500 0.9773
-0.7800 5.2169 -2.2498 0.9773
-0.8122 5.2116 -2.2496 0.9773
-0.8444 5.2061 -2.2494 0.9773
-1.0683 5.1620 -2.2483 0.9773
-1.1637 5.1401 -2.2478 0.9773
-1.2269 5.1246 -2.2474 0.9773
-1.3843 5.0822 -2.2466 0.9774
-1.5091 5.0449 -2.2459 0.9774
-1.5401 5.0351 -2.2457 0.9774
-1.5711 5.0251 -2.2456 0.9774
-1.6021 5.0149 -2.2454 0.9774
-1.6637 4.9940 -2.2450 0.9774
-1.7557 4.9612 -2.2445 0.9774
-1.8470 4.9266 -2.2440 0.9774
-1.8773 4.9147 -2.2439 0.9774
-2.0276 4.8525 -2.2430 0.9774
-2.0574 4.8396 -2.2429 0.9774
-2.0871 4.8264 -2.2427 0.9774
-2.2052 4.7719 -2.2420 0.9774
-2.4104 4.7453 -2.2700 0.9771
-2.4834 4.7427 -2.2833 0.9770
-2.5202 4.7414 -2.2901 0.9769
-2.6696 4.7359 -2.3187 0.9766
-2.7075 4.7345 -2.3261 0.9766
-2.7456 4.7330 -2.3337 0.9765
-2.9401 4.7253 -2.3736 0.9761
-2.9798 4.7237 -2.3820 0.9760
-3.0193 4.7215 -2.3903 0.9759
-3.0771 4.6831 -2.3899 0.9759
-3.1910 4.6043 -2.3893 0.9759
-3.2473 4.5638 -2.3889 0.9759
-3.3307 4.5018 -2.3884 0.9759
-3.3583 4.4808 -2.3883 0.9759
-3.4401 4.4169 -2.3878 0.9759
-3.4940 4.3734 -2.3874 0.9760
-3.5473 4.3292 -2.3871 0.9760
-3.5738 4.3069 -2.3870 0.9760
-3.6001 4.2844 -2.3868 0.9760
-3.6263 4.2618 -2.3866 0.9760
-3.6523 4.2390 -2.3865 0.9760
-3.7551 4.1463 -2.3858 0.9760
-3.8306 4.0751 -2.3854 0.9760
-3.9292 3.9781 -2.3847 0.9760
-4.0253 3.8787 -2.3841 0.9760
-4.0490 3.8535 -2.3840 0.9760
-4.0725 3.8281 -2.3838 0.9760
-4.0958 3.8026 -2.3837 0.9760
-4.1421 3.7512 -2.3834 0.9760
-4.2547 3.6202 -2.3827 0.9760
-4.2987 3.5669 -2.3824 0.9760
-4.3204 3.5400 -2.3822 0.9760
-4.3845 3.4587 -2.3818 0.9760
-4.4471 3.3761 -2.3814 0.9760
-4.5082 3.2925 -2.3810 0.9760
-4.5481 3.2361 -2.3807 0.9760
-4.6065 3.1506 -2.3803 0.9760
-4.6446 3.0931 -2.3800 0.9760
-4.6820 3.0351 -2.3798 0.9760
-4.7005 3.0059 -2.3796 0.9760
-4.7368 2.9472 -2.3794 0.9760
-4.8243 2.7986 -2.3787 0.9760
-4.8747 2.7082 -2.3784 0.9760
-4.9233 2.6169 -2.3780 0.9760
-4.9548 2.5556 -2.3778 0.9760
-4.9703 2.5247 -2.3777 0.9760
-5.0007 2.4628 -2.3774 0.9761
-5.0155 2.4318 -2.3773 0.9761
-5.0302 2.4006 -2.3772 0.9761
-5.0448 2.3693 -2.3771 0.9761
-5.0591 2.3380 -2.3770 0.9761
-5.0732 2.3065 -2.3769 0.9761
-5.1009 2.2434 -2.3767 0.9761
-5.1409 2.1481 -2.3763 0.9761
-5.1666 2.0841 -2.3761 0.9761
-5.1792 2.0521 -2.3760 0.9761
-5.1916 2.0199 -2.3759 0.9761
-5.2037 1.9877 -2.3758 0.9761
-5.2157 1.9554 -2.3757 0.9761
-5.2275 1.9230 -2.3756 0.9761
-5.2390 1.8906 -2.3755 0.9761
-5.2504 1.8581 -2.3754 0.9761
-5.2616 1.8255 -2.3753 0.9761
-5.2726 1.7928 -2.3752 0.9761
-5.3145 1.6616 -2.3748 0.9761
-5.3437 1.5625 -2.3746 0.9761
-5.3531 1.5294 -2.3745 0.9761
-5.3623 1.4962 -2.3744 0.9761
-5.3712 1.4630 -2.3743 0.9761
-5.3800 1.4297 -2.3742 0.9761
-5.3885 1.3963 -2.3741 0.9761
-5.4282 1.2289 -2.3737 0.9761
-5.4355 1.1952 -2.3736 0.9761
-5.4562 1.0941 -2.3734 0.9761
-5.4690 1.0265 -2.3733 0.9761
-5.4750 0.9926 -2.3732 0.9761
-5.4866 0.9247 -2.3730 0.9761
-5.4921 0.8907 -2.3730 0.9761
-5.5023 0.8227 -2.3728 0.9761
-5.5071 0.7886 -2.3728 0.9761
-5.5161 0.7204 -2.3726 0.9761
-5.5281 0.6179 -2.3725 0.9761
-5.5508 0.3437 -2.3720 0.9761
-5.5544 0.2750 -2.3719 0.9761
-5.5582 0.1719 -2.3717 0.9761
-5.5597 0.1031 -2.3716 0.9761
-5.5601 0.0688 -2.3716 0.9761
-5.4471 -0.1348 -2.3719 0.9765
-5.4461 -0.1684 -2.3719 0.9765
-5.4449 -0.2021 -2.3718 0.9765
-5.4400 -0.3031 -2.3717 0.9765
-5.4305 -0.4375 -2.3716 0.9765
-5.4277 -0.4711 -2.3716 0.9765
-5.4246 -0.5047 -2.3716 0.9765
-5.4178 -0.5717 -2.3715 0.9765
-5.4141 -0.6052 -2.3715 0.9765
-5.3660 -0.9386 -2.3713 0.9765
-5.3600 -0.9717 -2.3713 0.9765
-5.3539 -1.0048 -2.3713 0.9765
-5.2976 -1.2683 -2.3712 0.9765
-5.2896 -1.3011 -2.3712 0.9765
-5.2815 -1.3338 -2.3712 0.9765
-5.2731 -1.3664 -2.3712 0.9765
-5.2558 -1.4315 -2.3712 0.9765
-5.2469 -1.4640 -2.3712 0.9765
-5.2284 -1.5288 -2.3713 0.9765
-5.2091 -1.5934 -2.3713 0.9765
-5.1992 -1.6256 -2.3713 0.9765
-5.1890 -1.6577 -2.3713 0.9765
-5.1787 -1.6898 -2.3713 0.9765
-5.1682 -1.7218 -2.3713 0.9765
-5.1355 -1.8174 -2.3714 0.9765
-5.1242 -1.8491 -2.3714 0.9765
-5.1010 -1.9124 -2.3714 0.9765
-5.0891 -1.9439 -2.3714 0.9765
-5.0268 -2.1004 -2.3716 0.9765
-4.9871 -2.1934 -2.3716 0.9765
-4.9597 -2.2550 -2.3717 0.9765
-4.9458 -2.2856 -2.3717 0.9765
-4.9028 -2.3771 -2.3718 0.9765
-4.8880 -2.4074 -2.3719 0.9765
-4.8273 -2.5277 -2.3720 0.9765
-4.7799 -2.6170 -2.3721 0.9765
-4.7473 -2.6760 -2.3722 0.9765
-4.7140 -2.7346 -2.3723 0.9765
-4.6971 -2.7638 -2.3724 0.9765
-4.6277 -2.8794 -2.3726 0.9765
-4.6099 -2.9080 -2.3726 0.9765
-4.5920 -2.9365 -2.3727 0.9765
-4.5370 -3.0214 -2.3729 0.9765
-4.5183 -3.0495 -2.3729 0.9765
-4.4995 -3.0775 -2.3730 0.9765
-4.4805 -3.1053 -2.3730 0.9765
-4.4028 -3.2155 -2.3733 0.9765
-4.3830 -3.2428 -2.3734 0.9765
-4.3629 -3.2699 -2.3734 0.9765
-4.3428 -3.2969 -2.3735 0.9765
-4.3224 -3.3238 -2.3736 0.9765
-4.2812 -3.3772 -2.3737 0.9765
-4.2604 -3.4037 -2.3738 0.9765
-4.2394 -3.4301 -2.3738 0.9765
-4.2182 -3.4564 -2.3739 0.9765
-4.1538 -3.5344 -2.3741 0.9765
-4.1100 -3.5857 -2.3743 0.9765
-4.0879 -3.6112 -2.3744 0.9765
-4.0656 -3.6365 -2.3745 0.9765
-3.9979 -3.7117 -2.3747 0.9765
-3.9750 -3.7365 -2.3748 0.9765
-3.9288 -3.7856 -2.3750 0.9765
-3.9054 -3.8100 -2.3750 0.9765
-3.8819 -3.8342 -2.3751 0.9765
-3.8345 -3.8822 -2.3753 0.9765
-3.8105 -3.9060 -2.3754 0.9765
-3.7622 -3.9531 -2.3756 0.9765
-3.7133 -3.9997 -2.3758 0.9765
-3.6887 -4.0227 -2.3759 0.9765
-3.6639 -4.0456 -2.3760 0.9765
-3.6389 -4.0684 -2.3761 0.9765
-3.5887 -4.1134 -2.3763 0.9765
-3.5633 -4.1357 -2.3764 0.9765
-3.4345 -4.2448 -2.3769 0.9765
-3.4083 -4.2662 -2.3770 0.9765
-3.3820 -4.2873 -2.3771 0.9765
-3.3556 -4.3084 -2.3772 0.9765
-3.2755 -4.3705 -2.3775 0.9765
-3.2486 -4.3909 -2.3776 0.9765
-3.2215 -4.4111 -2.3777 0.9765
-3.1396 -4.4707 -2.3781 0.9764
-3.0844 -4.5096 -2.3783 0.9764
-3.0566 -4.5289 -2.3784 0.9764
-3.0006 -4.5668 -2.3787 0.9764
-2.9442 -4.6040 -2.3789 0.9764
-2.9158 -4.6224 -2.3790 0.9764
-2.8873 -4.6405 -2.3791 0.9764
-2.8587 -4.6585 -2.3793 0.9764
-2.8011 -4.6940 -2.3795 0.9764
-2.7431 -4.7288 -2.3797 0.9764
-2.7140 -4.7459 -2.3799 0.9764
-2.6554 -4.7796 -2.3801 0.9764
-2.6259 -4.7962 -2.3803 0.9764
-2.5963 -4.8126 -2.3804 0.9764
-2.5369 -4.8449 -2.3806 0.9764
-2.3562 -4.9373 -2.3814 0.9764
-2.3258 -4.9521 -2.3816 0.9764
-2.2646 -4.9810 -2.3818 0.9764
-2.2339 -4.9952 -2.3820 0.9764
-2.2031 -5.0092 -2.3821 0.9764
-2.1722 -5.0230 -2.3823 0.9764
-2.1412 -5.0367 -2.3824 0.9764
-2.0790 -5.0634 -2.3827 0.9764
-2.0477 -5.0764 -2.3828 0.9764
-2.0164 -5.0893 -2.3830 0.9764
-1.9850 -5.1020 -2.3831 0.9764
-1.8269 -5.1625 -2.3838 0.9764
-1.7950 -5.1740 -2.3840 0.9764
-1.7631 -5.1853 -2.3841 0.9764
-1.7312 -5.1964 -2.3843 0.9764
-1.6347 -5.2286 -2.3847 0.9764
-1.5378 -5.2591 -2.3852 0.9764
-1.4728 -5.2783 -2.3855 0.9764
-1.3421 -5.3145 -2.3861 0.9764
-1.2765 -5.3314 -2.3864 0.9764
-1.2436 -5.3395 -2.3865 0.9764
-1.1445 -5.3627 -2.3870 0.9764
-1.1114 -5.3701 -2.3872 0.9764
-1.0450 -5.3841 -2.3875 0.9764
-1.0118 -5.3908 -2.3876 0.9764
-0.9452 -5.4037 -2.3880 0.9764
-0.8784 -5.4157 -2.3883 0.9763
-0.8114 -5.4269 -2.3886 0.9763
-0.7779 -5.4321 -2.3888 0.9763
-0.6771 -5.4468 -2.3893 0.9763
-0.5086 -5.4670 -2.3901 0.9763
-0.4748 -5.4704 -2.3902 0.9763
-0.4410 -5.4736 -2.3904 0.9763
-0.3394 -5.4820 -2.3909 0.9763
-0.2717 -5.4865 -2.3913 0.9763
-0.2377 -5.4885 -2.3914 0.9763
-0.2038 -5.4903 -2.3916 0.9763
-0.1699 -5.4918 -2.3918 0.9763
-0.1359 -5.4931 -2.3919 0.9763
-0.0680 -5.4952 -2.3923 0.9763
-0.0340 -5.4959 -2.3924 0.9763
0.0000 -5.4964 -2.3926 0.9763
0.0340 -5.4967 -2.3928 0.9763
0.2380 -5.4940 -2.3938 0.9763
0.3060 -5.4914 -2.3942 0.9763
0.3739 -5.4880 -2.3945 0.9763
0.4079 -5.4860 -2.3947 0.9763
0.4419 -5.4838 -2.3949 0.9763
0.5436 -5.4758 -2.3954 0.9763
0.5775 -5.4728 -2.3956 0.9763
0.6114 -5.4695 -2.3957 0.9763
0.6452 -5.4660 -2.3959 0.9763
0.6791 -5.4623 -2.3961 0.9763
0.7129 -5.4584 -2.3963 0.9763
0.7805 -5.4500 -2.3966 0.9763
0.8479 -5.4407 -2.3970 0.9763
0.8816 -5.4357 -2.3971 0.9763
0.9153 -5.4306 -2.3973 0.9763
0.9490 -5.4252 -2.3975 0.9763
1.0832 -5.4017 -2.3982 0.9763
1.1500 -5.3887 -2.3985 0.9762
1.2168 -5.3748 -2.3989 0.9762
1.2501 -5.3676 -2.3991 0.9762
1.3166 -5.3525 -2.3994 0.9762
1.3829 -5.3366 -2.3998 0.9762
1.4490 -5.3199 -2.4001 0.9762
1.4820 -5.3112 -2.4003 0.9762
1.5149 -5.3023 -2.4005 0.9762
1.5806 -5.2840 -2.4008 0.9762
1.6461 -5.2648 -2.4012 0.9762
1.6788 -5.2549 -2.4014 0.9762
1.7439 -5.2345 -2.4017 0.9762
1.8087 -5.2133 -2.4021 0.9762
1.8411 -5.2024 -2.4023 0.9762
1.8734 -5.1913 -2.4024 0.9762
1.9056 -5.1800 -2.4026 0.9762
1.9377 -5.1685 -2.4028 0.9762
1.9698 -5.1568 -2.4030 0.9762
2.1290 -5.0953 -2.4038 0.9762
2.1606 -5.0824 -2.4040 0.9762
2.2864 -5.0289 -2.4047 0.9762
2.3176 -5.0150 -2.4049 0.9762
2.3487 -5.0009 -2.4051 0.9762
2.4416 -4.9576 -2.4056 0.9762
2.5031 -4.9277 -2.4059 0.9762
2.5947 -4.8815 -2.4065 0.9762
2.6250 -4.8657 -2.4066 0.9762
2.6552 -4.8497 -2.4068 0.9762
2.7154 -4.8172 -2.4072 0.9762
2.7453 -4.8007 -2.4073 0.9762
2.7752 -4.7839 -2.4075 0.9762
2.9228 -4.6975 -2.4084 0.9762
2.9811 -4.6616 -2.4087 0.9761
3.0101 -4.6434 -2.4089 0.9761
3.0677 -4.6065 -2.4092 0.9761
3.1249 -4.5689 -2.4095 0.9761
3.1816 -4.5305 -2.4099 0.9761
3.2097 -4.5110 -2.4100 0.9761
3.2378 -4.4914 -2.4102 0.9761
3.2658 -4.4716 -2.4104 0.9761
3.3763 -4.3907 -2.4110 0.9761
3.4579 -4.3282 -2.4115 0.9761
3.5116 -4.2856 -2.4118 0.9761
3.5648 -4.2424 -2.4122 0.9761
3.6436 -4.1764 -2.4126 0.9761
3.6955 -4.1316 -2.4130 0.9761
3.7212 -4.1089 -2.4131 0.9761
3.7468 -4.0861 -2.4133 0.9761
3.7975 -4.0400 -2.4136 0.9761
3.8477 -3.9932 -2.4139 0.9761
3.8726 -3.9696 -2.4141 0.9761
3.8973 -3.9458 -2.4142 0.9761
3.9706 -3.8736 -2.4147 0.9761
4.0897 -3.7501 -2.4154 0.9761
4.1823 -3.6487 -2.4160 0.9761
4.2050 -3.6230 -2.4162 0.9761
4.2276 -3.5972 -2.4163 0.9761
4.2500 -3.5711 -2.4165 0.9761
4.2723 -3.5450 -2.4166 0.9761
4.2944 -3.5187 -2.4168 0.9761
4.3811 -3.4123 -2.4173 0.9761
4.4024 -3.3853 -2.4175 0.9761
4.4858 -3.2761 -2.4180 0.9761
4.5062 -3.2485 -2.4182 0.9761
4.5265 -3.2208 -2.4183 0.9761
4.5665 -3.1649 -2.4186 0.9761
4.5862 -3.1367 -2.4187 0.9761
4.6058 -3.1085 -2.4188 0.9761
4.6823 -2.9943 -2.4194 0.9760
4.7010 -2.9654 -2.4195 0.9760
4.7378 -2.9074 -2.4198 0.9760
4.7560 -2.8782 -2.4199 0.9760
4.7917 -2.8194 -2.4201 0.9760
4.8093 -2.7899 -2.4203 0.9760
4.8267 -2.7602 -2.4204 0.9760
4.8439 -2.7305 -2.4205 0.9760
4.8778 -2.6706 -2.4208 0.9760
4.9273 -2.5800 -2.4211 0.9760
4.9593 -2.5192 -2.4214 0.9760
4.9905 -2.4579 -2.4216 0.9760
5.0360 -2.3652 -2.4219 0.9760
5.0654 -2.3029 -2.4222 0.9760
5.1217 -2.1774 -2.4226 0.9760
5.1619 -2.0822 -2.4229 0.9760
5.1749 -2.0504 -2.4230 0.9760
5.1877 -2.0184 -2.4231 0.9760
5.2003 -1.9864 -2.4233 0.9760
5.2128 -1.9543 -2.4234 0.9760
5.2487 -1.8575 -2.4237 0.9760
5.2604 -1.8250 -2.4238 0.9760
5.2829 -1.7600 -2.4240 0.9760
5.2940 -1.7273 -2.4240 0.9760
5.3047 -1.6946 -2.4241 0.9760
5.3153 -1.6619 -2.4242 0.9760
5.3459 -1.5632 -2.4245 0.9760
5.3556 -1.5301 -2.4246 0.9760
5.3651 -1.4970 -2.4247 0.9760
5.3926 -1.3974 -2.4250 0.9760
5.4099 -1.3307 -2.4251 0.9760
5.4493 -1.1630 -2.4255 0.9760
5.4566 -1.1293 -2.4256 0.9760
5.4636 -1.0956 -2.4257 0.9760
5.4836 -0.9941 -2.4259 0.9760
5.5071 -0.8583 -2.4262 0.9760
5.5125 -0.8242 -2.4263 0.9760
5.5177 -0.7902 -2.4264 0.9760
5.5273 -0.7219 -2.4265 0.9760
5.5361 -0.6535 -2.4266 0.9760
5.5402 -0.6193 -2.4267 0.9760
5.5441 -0.5850 -2.4268 0.9760
5.5477 -0.5507 -2.4268 0.9760
5.5511 -0.5165 -2.4269 0.9760
5.5544 -0.4821 -2.4269 0.9760
5.5573 -0.4478 -2.4270 0.9760
5.5602 -0.4134 -2.4270 0.9760
5.5627 -0.3790 -2.4271 0.9760
5.5651 -0.3446 -2.4272 0.9760
5.5672 -0.3102 -2.4272 0.9760
5.5692 -0.2758 -2.4273 0.9760
5.5709 -0.2413 -2.4273 0.9760
5.5737 -0.1724 -2.4274 0.9760
5.5748 -0.1379 -2.4275 0.9760
5.5767 -0.0345 -2.4276 0.9760
5.5762 0.1035 -2.4278 0.9760
5.5756 0.1380 -2.4278 0.9760
5.5708 0.2758 -2.4280 0.9760
5.5691 0.3103 -2.4280 0.9760
5.5671 0.3447 -2.4280 0.9760
5.5650 0.3792 -2.4281 0.9760
5.5600 0.4479 -2.4281 0.9760
5.5541 0.5167 -2.4282 0.9760
5.5509 0.5511 -2.4282 0.9760
5.5475 0.5854 -2.4282 0.9760
5.5438 0.6197 -2.4283 0.9760
5.5399 0.6539 -2.4283 0.9760
5.5270 0.7567 -2.4284 0.9760
5.5222 0.7908 -2.4284 0.9760
5.5173 0.8249 -2.4284 0.9760
5.5067 0.8931 -2.4284 0.9760
5.4893 0.9952 -2.4285 0.9760
5.4766 1.0630 -2.4285 0.9760
5.4631 1.1306 -2.4285 0.9760
5.4487 1.1981 -2.4285 0.9760
5.4335 1.2654 -2.4285 0.9760
5.4256 1.2990 -2.4285 0.9760
5.4175 1.3325 -2.4285 0.9760
5.4091 1.3660 -2.4285 0.9760
5.4005 1.3994 -2.4285 0.9760
5.3736 1.4994 -2.4285 0.9760
5.3546 1.5657 -2.4285 0.9760
5.3246 1.6648 -2.4285 0.9760
5.3142 1.6976 -2.4285 0.9760
5.2817 1.7959 -2.4284 0.9760
5.2704 1.8285 -2.4284 0.9760
5.2590 1.8611 -2.4284 0.9760
5.2474 1.8936 -2.4284 0.9760
5.2355 1.9259 -2.4284 0.9760
5.2112 1.9905 -2.4283 0.9760
5.1861 2.0548 -2.4283 0.9760
5.1732 2.0868 -2.4282 0.9760
5.1602 2.1187 -2.4282 0.9760
5.1334 2.1823 -2.4282 0.9760
5.1198 2.2140 -2.4281 0.9760
5.0777 2.3085 -2.4280 0.9760
5.0632 2.3399 -2.4280 0.9760
5.0338 2.4022 -2.4279 0.9760
5.0035 2.4642 -2.4279 0.9760
4.9880 2.4951 -2.4278 0.9760
4.9245 2.6175 -2.4277 0.9760
4.9081 2.6479 -2.4276 0.9760
4.8916 2.6781 -2.4276 0.9760
4.8579 2.7383 -2.4275 0.9760
4.8234 2.7981 -2.4274 0.9760
4.8059 2.8278 -2.4273 0.9760
4.7883 2.8574 -2.4273 0.9760
4.7704 2.8869 -2.4272 0.9760
4.7341 2.9455 -2.4271 0.9760
4.7157 2.9747 -2.4271 0.9760
4.6209 3.1187 -2.4268 0.9760
4.5619 3.2036 -2.4266 0.9760
4.5419 3.2317 -2.4265 0.9760
4.5217 3.2596 -2.4264 0.9760
4.5013 3.2874 -2.4264 0.9760
4.4808 3.3151 -2.4263 0.9760
4.4601 3.3426 -2.4262 0.9760
4.3969 3.4245 -2.4260 0.9760
4.3103 3.5318 -2.4257 0.9760
4.2882 3.5583 -2.4256 0.9760
4.2436 3.6108 -2.4255 0.9760
4.2211 3.6368 -2.4254 0.9760
4.1755 3.6885 -2.4252 0.9760
4.1293 3.7396 -2.4251 0.9760
4.1059 3.7650 -2.4250 0.9760
4.0587 3.8152 -2.4248 0.9760
4.0349 3.8400 -2.4247 0.9760
4.0110 3.8648 -2.4246 0.9760
3.9381 3.9381 -2.4244 0.9760
3.9136 3.9622 -2.4243 0.9760
3.8888 3.9862 -2.4242 0.9760
3.7884 4.0805 -2.4238 0.9760
3.7629 4.1037 -2.4237 0.9760
3.7374 4.1267 -2.4236 0.9760
3.7116 4.1496 -2.4235 0.9760
3.6857 4.1723 -2.4234 0.9760
3.6597 4.1948 -2.4233 0.9760
3.5808 4.2614 -2.4230 0.9760
3.5542 4.2833 -2.4229 0.9760
3.5275 4.3050 -2.4227 0.9760
3.5006 4.3265 -2.4226 0.9760
3.4193 4.3901 -2.4223 0.9760
3.3919 4.4110 -2.4222 0.9760
3.3090 4.4725 -2.4219 0.9760
