ply
format ascii 1.0
element vertex 1535
property float32 x
property float32 y
property float32 z
property float32 I
end_header
2.1257 13.1063 -1.6146 0.9479
1.8182 12.6967 -1.5597 0.9496
1.7396 12.7072 -1.5597 0.9496
1.5824 12.7283 -1.5597 0.9496
1.4251 12.7494 -1.5600 0.9496
1.2678 12.7704 -1.5606 0.9496
1.1890 12.7810 -1.5609 0.9496
1.1103 12.7915 -1.5613 0.9496
1.0315 12.8021 -1.5618 0.9496
0.9526 12.8127 -1.5624 0.9495
0.5863 13.5357 -1.6475 0.9469
0.5029 13.5468 -1.6485 0.9468
0.2520 13.5804 -1.6517 0.9467
0.1681 13.5917 -1.6529 0.9467
0.0748 12.1011 -1.4716 0.9524
0.0000 10.3203 -1.2550 0.9593
-0.1271 10.2696 -1.2489 0.9595
-0.1901 10.2450 -1.2460 0.9596
-0.3152 10.1920 -1.2400 0.9597
-0.4391 10.1364 -1.2338 0.9599
-0.5482 11.0725 -1.3481 0.9563
-0.6165 11.0652 -1.3476 0.9563
-0.8888 11.0314 -1.3458 0.9564
-1.1597 10.9908 -1.3439 0.9564
-1.2947 10.9680 -1.3430 0.9565
-1.3620 10.9560 -1.3425 0.9565
-1.4964 10.9307 -1.3416 0.9565
-1.5634 10.9174 -1.3411 0.9565
-1.6303 10.9037 -1.3407 0.9565
-1.6007 10.2706 -1.2640 0.9590
-1.6732 10.3163 -1.2709 0.9588
-1.7497 10.3812 -1.2802 0.9585
-2.0643 10.6355 -1.3174 0.9573
-2.8979 14.0021 -1.7388 0.9440
-2.9909 14.0145 -1.7426 0.9439
-3.2727 14.0522 -1.7545 0.9435
-3.6546 14.1033 -1.7717 0.9430
-3.7512 14.1162 -1.7762 0.9428
-4.1430 14.1686 -1.7951 0.9423
-4.2422 14.1819 -1.8001 0.9421
-4.3420 14.1953 -1.8051 0.9419
-4.4424 14.2087 -1.8103 0.9418
-5.0573 14.2909 -1.8434 0.9407
-5.2675 14.3191 -1.8553 0.9404
-5.4804 14.3475 -1.8677 0.9400
-5.3489 12.8014 -1.6871 0.9456
-5.6324 12.8065 -1.7013 0.9452
-5.6983 12.7419 -1.6973 0.9453
-5.7637 12.6773 -1.6935 0.9454
-6.7062 14.5114 -1.9440 0.9376
-5.5630 11.8449 -1.5913 0.9486
-6.0930 12.5669 -1.6983 0.9453
-5.7248 10.9330 -1.5007 0.9515
-5.7968 10.9058 -1.5019 0.9515
-6.0968 11.3011 -1.5615 0.9496
-6.2751 11.2949 -1.5712 0.9493
-7.0133 12.4419 -1.7368 0.9441
-6.8605 11.9966 -1.6805 0.9458
-6.6006 11.3784 -1.5996 0.9484
-8.8291 14.7952 -2.0952 0.9329
-7.1341 11.7887 -1.6756 0.9460
-9.1014 14.8316 -2.1161 0.9323
-6.9913 11.0830 -1.5935 0.9486
-7.1764 11.2221 -1.6198 0.9477
-9.9528 14.9454 -2.1835 0.9302
-10.0438 14.3022 -2.1252 0.9320
-10.1758 14.3012 -2.1344 0.9317
-8.9806 12.2967 -1.8516 0.9405
-8.9183 12.0542 -1.8234 0.9414
-8.7484 11.6729 -1.7739 0.9429
-10.9340 14.4025 -2.1989 0.9297
-9.9059 12.8822 -1.9761 0.9366
-10.5092 13.4932 -2.0798 0.9334
-11.3237 14.3550 -2.2234 0.9290
-11.4084 14.2798 -2.2226 0.9290
-9.9716 11.8671 -1.8849 0.9395
-11.9058 13.8184 -2.2181 0.9291
-10.2753 11.4879 -1.8742 0.9398
-6.9416 7.4768 -1.2406 0.9597
-7.2365 7.6985 -1.2848 0.9583
-7.1555 7.2445 -1.2382 0.9598
-7.2790 7.2790 -1.2518 0.9594
-7.4714 7.3796 -1.2770 0.9586
-7.4848 7.1233 -1.2565 0.9592
-7.8693 7.3971 -1.3133 0.9574
-7.9187 7.2611 -1.3065 0.9576
-7.8256 6.9996 -1.2768 0.9586
-7.9121 6.9895 -1.2838 0.9584
-7.9845 6.9659 -1.2885 0.9582
-8.1812 7.0489 -1.3132 0.9574
-8.5512 7.0067 -1.3443 0.9564
-8.8678 7.0847 -1.3803 0.9553
-8.8660 6.9938 -1.3732 0.9555
-8.9797 6.9939 -1.3841 0.9552
-9.0806 6.9827 -1.3930 0.9549
-9.6061 7.0156 -1.4465 0.9532
-9.8473 7.0988 -1.4762 0.9523
-9.8368 6.8176 -1.4554 0.9529
-10.7643 7.1684 -1.5727 0.9492
-10.8211 7.1100 -1.5745 0.9492
-11.2002 7.1624 -1.6167 0.9478
-11.4918 7.1501 -1.6459 0.9469
-11.9177 7.2122 -1.6939 0.9454
-12.1088 7.2259 -1.7147 0.9448
-12.1042 7.1221 -1.7078 0.9450
-12.4173 7.2033 -1.7457 0.9438
-12.4785 7.1360 -1.7480 0.9437
-12.6953 7.0531 -1.7660 0.9432
-13.3156 7.2903 -1.8460 0.9407
-13.4011 7.2298 -1.8517 0.9405
-14.2150 7.4433 -1.9512 0.9374
-14.5481 7.3900 -1.9843 0.9364
-15.1012 7.4374 -2.0470 0.9344
-15.5461 7.5375 -2.1009 0.9328
-15.6850 7.4854 -2.1134 0.9324
-16.0323 7.5297 -2.1539 0.9311
-16.3076 7.1722 -2.1664 0.9307
-16.3473 7.0693 -2.1658 0.9307
-16.3864 6.9663 -2.1652 0.9308
-16.4999 6.6559 -2.1635 0.9308
-16.5365 6.5520 -2.1630 0.9308
-16.5724 6.4480 -2.1624 0.9309
-16.6077 6.3437 -2.1619 0.9309
-16.7427 5.9250 -2.1597 0.9309
-17.7647 5.7964 -2.2723 0.9275
-18.0737 5.6509 -2.3027 0.9265
-18.1040 5.5377 -2.3022 0.9266
-18.1625 5.3108 -2.3011 0.9266
-18.4145 4.1687 -2.2959 0.9267
-18.4359 4.0539 -2.2954 0.9268
-18.4567 3.9390 -2.2949 0.9268
-18.4962 3.7088 -2.2940 0.9268
-18.5329 3.4784 -2.2930 0.9268
-18.5503 3.3630 -2.2925 0.9268
-18.5669 3.2476 -2.2921 0.9269
-18.5829 3.1320 -2.2916 0.9269
-18.6128 2.9008 -2.2907 0.9269
-18.6267 2.7851 -2.2903 0.9269
-18.6399 2.6693 -2.2898 0.9269
-18.6525 2.5535 -2.2894 0.9269
-18.6860 2.2058 -2.2881 0.9270
-18.7211 1.7416 -2.2864 0.9270
-18.7346 1.5094 -2.2856 0.9271
-18.7496 1.1610 -2.2844 0.9271
-18.7585 0.8125 -2.2832 0.9271
-18.7612 0.4642 -2.2821 0.9272
-18.7608 0.3481 -2.2818 0.9272
-18.7597 0.2320 -2.2814 0.9272
-17.7118 0.0000 -2.2874 0.9311
-17.7089 -0.1095 -2.2871 0.9311
-17.7054 -0.2190 -2.2867 0.9311
-17.7013 -0.3284 -2.2864 0.9311
-17.6965 -0.4379 -2.2861 0.9311
-17.6911 -0.5472 -2.2858 0.9311
-17.6850 -0.6565 -2.2855 0.9311
-17.6630 -0.9841 -2.2846 0.9311
-17.6543 -1.0932 -2.2843 0.9311
-17.6352 -1.3111 -2.2838 0.9312
-17.6134 -1.5288 -2.2832 0.9312
-17.6016 -1.6375 -2.2830 0.9312
-17.5891 -1.7461 -2.2827 0.9312
-17.5760 -1.8546 -2.2825 0.9312
-17.5479 -2.0714 -2.2820 0.9312
-17.5329 -2.1797 -2.2817 0.9312
-17.5172 -2.2878 -2.2815 0.9312
-17.4841 -2.5038 -2.2810 0.9312
-17.4483 -2.7193 -2.2806 0.9313
-17.4101 -2.9344 -2.2801 0.9313
-17.3900 -3.0417 -2.2799 0.9313
-17.3694 -3.1489 -2.2797 0.9313
-17.3261 -3.3629 -2.2793 0.9313
-17.3035 -3.4697 -2.2791 0.9313
-17.2803 -3.5764 -2.2790 0.9313
-17.2565 -3.6829 -2.2788 0.9313
-17.2070 -3.8954 -2.2784 0.9313
-17.1813 -4.0014 -2.2783 0.9313
-17.1550 -4.1074 -2.2781 0.9313
-17.1281 -4.2131 -2.2779 0.9313
-17.0726 -4.4240 -2.2776 0.9313
-16.9843 -4.7391 -2.2772 0.9314
-16.9537 -4.8437 -2.2771 0.9314
-16.9224 -4.9482 -2.2770 0.9314
-16.8906 -5.0525 -2.2768 0.9314
-16.8581 -5.1567 -2.2767 0.9314
-16.7914 -5.3642 -2.2765 0.9314
-16.7572 -5.4677 -2.2764 0.9314
-16.6868 -5.6740 -2.2762 0.9314
-16.5768 -5.9819 -2.2759 0.9314
-16.5004 -6.1861 -2.2758 0.9314
-16.3815 -6.4906 -2.2756 0.9314
-16.3406 -6.5916 -2.2755 0.9314
-16.2992 -6.6924 -2.2755 0.9314
-16.1276 -7.0930 -2.2753 0.9314
-16.0832 -7.1925 -2.2753 0.9314
-15.8999 -7.5879 -2.2752 0.9314
-15.7074 -7.9789 -2.2752 0.9314
-15.6579 -8.0759 -2.2753 0.9314
-15.5571 -8.2691 -2.2753 0.9314
-15.4016 -8.5567 -2.2754 0.9314
-15.2411 -8.8414 -2.2755 0.9314
-15.1865 -8.9357 -2.2756 0.9314
-15.1313 -9.0297 -2.2756 0.9314
-15.0757 -9.1234 -2.2757 0.9314
-15.0194 -9.2167 -2.2758 0.9314
-14.8473 -9.4947 -2.2760 0.9314
-14.7889 -9.5867 -2.2761 0.9314
-14.6103 -9.8606 -2.2764 0.9314
-14.5497 -9.9513 -2.2765 0.9314
-14.4269 -10.1315 -2.2767 0.9314
-14.3647 -10.2210 -2.2768 0.9314
-14.1750 -10.4875 -2.2772 0.9314
-14.1107 -10.5756 -2.2773 0.9313
-14.0459 -10.6633 -2.2775 0.9313
-13.9806 -10.7506 -2.2776 0.9313
-13.8484 -10.9241 -2.2779 0.9313
-13.7141 -11.0962 -2.2782 0.9313
-13.6462 -11.1816 -2.2784 0.9313
-13.0851 -11.8505 -2.2799 0.9313
-13.0128 -11.9323 -2.2801 0.9313
-12.9399 -12.0136 -2.2803 0.9313
-12.7928 -12.1751 -2.2807 0.9312
-12.7185 -12.2552 -2.2810 0.9312
-12.6438 -12.3348 -2.2812 0.9312
-12.5685 -12.4140 -2.2814 0.9312
-12.4166 -12.5712 -2.2819 0.9312
-12.3400 -12.6491 -2.2822 0.9312
-12.1073 -12.8802 -2.2829 0.9312
-11.8704 -13.1071 -2.2837 0.9312
-11.4666 -13.4763 -2.2852 0.9311
-11.1358 -13.7631 -2.2864 0.9311
-11.0519 -13.8336 -2.2867 0.9311
-10.9677 -13.9037 -2.2870 0.9311
-10.7980 -14.0423 -2.2877 0.9310
-10.7125 -14.1108 -2.2880 0.9310
-10.2788 -14.4461 -2.2897 0.9310
-9.8351 -14.7687 -2.2915 0.9309
-9.3817 -15.0784 -2.2935 0.9309
-9.0123 -15.3167 -2.2951 0.9308
-8.8253 -15.4326 -2.2959 0.9308
-8.6370 -15.5463 -2.2968 0.9308
-8.5423 -15.6023 -2.2972 0.9308
-8.2561 -15.7671 -2.2985 0.9307
-8.1599 -15.8209 -2.2990 0.9307
-7.8697 -15.9790 -2.3003 0.9307
-7.6746 -16.0816 -2.3012 0.9307
-7.5765 -16.1320 -2.3017 0.9306
-7.3794 -16.2312 -2.3027 0.9306
-7.2805 -16.2799 -2.3031 0.9306
-7.1812 -16.3281 -2.3036 0.9306
-7.0815 -16.3757 -2.3041 0.9306
-6.9816 -16.4226 -2.3046 0.9306
-6.8814 -16.4690 -2.3051 0.9305
-6.4776 -16.6488 -2.3071 0.9305
-6.3759 -16.6922 -2.3076 0.9305
-6.2740 -16.7351 -2.3081 0.9305
-6.1718 -16.7773 -2.3087 0.9304
-6.0693 -16.8191 -2.3092 0.9304
-5.9665 -16.8601 -2.3097 0.9304
-5.8635 -16.9006 -2.3102 0.9304
-5.7602 -16.9404 -2.3108 0.9304
-5.4488 -17.0564 -2.3124 0.9303
-5.3445 -17.0938 -2.3130 0.9303
-5.2399 -17.1306 -2.3135 0.9303
-5.1351 -17.1668 -2.3141 0.9303
-4.9247 -17.2374 -2.3152 0.9302
-4.7135 -17.3054 -2.3163 0.9302
-4.6075 -17.3386 -2.3169 0.9302
-4.5013 -17.3711 -2.3175 0.9302
-3.9672 -17.5241 -2.3204 0.9301
-3.5362 -17.6351 -2.3228 0.9300
-3.4279 -17.6613 -2.3234 0.9300
-3.2109 -17.7117 -2.3247 0.9300
-3.1021 -17.7360 -2.3253 0.9300
-2.6654 -17.8264 -2.3278 0.9299
-2.5558 -17.8475 -2.3284 0.9299
-2.4461 -17.8678 -2.3291 0.9298
-2.3361 -17.8875 -2.3297 0.9298
-2.2261 -17.9066 -2.3303 0.9298
-2.0056 -17.9427 -2.3316 0.9298
-1.8951 -17.9598 -2.3323 0.9298
-1.5629 -18.0071 -2.3343 0.9297
-1.4519 -18.0215 -2.3349 0.9297
-1.3408 -18.0353 -2.3356 0.9297
-1.2296 -18.0484 -2.3363 0.9296
-0.8953 -18.0838 -2.3383 0.9296
-0.5602 -18.1132 -2.3403 0.9295
-0.4483 -18.1216 -2.3410 0.9295
-0.3363 -18.1294 -2.3417 0.9295
-0.2243 -18.1365 -2.3424 0.9295
0.3371 -18.1619 -2.3459 0.9294
0.5620 -18.1674 -2.3473 0.9293
0.7871 -18.1701 -2.3488 0.9293
1.1251 -18.1691 -2.3509 0.9292
1.2378 -18.1673 -2.3517 0.9292
1.3506 -18.1650 -2.3524 0.9292
1.6889 -18.1537 -2.3546 0.9291
1.8017 -18.1486 -2.3553 0.9291
2.1401 -18.1292 -2.3575 0.9290
2.4784 -18.1036 -2.3598 0.9290
2.5912 -18.0936 -2.3605 0.9289
2.7038 -18.0830 -2.3613 0.9289
3.0418 -18.0471 -2.3636 0.9288
3.2669 -18.0197 -2.3651 0.9288
3.3793 -18.0050 -2.3659 0.9288
3.4917 -17.9896 -2.3666 0.9288
3.7163 -17.9567 -2.3682 0.9287
3.8286 -17.9392 -2.3689 0.9287
4.0528 -17.9021 -2.3705 0.9286
4.5003 -17.8198 -2.3736 0.9286
4.6120 -17.7976 -2.3744 0.9285
4.7235 -17.7746 -2.3752 0.9285
5.1685 -17.6757 -2.3783 0.9284
5.2796 -17.6493 -2.3791 0.9284
5.5011 -17.5944 -2.3807 0.9283
5.7221 -17.5367 -2.3823 0.9283
5.8323 -17.5068 -2.3831 0.9283
6.0525 -17.4451 -2.3847 0.9282
6.2720 -17.3806 -2.3863 0.9282
6.4909 -17.3133 -2.3879 0.9281
6.6001 -17.2787 -2.3887 0.9281
6.8179 -17.2074 -2.3903 0.9281
6.9265 -17.1707 -2.3911 0.9280
7.1432 -17.0953 -2.3927 0.9280
7.2512 -17.0566 -2.3936 0.9280
7.3590 -17.0172 -2.3944 0.9280
7.4667 -16.9771 -2.3952 0.9279
7.5740 -16.9363 -2.3960 0.9279
7.6813 -16.8949 -2.3968 0.9279
7.7883 -16.8528 -2.3976 0.9279
7.8951 -16.8101 -2.3984 0.9278
8.0016 -16.7666 -2.3993 0.9278
8.1078 -16.7225 -2.4001 0.9278
8.2139 -16.6777 -2.4009 0.9278
8.4253 -16.5862 -2.4025 0.9277
8.7405 -16.4438 -2.4050 0.9276
8.9493 -16.3456 -2.4066 0.9276
9.0533 -16.2955 -2.4075 0.9276
9.3637 -16.1413 -2.4099 0.9275
9.4665 -16.0885 -2.4107 0.9275
9.6713 -15.9811 -2.4124 0.9274
10.2786 -15.6433 -2.4173 0.9273
10.3786 -15.5847 -2.4181 0.9273
10.5778 -15.4657 -2.4198 0.9272
10.6769 -15.4052 -2.4206 0.9272
11.1669 -15.0933 -2.4247 0.9271
11.2638 -15.0290 -2.4255 0.9270
11.3604 -14.9642 -2.4264 0.9270
11.5524 -14.8325 -2.4280 0.9270
11.6479 -14.7658 -2.4288 0.9270
11.7429 -14.6984 -2.4296 0.9269
11.9318 -14.5618 -2.4313 0.9269
12.3048 -14.2814 -2.4345 0.9268
12.4888 -14.1375 -2.4362 0.9267
12.6712 -13.9913 -2.4378 0.9267
12.9415 -13.7675 -2.4402 0.9266
13.1194 -13.6154 -2.4418 0.9266
13.2077 -13.5384 -2.4426 0.9266
13.3829 -13.3829 -2.4442 0.9265
13.4698 -13.3042 -2.4450 0.9265
13.6423 -13.1452 -2.4466 0.9264
13.8128 -12.9839 -2.4482 0.9264
14.0650 -12.7378 -2.4506 0.9263
14.1480 -12.6546 -2.4514 0.9263
14.6358 -12.1444 -2.4561 0.9262
14.9506 -11.7936 -2.4592 0.9261
15.1048 -11.6151 -2.4608 0.9260
15.1811 -11.5250 -2.4615 0.9260
15.2568 -11.4345 -2.4623 0.9260
15.4066 -11.2519 -2.4638 0.9259
15.4808 -11.1598 -2.4646 0.9259
15.5542 -11.0673 -2.4653 0.9259
15.6272 -10.9743 -2.4661 0.9259
15.6996 -10.8807 -2.4669 0.9259
15.9132 -10.5973 -2.4691 0.9258
16.0528 -10.4059 -2.4706 0.9257
16.1899 -10.2127 -2.4721 0.9257
16.2576 -10.1154 -2.4728 0.9257
16.3247 -10.0176 -2.4735 0.9257
16.5870 -9.6221 -2.4765 0.9256
16.6510 -9.5221 -2.4772 0.9256
16.7145 -9.4217 -2.4779 0.9255
16.7772 -9.3208 -2.4786 0.9255
16.8394 -9.2196 -2.4793 0.9255
16.9010 -9.1179 -2.4800 0.9255
16.9619 -9.0158 -2.4808 0.9255
17.0818 -8.8103 -2.4822 0.9254
17.1408 -8.7069 -2.4829 0.9254
17.1991 -8.6032 -2.4836 0.9254
17.2568 -8.4991 -2.4843 0.9253
17.3139 -8.3945 -2.4849 0.9253
17.4811 -8.0785 -2.4870 0.9253
17.6423 -7.7592 -2.4890 0.9252
17.6947 -7.6519 -2.4897 0.9252
17.7465 -7.5444 -2.4904 0.9252
17.9466 -7.1107 -2.4930 0.9251
17.9949 -7.0014 -2.4937 0.9251
18.0426 -6.8918 -2.4943 0.9251
18.1357 -6.6715 -2.4956 0.9250
18.1812 -6.5608 -2.4962 0.9250
18.2703 -6.3387 -2.4975 0.9250
18.3137 -6.2272 -2.4981 0.9249
18.3565 -6.1153 -2.4987 0.9249
18.3985 -6.0032 -2.4994 0.9249
18.5203 -5.6650 -2.5012 0.9249
18.5595 -5.5517 -2.5018 0.9248
18.6726 -5.2101 -2.5036 0.9248
18.8467 -4.6357 -2.5065 0.9247
18.9111 -4.4043 -2.5076 0.9247
18.9422 -4.2882 -2.5082 0.9247
18.9726 -4.1719 -2.5087 0.9246
19.0022 -4.0554 -2.5093 0.9246
19.0592 -3.8217 -2.5104 0.9246
19.0866 -3.7046 -2.5109 0.9246
19.1132 -3.5873 -2.5115 0.9246
19.1391 -3.4697 -2.5120 0.9245
19.1886 -3.2341 -2.5131 0.9245
19.2990 -2.6420 -2.5156 0.9244
19.3188 -2.5231 -2.5161 0.9244
19.3379 -2.4040 -2.5166 0.9244
19.3736 -2.1655 -2.5176 0.9244
19.3904 -2.0461 -2.5181 0.9244
19.4857 -1.2066 -2.5213 0.9243
19.5060 -0.9658 -2.5222 0.9243
19.5150 -0.8453 -2.5226 0.9242
19.5231 -0.7247 -2.5230 0.9242
19.5305 -0.6041 -2.5235 0.9242
19.5584 0.1210 -2.5259 0.9241
19.5603 0.2420 -2.5263 0.9241
19.5614 0.3630 -2.5267 0.9241
19.5613 0.6051 -2.5274 0.9241
19.5601 0.7262 -2.5278 0.9241
19.5580 0.8472 -2.5282 0.9241
19.5516 1.0893 -2.5289 0.9241
19.5420 1.3315 -2.5296 0.9240
19.5360 1.4525 -2.5299 0.9240
19.5293 1.5735 -2.5303 0.9240
19.5217 1.6944 -2.5306 0.9240
19.5133 1.8153 -2.5309 0.9240
19.4835 2.1779 -2.5319 0.9240
19.4721 2.2986 -2.5322 0.9240
19.4467 2.5398 -2.5328 0.9239
19.4328 2.6604 -2.5331 0.9239
19.4182 2.7808 -2.5333 0.9239
19.4027 2.9011 -2.5336 0.9239
19.3865 3.0214 -2.5339 0.9239
19.3695 3.1415 -2.5342 0.9239
19.3517 3.2616 -2.5344 0.9239
19.3331 3.3816 -2.5347 0.9239
19.2936 3.6211 -2.5352 0.9239
19.2509 3.8602 -2.5356 0.9239
19.2284 3.9795 -2.5359 0.9239
19.2051 4.0987 -2.5361 0.9239
19.1305 4.4555 -2.5367 0.9238
19.1042 4.5740 -2.5369 0.9238
19.0770 4.6925 -2.5371 0.9238
19.0491 4.8107 -2.5373 0.9238
19.0204 4.9288 -2.5375 0.9238
18.9909 5.0467 -2.5377 0.9238
18.9296 5.2819 -2.5380 0.9238
18.8978 5.3992 -2.5382 0.9238
18.8652 5.5163 -2.5384 0.9238
18.8319 5.6332 -2.5385 0.9238
18.7273 5.9826 -2.5389 0.9238
18.6908 6.0986 -2.5391 0.9238
18.6537 6.2143 -2.5392 0.9238
18.6158 6.3299 -2.5393 0.9238
18.4149 6.9038 -2.5398 0.9237
18.3724 7.0178 -2.5399 0.9237
18.2854 7.2449 -2.5401 0.9237
18.1491 7.5834 -2.5402 0.9237
18.1022 7.6957 -2.5403 0.9237
18.0547 7.8077 -2.5403 0.9237
17.9074 8.1416 -2.5404 0.9237
17.8569 8.2522 -2.5405 0.9237
17.7537 8.4726 -2.5405 0.9237
17.7010 8.5822 -2.5405 0.9237
17.6475 8.6915 -2.5405 0.9237
17.4268 9.1252 -2.5405 0.9237
17.3699 9.2326 -2.5404 0.9237
17.1948 9.5529 -2.5403 0.9237
17.1350 9.6588 -2.5403 0.9237
16.9517 9.9743 -2.5401 0.9237
16.8892 10.0787 -2.5400 0.9237
16.8260 10.1826 -2.5399 0.9237
16.7622 10.2861 -2.5398 0.9237
16.6976 10.3892 -2.5397 0.9237
16.6325 10.4919 -2.5397 0.9237
16.3650 10.8982 -2.5392 0.9238
16.2965 10.9986 -2.5391 0.9238
16.1575 11.1982 -2.5388 0.9238
16.0871 11.2973 -2.5387 0.9238
15.8719 11.5917 -2.5382 0.9238
15.7253 11.7856 -2.5379 0.9238
15.5006 12.0728 -2.5374 0.9238
15.4246 12.1675 -2.5372 0.9238
15.3479 12.2617 -2.5370 0.9238
15.2705 12.3554 -2.5368 0.9238
15.1925 12.4486 -2.5366 0.9238
15.1140 12.5412 -2.5364 0.9238
15.0349 12.6334 -2.5361 0.9239
14.0057 11.9171 -2.3749 0.9285
13.8547 12.0872 -2.3745 0.9285
13.7015 12.2553 -2.3740 0.9285
13.6242 12.3386 -2.3738 0.9285
13.4677 12.5036 -2.3733 0.9286
13.2292 12.7472 -2.3726 0.9286
13.0676 12.9070 -2.3720 0.9286
12.9861 12.9860 -2.3717 0.9286
12.9040 13.0645 -2.3715 0.9286
12.8214 13.1425 -2.3712 0.9286
12.7383 13.2200 -2.3709 0.9286
12.5707 13.3731 -2.3703 0.9286
9.9200 10.6849 -1.8829 0.9429
9.6005 10.4699 -1.8345 0.9443
9.5227 10.5149 -1.8321 0.9444
9.4683 10.5856 -1.8342 0.9443
9.4138 10.6566 -1.8363 0.9443
9.3591 10.7277 -1.8386 0.9442
11.6149 14.1751 -2.3667 0.9288
11.5253 14.2445 -2.3663 0.9288
11.4353 14.3134 -2.3660 0.9288
9.9123 12.5657 -2.0669 0.9375
9.6702 12.5756 -2.0487 0.9380
9.2797 12.2235 -1.9820 0.9400
9.0512 12.2337 -1.9653 0.9405
8.9326 12.2310 -1.9560 0.9407
8.4916 12.2523 -1.9252 0.9416
8.0862 12.3067 -1.9017 0.9423
7.9863 12.3201 -1.8961 0.9425
7.8871 12.3334 -1.8906 0.9427
7.6603 12.3116 -1.8726 0.9432
7.5251 12.4346 -1.8770 0.9431
7.2439 12.4873 -1.8644 0.9434
7.1447 12.4938 -1.8587 0.9436
6.7904 12.5866 -1.8470 0.9440
6.6969 12.5991 -1.8427 0.9441
6.6038 12.6116 -1.8385 0.9442
6.5112 12.6240 -1.8344 0.9443
6.4189 12.6364 -1.8304 0.9444
6.2356 12.6610 -1.8227 0.9447
6.1445 12.6732 -1.8189 0.9448
5.9829 12.5366 -1.7940 0.9455
5.6498 12.6335 -1.7873 0.9457
5.4736 12.6572 -1.7809 0.9459
5.3859 12.6689 -1.7778 0.9460
5.1246 12.7040 -1.7691 0.9462
4.9519 12.7271 -1.7637 0.9464
4.8658 12.7387 -1.7611 0.9465
4.7801 12.7502 -1.7585 0.9466
4.6093 12.7731 -1.7537 0.9467
4.1862 12.8298 -1.7429 0.9470
3.9194 12.8133 -1.7305 0.9474
3.8817 12.9766 -1.7492 0.9468
3.7977 12.9879 -1.7476 0.9469
3.6303 13.0104 -1.7444 0.9470
3.2969 13.0550 -1.7389 0.9471
3.1310 13.0772 -1.7366 0.9472
2.9655 13.0994 -1.7345 0.9473
2.8829 13.1105 -1.7336 0.9473
1.9118 8.9581 -1.1829 0.9637
2.6356 13.1436 -1.7312 0.9474
2.5533 13.1547 -1.7306 0.9474
2.4710 13.1657 -1.7300 0.9474
2.3888 13.1767 -1.7294 0.9474
2.2071 13.0950 -1.7150 0.9478
2.1257 13.1059 -1.7147 0.9479
1.9629 13.1277 -1.7142 0.9479
1.8182 12.6963 -1.6564 0.9496
1.7396 12.7069 -1.6563 0.9496
1.5823 12.7279 -1.6564 0.9496
1.5037 12.7384 -1.6565 0.9496
1.4251 12.7490 -1.6567 0.9496
1.1890 12.7806 -1.6577 0.9495
1.1103 12.7912 -1.6581 0.9495
0.8737 12.8229 -1.6598 0.9495
0.5863 13.5353 -1.7496 0.9468
0.4194 13.5576 -1.7517 0.9468
0.2520 13.5800 -1.7541 0.9467
0.0748 12.0914 -1.5616 0.9524
0.0000 10.3747 -1.3398 0.9590
-0.1272 10.2808 -1.3278 0.9594
-0.1903 10.2563 -1.3248 0.9595
-0.2531 10.2308 -1.3217 0.9596
-0.3776 10.1724 -1.3146 0.9598
-0.4396 10.1488 -1.3119 0.9599
-0.5013 10.1244 -1.3091 0.9599
-0.5804 10.4179 -1.3475 0.9588
-0.6438 10.3978 -1.3454 0.9589
-0.7079 10.3902 -1.3450 0.9589
-0.7720 10.3837 -1.3447 0.9589
-0.9006 10.3756 -1.3450 0.9589
-1.1667 10.4375 -1.3563 0.9585
-1.2348 10.4608 -1.3603 0.9584
-1.3040 10.4893 -1.3651 0.9583
-1.3785 10.5548 -1.3747 0.9580
-1.4540 10.6213 -1.3845 0.9577
-1.7810 11.9113 -1.5554 0.9526
-1.6759 10.3326 -1.3518 0.9587
-1.7552 10.4137 -1.3638 0.9583
-1.8308 10.4670 -1.3723 0.9580
-1.9072 10.5205 -1.3808 0.9578
-2.7128 13.9769 -1.8387 0.9442
-3.0844 14.0266 -1.8547 0.9437
-3.1782 14.0392 -1.8590 0.9436
-3.2726 14.0517 -1.8633 0.9435
-3.5583 14.0900 -1.8768 0.9431
-3.6545 14.1029 -1.8815 0.9429
-3.7511 14.1158 -1.8863 0.9428
-3.8483 14.1288 -1.8911 0.9426
-4.0441 14.1550 -1.9012 0.9424
-4.1428 14.1682 -1.9064 0.9422
-4.3419 14.1948 -1.9170 0.9419
-4.4423 14.2082 -1.9225 0.9417
-4.5432 14.2217 -1.9281 0.9416
-4.6448 14.2353 -1.9338 0.9414
-5.0572 14.2905 -1.9577 0.9407
-5.2673 14.3186 -1.9703 0.9403
-5.4801 14.3470 -1.9834 0.9399
-5.6959 14.3759 -1.9970 0.9395
-5.2142 12.4790 -1.7466 0.9469
-5.2800 12.2098 -1.7180 0.9478
-5.3755 12.2225 -1.7244 0.9476
-5.4717 12.2354 -1.7309 0.9474
-5.5687 12.2484 -1.7376 0.9472
-5.6664 12.2614 -1.7444 0.9470
-5.3265 11.1614 -1.5972 0.9513
-6.0932 12.5673 -1.8037 0.9452
-5.5188 11.0330 -1.5932 0.9515
-5.6609 10.9756 -1.5949 0.9514
-5.8047 10.9206 -1.5972 0.9513
-7.1095 12.9854 -1.9119 0.9420
-6.2753 11.2953 -1.6687 0.9492
-8.2997 14.7239 -2.1828 0.9341
-6.6044 11.3850 -1.6998 0.9483
-6.6706 11.3370 -1.6988 0.9483
-6.9596 11.0328 -1.6846 0.9487
-9.5033 14.4635 -2.2350 0.9326
-9.5894 14.3997 -2.2343 0.9326
-9.6751 14.3354 -2.2335 0.9326
-10.0970 14.0065 -2.2299 0.9327
-8.9307 12.0709 -1.9392 0.9412
-10.3451 13.8032 -2.2277 0.9328
-10.4268 13.7346 -2.2270 0.9328
-10.5124 13.4973 -2.2094 0.9333
-10.6695 13.5256 -2.2248 0.9329
-6.1051 7.6417 -1.2632 0.9613
-6.1612 7.6149 -1.2650 0.9613
-6.0946 7.4379 -1.2419 0.9620
-6.0342 7.2721 -1.2204 0.9626
-6.2226 7.4055 -1.2492 0.9617
-6.2539 7.3500 -1.2463 0.9618
-6.3051 7.3180 -1.2475 0.9618
-6.3927 7.3275 -1.2558 0.9615
-11.3724 12.8739 -2.2184 0.9331
-6.6892 7.3861 -1.2869 0.9606
-6.8439 7.1027 -1.2738 0.9610
-6.7269 6.8953 -1.2441 0.9619
-6.8019 6.8865 -1.2500 0.9617
-7.0598 7.0599 -1.2894 0.9605
-7.5856 7.0426 -1.3368 0.9591
-7.8242 6.9984 -1.3557 0.9585
-8.3131 6.9853 -1.4023 0.9572
-8.4407 7.0039 -1.4165 0.9567
-8.4172 6.8970 -1.4054 0.9571
-9.0087 6.9274 -1.4676 0.9552
-9.1268 6.9288 -1.4799 0.9548
-9.2109 6.9033 -1.4865 0.9546
-9.6186 7.0248 -1.5382 0.9531
-9.5602 6.8024 -1.5153 0.9538
-10.0376 7.0490 -1.5840 0.9517
-10.4512 7.0536 -1.6284 0.9504
-10.6796 7.1120 -1.6571 0.9496
-10.7892 7.0891 -1.6672 0.9493
-10.7983 6.9054 -1.6553 0.9496
-11.2487 7.0958 -1.7176 0.9478
-11.7973 7.2394 -1.7875 0.9457
-12.1818 7.1677 -1.8253 0.9446
-12.3543 7.1668 -1.8445 0.9440
-12.2739 7.0191 -1.8260 0.9446
-12.9116 7.2781 -1.9141 0.9420
-13.1759 7.3201 -1.9466 0.9410
-13.3478 7.3080 -1.9653 0.9405
-13.6437 7.3607 -2.0021 0.9394
-13.6857 7.2744 -2.0016 0.9394
-13.6402 7.1424 -1.9884 0.9398
-14.1047 7.1647 -2.0431 0.9382
-14.8368 7.4216 -2.1424 0.9353
-15.1496 7.3452 -2.1743 0.9343
-15.2714 7.0574 -2.1726 0.9344
-15.3109 6.9611 -2.1721 0.9344
-15.3497 6.8645 -2.1715 0.9344
-15.3880 6.7678 -2.1710 0.9344
-15.4993 6.4763 -2.1694 0.9345
-15.5353 6.3787 -2.1688 0.9345
-15.5706 6.2810 -2.1683 0.9345
-15.6053 6.1831 -2.1678 0.9345
-15.6395 6.0850 -2.1673 0.9346
-15.6730 5.9867 -2.1667 0.9346
-15.7060 5.8883 -2.1662 0.9346
-15.7384 5.7896 -2.1657 0.9346
-15.7702 5.6909 -2.1652 0.9346
-16.0007 5.6625 -2.1920 0.9338
-16.7952 5.7109 -2.2910 0.9310
-16.9993 5.5467 -2.3093 0.9304
-17.0294 5.4402 -2.3088 0.9304
-17.1434 5.0129 -2.3067 0.9305
-17.1703 4.9057 -2.3062 0.9305
-17.1966 4.7983 -2.3057 0.9305
-17.2222 4.6909 -2.3052 0.9305
-17.2472 4.5833 -2.3047 0.9306
-17.2715 4.4756 -2.3042 0.9306
-17.2952 4.3678 -2.3037 0.9306
-17.3406 4.1518 -2.3027 0.9306
-17.3623 4.0436 -2.3023 0.9306
-17.4039 3.8270 -2.3013 0.9307
-17.4965 3.2838 -2.2990 0.9307
-17.5130 3.1750 -2.2986 0.9307
-17.5442 2.9570 -2.2977 0.9308
-17.5728 2.7387 -2.2968 0.9308
-17.5862 2.6295 -2.2964 0.9308
-17.6109 2.4109 -2.2956 0.9308
-17.6223 2.3015 -2.2952 0.9308
-17.6330 2.1921 -2.2947 0.9308
-17.6695 1.7541 -2.2931 0.9309
-17.6956 1.3156 -2.2916 0.9309
-17.7048 1.0963 -2.2909 0.9310
-17.7113 0.8770 -2.2901 0.9310
-17.7154 0.6576 -2.2894 0.9310
-17.7163 0.5480 -2.2891 0.9310
-17.7156 0.2191 -2.2881 0.9310
-16.7765 0.0000 -2.2934 0.9345
-16.7739 -0.1037 -2.2931 0.9345
-16.7708 -0.2074 -2.2928 0.9345
-16.7670 -0.3111 -2.2925 0.9345
-16.7626 -0.4147 -2.2922 0.9345
-16.7575 -0.5183 -2.2919 0.9346
-16.7457 -0.7254 -2.2913 0.9346
-16.6954 -1.3451 -2.2897 0.9346
-16.6738 -1.5512 -2.2892 0.9346
-16.6498 -1.7569 -2.2887 0.9346
-16.5945 -2.1673 -2.2878 0.9347
-16.5633 -2.3719 -2.2873 0.9347
-16.5296 -2.5761 -2.2869 0.9347
-16.4936 -2.7799 -2.2865 0.9347
-16.4746 -2.8816 -2.2863 0.9347
-16.4551 -2.9832 -2.2861 0.9347
-16.4350 -3.0846 -2.2859 0.9347
-16.4142 -3.1859 -2.2857 0.9347
-16.3929 -3.2871 -2.2855 0.9347
-16.3710 -3.3882 -2.2854 0.9347
-16.3255 -3.5899 -2.2850 0.9347
-16.3018 -3.6905 -2.2849 0.9347
-16.2272 -3.9914 -2.2844 0.9348
-16.2012 -4.0915 -2.2842 0.9348
-16.1474 -4.2910 -2.2840 0.9348
-16.0623 -4.5891 -2.2836 0.9348
-16.0327 -4.6881 -2.2835 0.9348
-15.8763 -5.1803 -2.2829 0.9348
-15.7756 -5.4733 -2.2826 0.9348
-15.7409 -5.5705 -2.2826 0.9348
-15.7056 -5.6676 -2.2825 0.9348
-15.6698 -5.7644 -2.2824 0.9348
-15.6333 -5.8610 -2.2823 0.9348
-15.5964 -5.9574 -2.2823 0.9348
-15.5588 -6.0536 -2.2822 0.9348
-15.4820 -6.2452 -2.2821 0.9348
-15.3626 -6.5310 -2.2820 0.9348
-15.3217 -6.6258 -2.2819 0.9348
-15.2802 -6.7203 -2.2819 0.9348
-15.2382 -6.8146 -2.2819 0.9348
-15.1088 -7.0960 -2.2818 0.9348
-15.0198 -7.2823 -2.2818 0.9348
-14.9745 -7.3750 -2.2818 0.9348
-14.7397 -7.8347 -2.2819 0.9348
-14.6911 -7.9257 -2.2819 0.9348
-14.6420 -8.0165 -2.2819 0.9348
-14.5422 -8.1973 -2.2820 0.9348
-14.2301 -8.7324 -2.2823 0.9348
-14.0116 -9.0829 -2.2826 0.9348
-13.7269 -9.5137 -2.2831 0.9348
-13.4297 -9.9360 -2.2837 0.9348
-13.3687 -10.0194 -2.2838 0.9348
-13.1200 -10.3496 -2.2844 0.9348
-13.0566 -10.4312 -2.2845 0.9348
-12.9927 -10.5125 -2.2847 0.9348
-12.9283 -10.5933 -2.2848 0.9347
-12.6661 -10.9131 -2.2855 0.9347
-12.5994 -10.9921 -2.2857 0.9347
-12.5321 -11.0707 -2.2859 0.9347
-12.3963 -11.2267 -2.2862 0.9347
-12.3277 -11.3041 -2.2864 0.9347
-12.2587 -11.3811 -2.2866 0.9347
-12.1891 -11.4577 -2.2868 0.9347
-12.1191 -11.5340 -2.2871 0.9347
-11.9778 -11.6852 -2.2875 0.9347
-11.8347 -11.8347 -2.2879 0.9347
-11.7625 -11.9089 -2.2882 0.9347
-11.6166 -12.0560 -2.2886 0.9346
-11.5431 -12.1288 -2.2889 0.9346
-11.4691 -12.2013 -2.2891 0.9346
-11.3947 -12.2733 -2.2894 0.9346
-11.3198 -12.3449 -2.2896 0.9346
-11.1688 -12.4868 -2.2902 0.9346
-10.9391 -12.6964 -2.2910 0.9346
-10.3886 -13.1696 -2.2930 0.9345
-10.2277 -13.3007 -2.2936 0.9345
-10.1467 -13.3655 -2.2939 0.9345
-9.9834 -13.4937 -2.2946 0.9345
-9.9012 -13.5572 -2.2949 0.9345
-9.7355 -13.6826 -2.2956 0.9345
-9.6522 -13.7445 -2.2959 0.9344
-9.5684 -13.8060 -2.2963 0.9344
-9.4843 -13.8671 -2.2966 0.9344
-9.3998 -13.9276 -2.2969 0.9344
-9.2296 -14.0471 -2.2977 0.9344
-9.1441 -14.1062 -2.2980 0.9344
-9.0581 -14.1647 -2.2984 0.9344
-8.9718 -14.2227 -2.2988 0.9344
-8.8851 -14.2802 -2.2991 0.9344
-8.6229 -14.4498 -2.3003 0.9343
-8.4464 -14.5603 -2.3011 0.9343
-8.0893 -14.7751 -2.3027 0.9343
-7.9088 -14.8794 -2.3035 0.9342
-7.7270 -14.9815 -2.3043 0.9342
-7.6356 -15.0318 -2.3048 0.9342
-7.0808 -15.3222 -2.3074 0.9341
-6.8935 -15.4147 -2.3083 0.9341
-6.7994 -15.4601 -2.3088 0.9341
-6.6104 -15.5493 -2.3097 0.9341
-6.5154 -15.5930 -2.3102 0.9340
-6.3246 -15.6789 -2.3111 0.9340
-6.2288 -15.7210 -2.3116 0.9340
-5.9398 -15.8438 -2.3131 0.9340
-5.8430 -15.8836 -2.3136 0.9340
-5.7459 -15.9229 -2.3141 0.9339
-5.6485 -15.9616 -2.3146 0.9339
-5.4531 -16.0372 -2.3156 0.9339
-5.1581 -16.1464 -2.3171 0.9339
-5.0593 -16.1816 -2.3176 0.9338
-4.9602 -16.2162 -2.3182 0.9338
-4.7614 -16.2838 -2.3192 0.9338
-4.2607 -16.4424 -2.3219 0.9337
-3.8564 -16.5586 -2.3241 0.9337
-3.0388 -16.7620 -2.3287 0.9335
-2.9358 -16.7847 -2.3293 0.9335
-2.7293 -16.8283 -2.3305 0.9335
-2.6259 -16.8492 -2.3311 0.9335
-2.5223 -16.8694 -2.3317 0.9335
-2.4185 -16.8891 -2.3323 0.9334
-2.1064 -16.9442 -2.3341 0.9334
-1.8977 -16.9779 -2.3353 0.9334
-1.7931 -16.9938 -2.3360 0.9333
-1.6885 -17.0091 -2.3366 0.9333
-1.5837 -17.0238 -2.3372 0.9333
-1.4788 -17.0378 -2.3378 0.9333
-0.7415 -17.1184 -2.3423 0.9332
-0.5300 -17.1358 -2.3436 0.9331
-0.4241 -17.1435 -2.3442 0.9331
-0.3182 -17.1506 -2.3449 0.9331
-0.2122 -17.1570 -2.3456 0.9331
-0.1061 -17.1628 -2.3462 0.9331
0.1062 -17.1725 -2.3475 0.9330
0.3188 -17.1797 -2.3489 0.9330
0.5316 -17.1843 -2.3502 0.9329
0.7446 -17.1863 -2.3516 0.9329
0.8510 -17.1863 -2.3523 0.9329
0.9576 -17.1857 -2.3529 0.9329
1.0641 -17.1844 -2.3536 0.9329
1.2773 -17.1800 -2.3550 0.9328
2.0238 -17.1441 -2.3599 0.9327
2.1304 -17.1364 -2.3606 0.9327
2.2371 -17.1280 -2.3613 0.9326
2.6632 -17.0880 -2.3641 0.9326
2.7697 -17.0764 -2.3649 0.9325
3.0888 -17.0376 -2.3670 0.9325
3.1951 -17.0234 -2.3677 0.9325
3.3013 -17.0085 -2.3685 0.9324
3.6196 -16.9600 -2.3707 0.9324
3.9373 -16.9056 -2.3729 0.9323
4.0430 -16.8862 -2.3736 0.9323
4.1487 -16.8661 -2.3743 0.9323
4.3596 -16.8240 -2.3758 0.9322
4.4650 -16.8019 -2.3766 0.9322
4.5703 -16.7793 -2.3773 0.9322
4.8853 -16.7073 -2.3795 0.9321
4.9901 -16.6820 -2.3803 0.9321
5.0948 -16.6561 -2.3810 0.9321
5.1994 -16.6295 -2.3818 0.9321
5.3038 -16.6023 -2.3825 0.9321
5.4081 -16.5744 -2.3833 0.9320
5.8238 -16.4564 -2.3863 0.9320
5.9273 -16.4253 -2.3871 0.9319
6.0307 -16.3936 -2.3878 0.9319
6.1339 -16.3611 -2.3886 0.9319
6.2370 -16.3281 -2.3894 0.9319
6.3398 -16.2944 -2.3901 0.9318
6.4425 -16.2601 -2.3909 0.9318
6.5451 -16.2251 -2.3916 0.9318
6.6474 -16.1895 -2.3924 0.9318
6.9533 -16.0789 -2.3947 0.9317
7.0549 -16.0407 -2.3955 0.9317
7.1562 -16.0019 -2.3963 0.9317
7.2574 -15.9625 -2.3970 0.9317
7.3583 -15.9224 -2.3978 0.9316
7.4590 -15.8817 -2.3986 0.9316
7.6598 -15.7984 -2.4001 0.9316
7.7599 -15.7558 -2.4009 0.9315
7.8597 -15.7125 -2.4017 0.9315
7.9592 -15.6687 -2.4024 0.9315
8.1577 -15.5791 -2.4040 0.9315
8.2565 -15.5334 -2.4047 0.9314
8.5515 -15.3924 -2.4071 0.9314
8.9412 -15.1957 -2.4102 0.9313
9.0379 -15.1450 -2.4110 0.9313
9.1343 -15.0937 -2.4117 0.9313
9.3263 -14.9892 -2.4133 0.9312
9.7067 -14.7729 -2.4164 0.9311
9.8010 -14.7173 -2.4172 0.9311
9.8950 -14.6612 -2.4179 0.9311
10.0821 -14.5470 -2.4195 0.9310
10.1751 -14.4890 -2.4203 0.9310
10.2678 -14.4304 -2.4210 0.9310
10.4522 -14.3115 -2.4226 0.9310
10.6352 -14.1902 -2.4241 0.9309
10.8168 -14.0666 -2.4257 0.9309
10.9070 -14.0038 -2.4265 0.9308
11.0864 -13.8767 -2.4280 0.9308
11.2644 -13.7472 -2.4296 0.9308
11.4408 -13.6155 -2.4311 0.9307
11.5284 -13.5488 -2.4319 0.9307
11.8749 -13.2762 -2.4349 0.9306
11.9606 -13.2067 -2.4357 0.9306
12.1306 -13.0659 -2.4372 0.9306
12.2150 -12.9947 -2.4380 0.9305
12.4656 -12.7778 -2.4403 0.9305
12.6305 -12.6304 -2.4418 0.9304
12.7123 -12.5560 -2.4425 0.9304
12.8746 -12.4054 -2.4440 0.9304
12.9551 -12.3294 -2.4448 0.9303
13.0350 -12.2528 -2.4455 0.9303
13.2722 -12.0199 -2.4478 0.9303
13.4281 -11.8620 -2.4493 0.9302
13.5053 -11.7823 -2.4500 0.9302
13.6582 -11.6214 -2.4515 0.9302
13.7340 -11.5402 -2.4522 0.9301
13.8092 -11.4585 -2.4530 0.9301
13.8840 -11.3763 -2.4537 0.9301
14.2503 -10.9579 -2.4574 0.9300
14.3219 -10.8728 -2.4581 0.9300
14.3931 -10.7871 -2.4588 0.9300
14.4638 -10.7011 -2.4595 0.9299
14.7412 -10.3521 -2.4624 0.9299
14.8767 -10.1748 -2.4638 0.9298
14.9436 -10.0855 -2.4645 0.9298
15.0758 -9.9056 -2.4659 0.9298
15.3335 -9.5404 -2.4687 0.9297
15.3966 -9.4480 -2.4694 0.9297
15.4590 -9.3553 -2.4701 0.9296
15.5208 -9.2621 -2.4708 0.9296
15.5821 -9.1684 -2.4715 0.9296
15.7030 -8.9800 -2.4728 0.9296
15.8215 -8.7899 -2.4742 0.9295
15.9948 -8.5018 -2.4762 0.9295
16.1627 -8.2101 -2.4782 0.9294
16.2175 -8.1121 -2.4788 0.9294
16.3251 -7.9151 -2.4801 0.9294
16.3780 -7.8161 -2.4808 0.9294
16.4304 -7.7166 -2.4814 0.9293
16.4820 -7.6168 -2.4821 0.9293
16.5331 -7.5167 -2.4827 0.9293
16.5835 -7.4162 -2.4833 0.9293
16.6333 -7.3154 -2.4840 0.9293
16.7310 -7.1127 -2.4852 0.9292
16.9186 -6.7034 -2.4877 0.9292
17.0959 -6.2889 -2.4901 0.9291
17.1386 -6.1846 -2.4907 0.9291
17.1806 -6.0800 -2.4913 0.9291
17.2627 -5.8698 -2.4925 0.9290
17.3028 -5.7643 -2.4931 0.9290
17.3421 -5.6585 -2.4937 0.9290
17.3808 -5.5524 -2.4943 0.9290
17.4188 -5.4461 -2.4948 0.9290
17.4562 -5.3395 -2.4954 0.9290
17.4929 -5.2326 -2.4960 0.9289
17.5288 -5.1255 -2.4965 0.9289
17.5642 -5.0182 -2.4971 0.9289
17.5988 -4.9105 -2.4977 0.9289
17.6986 -4.5862 -2.4993 0.9288
17.7616 -4.3688 -2.5004 0.9288
17.8219 -4.1506 -2.5015 0.9288
17.8510 -4.0412 -2.5020 0.9288
17.8794 -3.9315 -2.5025 0.9288
17.9341 -3.7116 -2.5036 0.9287
17.9604 -3.6014 -2.5041 0.9287
18.0350 -3.2696 -2.5056 0.9287
18.0585 -3.1586 -2.5061 0.9287
18.1650 -2.6013 -2.5085 0.9286
18.2373 -2.1528 -2.5104 0.9285
18.2536 -2.0403 -2.5108 0.9285
18.2981 -1.7023 -2.5122 0.9285
18.3115 -1.5894 -2.5126 0.9285
18.3360 -1.3632 -2.5135 0.9285
18.3472 -1.2500 -2.5139 0.9284
18.3577 -1.1367 -2.5143 0.9284
18.3847 -0.7963 -2.5155 0.9284
18.3922 -0.6828 -2.5160 0.9284
18.3990 -0.5691 -2.5163 0.9284
18.4219 0.0000 -2.5183 0.9283
18.4242 0.1140 -2.5186 0.9283
18.4258 0.2279 -2.5190 0.9283
18.4268 0.4559 -2.5197 0.9283
18.4263 0.5699 -2.5201 0.9283
18.4249 0.6840 -2.5204 0.9283
18.4229 0.7980 -2.5208 0.9283
18.4201 0.9121 -2.5211 0.9282
18.4122 1.1401 -2.5218 0.9282
18.4072 1.2541 -2.5221 0.9282
18.3949 1.4821 -2.5227 0.9282
18.3796 1.7099 -2.5234 0.9282
18.3614 1.9375 -2.5239 0.9282
18.3402 2.1650 -2.5245 0.9282
18.3285 2.2786 -2.5248 0.9281
18.3161 2.3922 -2.5251 0.9281
18.3029 2.5057 -2.5254 0.9281
18.2890 2.6191 -2.5256 0.9281
18.2743 2.7324 -2.5259 0.9281
18.2427 2.9588 -2.5264 0.9281
18.2083 3.1848 -2.5269 0.9281
18.1709 3.4104 -2.5273 0.9281
18.1510 3.5230 -2.5276 0.9281
18.1304 3.6355 -2.5278 0.9281
18.0872 3.8601 -2.5282 0.9281
18.0644 3.9722 -2.5284 0.9280
18.0410 4.0842 -2.5286 0.9280
18.0167 4.1960 -2.5288 0.9280
17.9918 4.3077 -2.5290 0.9280
17.9126 4.6417 -2.5295 0.9280
17.8847 4.7527 -2.5297 0.9280
17.8269 4.9742 -2.5300 0.9280
17.7661 5.1949 -2.5303 0.9280
17.6696 5.5245 -2.5307 0.9280
17.6016 5.7432 -2.5310 0.9280
17.5308 5.9610 -2.5312 0.9280
17.4943 6.0696 -2.5313 0.9280
17.4572 6.1779 -2.5314 0.9280
17.3807 6.3938 -2.5316 0.9280
17.3414 6.5013 -2.5317 0.9280
17.3014 6.6087 -2.5318 0.9280
17.2607 6.7157 -2.5319 0.9280
17.2194 6.8225 -2.5319 0.9280
17.1345 7.0353 -2.5320 0.9279
17.0910 7.1413 -2.5321 0.9279
17.0468 7.2470 -2.5322 0.9279
17.0020 7.3524 -2.5322 0.9279
16.9565 7.4575 -2.5322 0.9279
16.9103 7.5624 -2.5323 0.9279
16.8634 7.6669 -2.5323 0.9279
16.8157 7.7711 -2.5323 0.9279
16.7674 7.8750 -2.5323 0.9279
16.7185 7.9786 -2.5323 0.9279
16.6689 8.0818 -2.5323 0.9279
16.6186 8.1847 -2.5323 0.9279
16.5677 8.2873 -2.5323 0.9279
16.4637 8.4916 -2.5323 0.9279
16.1923 8.9959 -2.5322 0.9279
16.0216 9.2941 -2.5320 0.9279
15.9635 9.3928 -2.5319 0.9280
15.5384 10.0725 -2.5313 0.9280
15.4751 10.1680 -2.5312 0.9280
15.4113 10.2630 -2.5311 0.9280
15.3468 10.3577 -2.5310 0.9280
15.2817 10.4519 -2.5309 0.9280
15.2160 10.5457 -2.5308 0.9280
15.1497 10.6390 -2.5306 0.9280
14.9472 10.9164 -2.5302 0.9280
14.8786 11.0079 -2.5301 0.9280
14.8093 11.0991 -2.5299 0.9280
14.5263 11.4589 -2.5292 0.9280
14.4541 11.5477 -2.5290 0.9280
13.3304 11.0612 -2.3679 0.9325
13.2607 11.1426 -2.3677 0.9325
13.1905 11.2234 -2.3675 0.9325
13.1197 11.3039 -2.3673 0.9325
12.9043 11.5422 -2.3667 0.9325
12.7581 11.6987 -2.3663 0.9325
12.6843 11.7763 -2.3660 0.9325
12.5352 11.9299 -2.3656 0.9325
12.3841 12.0815 -2.3651 0.9325
12.1539 12.3051 -2.3643 0.9326
12.0762 12.3787 -2.3640 0.9326
11.9980 12.4517 -2.3638 0.9326
11.9194 12.5242 -2.3635 0.9326
11.8403 12.5961 -2.3632 0.9326
9.8679 10.6288 -1.9826 0.9431
9.6107 10.4810 -1.9439 0.9442
9.5132 10.5043 -1.9373 0.9444
9.4588 10.5750 -1.9395 0.9443
9.4043 10.6458 -1.9418 0.9443
9.3496 10.7168 -1.9442 0.9442
9.2949 10.7880 -1.9466 0.9441
11.1915 13.1529 -2.3608 0.9327
11.1085 13.2200 -2.3605 0.9327
11.0250 13.2867 -2.3602 0.9327
10.9411 13.3527 -2.3598 0.9327
9.6912 12.4429 -2.1560 0.9383
9.1628 12.2258 -2.0886 0.9402
8.9324 12.2306 -2.0704 0.9407
8.5943 12.2380 -2.0443 0.9414
8.1863 12.2928 -2.0190 0.9421
8.0859 12.3063 -2.0129 0.9423
7.6600 12.3112 -1.9821 0.9431
7.4574 12.4967 -1.9894 0.9429
7.3606 12.5097 -1.9841 0.9431
7.0733 12.5482 -1.9691 0.9435
6.8840 12.5736 -1.9596 0.9438
6.6036 12.6112 -1.9460 0.9441
6.3269 12.6483 -1.9333 0.9445
6.1443 12.6728 -1.9253 0.9447
5.9827 12.5363 -1.8989 0.9455
5.8272 12.6093 -1.8989 0.9455
5.7382 12.6213 -1.8953 0.9456
5.5613 12.6450 -1.8884 0.9458
5.4734 12.6568 -1.8850 0.9459
5.3857 12.6685 -1.8818 0.9459
5.2113 12.6919 -1.8756 0.9461
5.0379 12.7152 -1.8696 0.9463
4.9517 12.7267 -1.8668 0.9464
4.8657 12.7383 -1.8640 0.9464
4.7799 12.7498 -1.8614 0.9465
4.6092 12.7727 -1.8562 0.9467
4.1861 12.8294 -1.8448 0.9470
4.0183 12.8519 -1.8407 0.9471
3.9192 12.8129 -1.8316 0.9473
3.7853 12.9451 -1.8437 0.9470
3.7042 12.9651 -1.8432 0.9470
3.6230 12.9845 -1.8428 0.9470
3.5418 13.0034 -1.8423 0.9470
3.4477 12.9738 -1.8351 0.9472
3.2138 13.0658 -1.8393 0.9471
3.1310 13.0768 -1.8381 0.9472
1.9119 8.9582 -1.2522 0.9637
1.8536 8.9563 -1.2503 0.9637
2.6355 13.1432 -1.8325 0.9473
2.4709 13.1653 -1.8311 0.9474
2.3888 13.1763 -1.8306 0.9474
2.2796 13.0327 -1.8086 0.9480
2.2070 13.0946 -1.8153 0.9478
2.1256 13.1055 -1.8149 0.9478
2.0442 13.1164 -1.8147 0.9478
1.9628 13.1273 -1.8145 0.9478
1.7395 12.7065 -1.7532 0.9495
1.5037 12.7381 -1.7534 0.9495
1.3463 12.7591 -1.7539 0.9495
1.0314 12.8013 -1.7556 0.9495
0.9525 12.8119 -1.7562 0.9495
0.8736 12.8225 -1.7569 0.9494
0.7947 12.8330 -1.7576 0.9494
0.7156 12.8436 -1.7585 0.9494
0.6696 13.5237 -1.8510 0.9468
0.5029 13.5460 -1.8530 0.9467
0.4193 13.5572 -1.8542 0.9467
0.1431 11.5675 -1.5814 0.9544
0.0000 12.0915 -1.6529 0.9524
-0.1273 10.2920 -1.4070 0.9593
-0.1905 10.2678 -1.4039 0.9594
-0.2534 10.2424 -1.4006 0.9595
-0.3160 10.2153 -1.3971 0.9596
-0.3781 10.1850 -1.3933 0.9597
-0.7333 11.8422 -1.6219 0.9532
-0.8057 11.8256 -1.6203 0.9533
-0.9179 10.5748 -1.4510 0.9581
-1.1648 11.7336 -1.6119 0.9535
-1.2937 12.2607 -1.6854 0.9514
-1.3717 12.2713 -1.6879 0.9514
-1.4498 12.2815 -1.6905 0.9513
-1.4727 11.2761 -1.5545 0.9551
-1.7512 12.2287 -1.6887 0.9513
-1.7565 10.4219 -1.4448 0.9582
-1.9098 10.5346 -1.4636 0.9577
-1.9897 10.6017 -1.4746 0.9574
-2.8977 14.0012 -1.9545 0.9439
-2.9907 14.0136 -1.9588 0.9438
-3.0843 14.0261 -1.9632 0.9437
-3.1781 14.0387 -1.9677 0.9435
-3.3672 14.0640 -1.9769 0.9433
-3.4625 14.0767 -1.9817 0.9432
-3.7510 14.1153 -1.9965 0.9427
-3.8481 14.1283 -2.0017 0.9426
-4.2419 14.1810 -2.0234 0.9420
-4.3418 14.1943 -2.0291 0.9418
-4.5431 14.2213 -2.0408 0.9415
-4.8496 14.2622 -2.0593 0.9410
-4.9530 14.2761 -2.0657 0.9408
-5.0570 14.2900 -2.0722 0.9406
-5.1617 14.3040 -2.0788 0.9405
-5.2671 14.3181 -2.0855 0.9403
-5.3732 14.3323 -2.0924 0.9401
-5.5875 14.3609 -2.1065 0.9397
-5.6957 14.3754 -2.1138 0.9395
-5.9145 14.4046 -2.1286 0.9391
-6.0250 14.4194 -2.1363 0.9389
-6.7057 14.5104 -2.1852 0.9375
-5.5634 11.8457 -1.7890 0.9485
-5.4554 11.0768 -1.6879 0.9514
-5.7381 10.9585 -1.6910 0.9513
-5.8061 10.9233 -1.6911 0.9513
-7.1198 13.0042 -2.0267 0.9419
-6.5418 11.4394 -1.8014 0.9482
-7.0729 11.8524 -1.8868 0.9458
-8.4837 14.0186 -2.2400 0.9360
-8.7340 13.8459 -2.2379 0.9360
-8.8167 13.7873 -2.2372 0.9361
-8.9810 13.6686 -2.2358 0.9361
-9.0626 13.6086 -2.2351 0.9361
-4.9979 7.4053 -1.2213 0.9646
-5.0371 7.3648 -1.2197 0.9646
-9.2298 13.3175 -2.2150 0.9367
-5.2971 7.4446 -1.2490 0.9638
-5.6588 7.1736 -1.2490 0.9638
-5.7088 7.1456 -1.2503 0.9637
-5.5727 6.8875 -1.2111 0.9649
-5.9452 7.1649 -1.2727 0.9631
-5.9520 7.0835 -1.2648 0.9633
-6.3949 7.1496 -1.3113 0.9620
-6.4436 6.9404 -1.2946 0.9625
-6.7344 7.1643 -1.3441 0.9611
-6.5778 6.9116 -1.3043 0.9622
-6.6514 6.9029 -1.3104 0.9620
-6.7257 6.8941 -1.3166 0.9619
-6.7870 6.8715 -1.3203 0.9618
-6.8317 6.8318 -1.3207 0.9617
-6.9334 6.8482 -1.3322 0.9614
-7.1139 6.8547 -1.3505 0.9609
-7.2060 6.8581 -1.3599 0.9606
-7.4580 6.9241 -1.3912 0.9597
-7.5556 6.9283 -1.4014 0.9595
-7.6911 6.9654 -1.4185 0.9590
-7.7364 6.9199 -1.4189 0.9590
-7.5062 6.6308 -1.3691 0.9604
-7.8227 6.6561 -1.4041 0.9594
-8.4389 6.9148 -1.4914 0.9569
-8.7197 6.9664 -1.5257 0.9559
-8.5409 6.7374 -1.4871 0.9570
-9.0699 6.9744 -1.5640 0.9549
-9.6246 7.0291 -1.6292 0.9530
-9.6979 6.9911 -1.6343 0.9529
-9.8805 7.0304 -1.6577 0.9522
-9.8358 6.8168 -1.6359 0.9528
-10.3027 7.0465 -1.7063 0.9509
-10.7139 7.1349 -1.7596 0.9494
-10.7881 7.0884 -1.7646 0.9492
-10.9312 7.0860 -1.7808 0.9488
-10.7903 6.9002 -1.7509 0.9496
-11.7865 7.2328 -1.8904 0.9457
-11.9366 7.2237 -1.9073 0.9452
-13.0252 7.3422 -2.0440 0.9414
-13.1718 7.1061 -2.0459 0.9414
-14.1760 7.3116 -2.1804 0.9376
-14.2582 7.1322 -2.1794 0.9377
-14.2985 7.0421 -2.1788 0.9377
-14.3774 6.8614 -2.1777 0.9377
-14.4542 6.6798 -2.1767 0.9377
-14.4917 6.5887 -2.1762 0.9378
-14.5287 6.4974 -2.1756 0.9378
-14.5651 6.4059 -2.1751 0.9378
-14.6711 6.1302 -2.1736 0.9378
-14.7053 6.0379 -2.1731 0.9378
-14.7389 5.9455 -2.1726 0.9379
-14.7720 5.8529 -2.1721 0.9379
-14.8365 5.6672 -2.1711 0.9379
-14.9021 5.5869 -2.1756 0.9378
-15.2098 5.5952 -2.2154 0.9367
-16.1778 4.9485 -2.3127 0.9340
-16.2047 4.8473 -2.3122 0.9340
-16.2566 4.6446 -2.3112 0.9340
-16.3061 4.4414 -2.3103 0.9340
-16.3757 4.1356 -2.3089 0.9341
-16.3977 4.0334 -2.3084 0.9341
-16.4399 3.8288 -2.3075 0.9341
-16.4600 3.7263 -2.3070 0.9341
-16.4796 3.6237 -2.3066 0.9341
-16.5345 3.3155 -2.3053 0.9342
-16.5516 3.2126 -2.3048 0.9342
-16.5681 3.1096 -2.3044 0.9342
-16.5840 3.0065 -2.3040 0.9342
-16.6139 2.8002 -2.3032 0.9342
-16.6279 2.6969 -2.3027 0.9343
-16.6413 2.5935 -2.3023 0.9343
-16.6541 2.4901 -2.3019 0.9343
-16.6778 2.2832 -2.3011 0.9343
-16.6991 2.0760 -2.3004 0.9343
-16.7088 1.9724 -2.3000 0.9343
-16.7179 1.8687 -2.2996 0.9343
-16.7264 1.7650 -2.2992 0.9344
-16.7481 1.4537 -2.2981 0.9344
-16.7596 1.2460 -2.2974 0.9344
-16.7644 1.1422 -2.2970 0.9344
-16.7685 1.0383 -2.2967 0.9344
-16.7721 0.9345 -2.2963 0.9344
-16.7802 0.5190 -2.2950 0.9345
-15.9335 0.0000 -2.2988 0.9376
-15.9311 -0.0985 -2.2985 0.9376
-15.9282 -0.1970 -2.2982 0.9377
-15.9247 -0.2955 -2.2979 0.9377
-15.9206 -0.3939 -2.2976 0.9377
-15.9107 -0.5906 -2.2971 0.9377
-15.8577 -1.2776 -2.2952 0.9377
-15.8479 -1.3755 -2.2950 0.9377
-15.8025 -1.7664 -2.2941 0.9378
-15.7625 -2.0587 -2.2934 0.9378
-15.7012 -2.4470 -2.2926 0.9378
-15.6844 -2.5439 -2.2924 0.9378
-15.6670 -2.6406 -2.2922 0.9378
-15.6307 -2.8337 -2.2918 0.9378
-15.6116 -2.9301 -2.2916 0.9378
-15.5511 -3.2185 -2.2911 0.9378
-15.5079 -3.4101 -2.2908 0.9378
-15.4855 -3.5057 -2.2907 0.9378
-15.4389 -3.6965 -2.2904 0.9379
-15.4148 -3.7916 -2.2902 0.9379
-15.3901 -3.8866 -2.2901 0.9379
-15.3649 -3.9815 -2.2899 0.9379
-15.3391 -4.0762 -2.2898 0.9379
-15.2858 -4.2651 -2.2896 0.9379
-15.2583 -4.3594 -2.2894 0.9379
-15.2303 -4.4534 -2.2893 0.9379
-15.2018 -4.5473 -2.2892 0.9379
-15.1430 -4.7346 -2.2890 0.9379
-15.1128 -4.8279 -2.2889 0.9379
-15.0820 -4.9211 -2.2888 0.9379
-15.0188 -5.1068 -2.2886 0.9379
-14.8859 -5.4760 -2.2883 0.9379
-14.8162 -5.6594 -2.2882 0.9379
-14.7805 -5.7508 -2.2881 0.9379
-14.7444 -5.8419 -2.2881 0.9379
-14.7076 -5.9329 -2.2880 0.9379
-14.5942 -6.2044 -2.2879 0.9379
-14.5554 -6.2944 -2.2879 0.9379
-14.5160 -6.3842 -2.2878 0.9379
-14.3946 -6.6522 -2.2878 0.9379
-14.3111 -6.8297 -2.2878 0.9379
-14.1820 -7.0940 -2.2878 0.9379
-13.9097 -7.6156 -2.2879 0.9379
-13.7180 -7.9579 -2.2880 0.9379
-13.5690 -8.2115 -2.2882 0.9379
-13.4671 -8.3792 -2.2883 0.9379
-13.3633 -8.5457 -2.2885 0.9379
-13.3106 -8.6284 -2.2885 0.9379
-13.2038 -8.7930 -2.2887 0.9379
-13.1497 -8.8749 -2.2888 0.9379
-13.0951 -8.9564 -2.2889 0.9379
-12.9845 -9.1185 -2.2891 0.9379
-12.8719 -9.2792 -2.2893 0.9379
-12.5823 -9.6754 -2.2899 0.9379
-12.5229 -9.7536 -2.2900 0.9379
-12.4631 -9.8314 -2.2902 0.9379
-12.2809 -10.0629 -2.2906 0.9378
-12.2193 -10.1393 -2.2908 0.9378
-12.0317 -10.3665 -2.2913 0.9378
-11.9043 -10.5161 -2.2916 0.9378
-11.8400 -10.5903 -2.2918 0.9378
-11.7752 -10.6642 -2.2920 0.9378
-11.7100 -10.7377 -2.2922 0.9378
-11.6444 -10.8108 -2.2924 0.9378
-11.5782 -10.8835 -2.2925 0.9378
-11.4447 -11.0278 -2.2930 0.9378
-11.3774 -11.0994 -2.2932 0.9378
-11.3095 -11.1706 -2.2934 0.9378
-11.1726 -11.3117 -2.2938 0.9378
-11.1035 -11.3817 -2.2940 0.9378
-10.8938 -11.5892 -2.2947 0.9377
-10.7518 -11.7255 -2.2952 0.9377
-10.6083 -11.8602 -2.2957 0.9377
-10.5359 -11.9269 -2.2959 0.9377
-10.4631 -11.9931 -2.2962 0.9377
-10.3900 -12.0590 -2.2965 0.9377
-10.3164 -12.1244 -2.2967 0.9377
-10.2424 -12.1894 -2.2970 0.9377
-10.1680 -12.2540 -2.2973 0.9377
-10.0932 -12.3181 -2.2976 0.9377
-9.7904 -12.5703 -2.2987 0.9376
-9.6367 -12.6937 -2.2993 0.9376
-9.3247 -12.9351 -2.3005 0.9376
-9.0870 -13.1114 -2.3015 0.9376
-9.0070 -13.1692 -2.3018 0.9376
-8.8460 -13.2836 -2.3025 0.9375
-8.4375 -13.5609 -2.3042 0.9375
-8.3548 -13.6150 -2.3046 0.9375
-8.2718 -13.6685 -2.3050 0.9375
-8.1884 -13.7216 -2.3053 0.9375
-7.9363 -13.8779 -2.3065 0.9374
-7.7666 -13.9796 -2.3072 0.9374
-7.6813 -14.0297 -2.3076 0.9374
-7.5956 -14.0794 -2.3080 0.9374
-7.5097 -14.1285 -2.3084 0.9374
-7.3370 -14.2252 -2.3092 0.9374
-7.0755 -14.3665 -2.3104 0.9373
-6.9878 -14.4126 -2.3108 0.9373
-6.8115 -14.5032 -2.3117 0.9373
-6.6341 -14.5918 -2.3125 0.9373
-6.5450 -14.6353 -2.3130 0.9373
-6.3659 -14.7207 -2.3139 0.9372
-6.2759 -14.7626 -2.3143 0.9372
-6.1857 -14.8040 -2.3147 0.9372
-6.0952 -14.8448 -2.3152 0.9372
-6.0044 -14.8852 -2.3156 0.9372
-5.9134 -14.9250 -2.3161 0.9372
-5.8222 -14.9642 -2.3166 0.9372
-5.6389 -15.0411 -2.3175 0.9371
-5.5469 -15.0788 -2.3180 0.9371
-5.2695 -15.1884 -2.3194 0.9371
-5.1765 -15.2239 -2.3199 0.9371
-5.0834 -15.2588 -2.3204 0.9371
-4.9900 -15.2932 -2.3209 0.9371
-4.8963 -15.3270 -2.3213 0.9370
-4.7084 -15.3930 -2.3223 0.9370
-4.6141 -15.4252 -2.3228 0.9370
-4.4249 -15.4878 -2.3239 0.9370
-4.1395 -15.5775 -2.3254 0.9369
-3.9483 -15.6346 -2.3264 0.9369
-3.8525 -15.6622 -2.3270 0.9369
-3.6601 -15.7158 -2.3280 0.9369
-3.4670 -15.7672 -2.3291 0.9368
-3.0789 -15.8629 -2.3313 0.9368
-2.9814 -15.8855 -2.3318 0.9368
-2.8838 -15.9074 -2.3324 0.9368
-2.5901 -15.9696 -2.3341 0.9367
-2.4919 -15.9892 -2.3346 0.9367
-2.2951 -16.0266 -2.3358 0.9367
-2.0977 -16.0617 -2.3369 0.9366
-1.9988 -16.0784 -2.3375 0.9366
-1.8998 -16.0944 -2.3381 0.9366
-1.7015 -16.1248 -2.3393 0.9366
-1.4031 -16.1659 -2.3410 0.9365
-1.3034 -16.1783 -2.3416 0.9365
-1.2037 -16.1903 -2.3422 0.9365
-0.5028 -16.2568 -2.3465 0.9364
0.0001 -16.2862 -2.3496 0.9363
0.1008 -16.2902 -2.3503 0.9363
0.3024 -16.2965 -2.3515 0.9363
0.4033 -16.2988 -2.3522 0.9362
0.6052 -16.3014 -2.3535 0.9362
0.8072 -16.3016 -2.3547 0.9362
0.9083 -16.3008 -2.3554 0.9361
1.0094 -16.2994 -2.3560 0.9361
1.1104 -16.2973 -2.3567 0.9361
1.3127 -16.2914 -2.3580 0.9361
1.5149 -16.2830 -2.3593 0.9360
1.8182 -16.2658 -2.3613 0.9360
2.0204 -16.2513 -2.3627 0.9360
2.1215 -16.2431 -2.3633 0.9359
2.2225 -16.2343 -2.3640 0.9359
2.3235 -16.2249 -2.3647 0.9359
2.4245 -16.2149 -2.3654 0.9359
2.5254 -16.2042 -2.3660 0.9359
2.7272 -16.1810 -2.3674 0.9358
2.9289 -16.1554 -2.3688 0.9358
3.3314 -16.0967 -2.3715 0.9357
3.4319 -16.0805 -2.3722 0.9357
3.5323 -16.0637 -2.3729 0.9357
3.7329 -16.0282 -2.3743 0.9357
3.8331 -16.0095 -2.3750 0.9356
3.9332 -15.9902 -2.3757 0.9356
4.5317 -15.8614 -2.3799 0.9355
4.6311 -15.8378 -2.3806 0.9355
4.7304 -15.8136 -2.3813 0.9355
4.9285 -15.7633 -2.3828 0.9354
5.3233 -15.6553 -2.3856 0.9354
5.6179 -15.5679 -2.3878 0.9353
5.7158 -15.5376 -2.3885 0.9353
5.9111 -15.4750 -2.3899 0.9352
6.0085 -15.4429 -2.3907 0.9352
6.2028 -15.3767 -2.3921 0.9352
6.3964 -15.3081 -2.3936 0.9351
6.5892 -15.2370 -2.3950 0.9351
7.3526 -14.9288 -2.4009 0.9350
7.4470 -14.8876 -2.4016 0.9349
7.5413 -14.8458 -2.4023 0.9349
7.8225 -14.7169 -2.4045 0.9349
8.0088 -14.6279 -2.4060 0.9348
8.1016 -14.5825 -2.4067 0.9348
8.1942 -14.5366 -2.4075 0.9348
8.2864 -14.4901 -2.4082 0.9348
8.3784 -14.4429 -2.4089 0.9347
8.4702 -14.3953 -2.4097 0.9347
8.6529 -14.2981 -2.4111 0.9347
8.8344 -14.1986 -2.4126 0.9346
9.1046 -14.0452 -2.4148 0.9346
9.4607 -13.8325 -2.4178 0.9345
9.5490 -13.7779 -2.4185 0.9345
9.7246 -13.6670 -2.4200 0.9345
9.8119 -13.6108 -2.4207 0.9344
9.8989 -13.5539 -2.4214 0.9344
9.9855 -13.4965 -2.4222 0.9344
10.1578 -13.3801 -2.4236 0.9344
10.3288 -13.2614 -2.4251 0.9343
10.4137 -13.2013 -2.4258 0.9343
10.4983 -13.1406 -2.4266 0.9343
10.5826 -13.0793 -2.4273 0.9343
10.6665 -13.0175 -2.4280 0.9342
10.7500 -12.9552 -2.4287 0.9342
10.9159 -12.8290 -2.4302 0.9342
10.9984 -12.7651 -2.4309 0.9342
11.0804 -12.7006 -2.4316 0.9342
11.2433 -12.5701 -2.4331 0.9341
11.5645 -12.3027 -2.4360 0.9340
11.7227 -12.1659 -2.4374 0.9340
11.8012 -12.0967 -2.4381 0.9340
11.8793 -12.0270 -2.4389 0.9340
12.0342 -11.8862 -2.4403 0.9339
12.1110 -11.8150 -2.4410 0.9339
12.1874 -11.7433 -2.4417 0.9339
12.4139 -11.5252 -2.4438 0.9338
12.4886 -11.4515 -2.4446 0.9338
12.5628 -11.3774 -2.4453 0.9338
12.6366 -11.3027 -2.4460 0.9338
12.7827 -11.1520 -2.4474 0.9337
13.2102 -10.6883 -2.4516 0.9336
13.2798 -10.6094 -2.4522 0.9336
13.3488 -10.5301 -2.4529 0.9336
13.4175 -10.4503 -2.4536 0.9336
13.6204 -10.2080 -2.4557 0.9335
13.8841 -9.8789 -2.4584 0.9335
13.9487 -9.7955 -2.4591 0.9334
14.0129 -9.7118 -2.4597 0.9334
14.1396 -9.5429 -2.4611 0.9334
14.2022 -9.4578 -2.4617 0.9334
14.2643 -9.3723 -2.4624 0.9333
14.3258 -9.2864 -2.4631 0.9333
14.3868 -9.2001 -2.4637 0.9333
14.4473 -9.1134 -2.4644 0.9333
14.5072 -9.0263 -2.4650 0.9333
14.5666 -8.9388 -2.4657 0.9333
14.6255 -8.8509 -2.4663 0.9332
14.6838 -8.7625 -2.4670 0.9332
