ply
format ascii 1.0
element vertex 1597
property float32 x
property float32 y
property float32 z
property float32 I
end_header
5.9986 -6.0733 -2.4262 0.9651
6.0743 -5.9996 -2.4267 0.9651
6.1118 -5.9624 -2.4269 0.9651
6.1490 -5.9250 -2.4271 0.9651
6.4033 -5.6566 -2.4284 0.9651
6.4387 -5.6174 -2.4286 0.9651
6.4739 -5.5779 -2.4288 0.9651
6.5778 -5.4581 -2.4294 0.9651
6.6119 -5.4177 -2.4296 0.9651
6.7788 -5.2127 -2.4305 0.9651
6.8114 -5.1711 -2.4307 0.9651
6.8438 -5.1292 -2.4309 0.9651
6.8759 -5.0872 -2.4311 0.9651
6.9393 -5.0025 -2.4314 0.9651
7.1231 -4.7437 -2.4325 0.9650
7.1823 -4.6558 -2.4328 0.9650
7.2114 -4.6116 -2.4330 0.9650
7.2403 -4.5673 -2.4331 0.9650
7.2689 -4.5227 -2.4333 0.9650
7.2972 -4.4780 -2.4335 0.9650
7.3253 -4.4331 -2.4336 0.9650
7.3530 -4.3879 -2.4338 0.9650
7.4077 -4.2972 -2.4341 0.9650
7.5394 -4.0675 -2.4349 0.9650
7.5901 -3.9744 -2.4352 0.9650
7.6150 -3.9276 -2.4353 0.9650
7.6638 -3.8336 -2.4356 0.9650
7.7116 -3.7389 -2.4359 0.9650
7.7581 -3.6437 -2.4362 0.9650
7.8035 -3.5479 -2.4365 0.9650
7.8257 -3.4997 -2.4366 0.9650
7.8477 -3.4515 -2.4367 0.9650
7.8906 -3.3545 -2.4370 0.9650
7.9323 -3.2570 -2.4372 0.9650
8.0121 -3.0604 -2.4377 0.9650
8.0501 -2.9614 -2.4380 0.9650
8.0869 -2.8619 -2.4382 0.9650
8.1048 -2.8120 -2.4383 0.9650
8.1397 -2.7116 -2.4386 0.9650
8.1567 -2.6615 -2.4387 0.9649
8.1735 -2.6111 -2.4388 0.9649
8.1898 -2.5606 -2.4389 0.9649
8.2058 -2.5100 -2.4390 0.9649
8.2668 -2.3067 -2.4394 0.9649
8.2812 -2.2556 -2.4395 0.9649
8.2954 -2.2044 -2.4396 0.9649
8.3092 -2.1532 -2.4397 0.9649
8.3226 -2.1018 -2.4398 0.9649
8.3486 -1.9989 -2.4400 0.9649
8.3612 -1.9473 -2.4401 0.9649
8.3733 -1.8956 -2.4402 0.9649
8.3852 -1.8439 -2.4402 0.9649
8.4188 -1.6882 -2.4405 0.9649
8.4396 -1.5840 -2.4407 0.9649
8.4495 -1.5318 -2.4407 0.9649
8.4591 -1.4796 -2.4408 0.9649
8.4941 -1.2701 -2.4411 0.9649
8.5169 -1.1124 -2.4413 0.9649
8.5304 -1.0070 -2.4414 0.9649
8.5427 -0.9014 -2.4416 0.9649
8.5536 -0.7958 -2.4417 0.9649
8.5631 -0.6900 -2.4418 0.9649
8.5674 -0.6370 -2.4418 0.9649
8.5714 -0.5840 -2.4419 0.9649
8.5750 -0.5310 -2.4419 0.9649
8.5782 -0.4780 -2.4420 0.9649
8.5812 -0.4249 -2.4420 0.9649
8.5897 -0.2125 -2.4422 0.9649
8.5919 -0.1063 -2.4422 0.9649
8.5928 -0.0000 -2.4423 0.9649
8.5923 0.1062 -2.4424 0.9649
8.5905 0.2125 -2.4424 0.9649
8.5854 0.3719 -2.4425 0.9649
8.5829 0.4250 -2.4425 0.9649
8.5802 0.4781 -2.4425 0.9649
8.5771 0.5311 -2.4425 0.9649
8.5659 0.6901 -2.4426 0.9649
8.5568 0.7960 -2.4426 0.9649
8.5406 0.9546 -2.4426 0.9649
8.5281 1.0602 -2.4426 0.9649
8.5070 1.2182 -2.4426 0.9649
8.4993 1.2708 -2.4426 0.9649
8.4912 1.3233 -2.4426 0.9649
8.4650 1.4806 -2.4425 0.9649
8.4359 1.6373 -2.4425 0.9649
8.4256 1.6895 -2.4425 0.9649
8.4149 1.7415 -2.4424 0.9649
8.4039 1.7935 -2.4424 0.9649
8.3809 1.8973 -2.4424 0.9649
8.3689 1.9491 -2.4423 0.9649
8.3566 2.0008 -2.4423 0.9649
8.3439 2.0524 -2.4423 0.9649
8.3177 2.1554 -2.4422 0.9649
8.2901 2.2580 -2.4421 0.9649
8.2759 2.3092 -2.4421 0.9649
8.2311 2.4622 -2.4420 0.9649
8.2156 2.5130 -2.4419 0.9649
8.1997 2.5637 -2.4419 0.9649
8.1836 2.6143 -2.4418 0.9649
8.1671 2.6648 -2.4418 0.9649
8.1503 2.7152 -2.4417 0.9649
8.1331 2.7655 -2.4417 0.9649
8.0979 2.8657 -2.4415 0.9649
8.0799 2.9157 -2.4415 0.9649
8.0044 3.1143 -2.4412 0.9649
7.9848 3.1637 -2.4412 0.9649
7.9649 3.2129 -2.4411 0.9649
7.9446 3.2620 -2.4410 0.9649
7.9240 3.3110 -2.4409 0.9649
7.9032 3.3598 -2.4409 0.9649
7.8387 3.5055 -2.4406 0.9649
7.8167 3.5538 -2.4406 0.9649
7.7253 3.7456 -2.4402 0.9649
7.6778 3.8405 -2.4401 0.9649
7.6537 3.8878 -2.4400 0.9649
7.6292 3.9349 -2.4399 0.9649
7.6044 3.9819 -2.4398 0.9649
7.5540 4.0753 -2.4396 0.9649
7.5024 4.1681 -2.4394 0.9649
7.4762 4.2142 -2.4393 0.9649
7.4497 4.2602 -2.4392 0.9649
7.4229 4.3060 -2.4391 0.9649
7.3958 4.3516 -2.4390 0.9649
7.3407 4.4424 -2.4388 0.9649
7.3128 4.4875 -2.4387 0.9650
7.2273 4.6217 -2.4383 0.9650
7.1982 4.6661 -2.4382 0.9650
7.1689 4.7103 -2.4381 0.9650
7.1393 4.7543 -2.4380 0.9650
7.0792 4.8418 -2.4377 0.9650
7.0488 4.8852 -2.4376 0.9650
6.9871 4.9715 -2.4373 0.9650
6.9243 5.0570 -2.4371 0.9650
6.8926 5.0995 -2.4370 0.9650
6.8282 5.1838 -2.4367 0.9650
6.7298 5.3087 -2.4363 0.9650
6.6628 5.3909 -2.4360 0.9650
6.5104 5.4022 -2.4045 0.9654
6.3890 5.3685 -2.3719 0.9659
6.2749 5.3392 -2.3418 0.9663
6.1637 5.3106 -2.3125 0.9667
6.0653 5.2916 -2.2878 0.9671
5.9461 5.3850 -2.2801 0.9672
5.8440 5.4933 -2.2797 0.9672
5.8096 5.5290 -2.2795 0.9672
5.7749 5.5645 -2.2794 0.9672
5.6340 5.7041 -2.2788 0.9672
5.5982 5.7384 -2.2786 0.9672
5.5623 5.7726 -2.2785 0.9672
5.3793 5.9397 -2.2777 0.9672
5.3421 5.9724 -2.2775 0.9672
5.3047 6.0049 -2.2774 0.9672
5.2292 6.0692 -2.2770 0.9672
5.0760 6.1948 -2.2764 0.9672
5.0372 6.2257 -2.2762 0.9672
4.9982 6.2562 -2.2760 0.9672
4.9591 6.2865 -2.2758 0.9673
4.8405 6.3760 -2.2753 0.9673
4.7202 6.4632 -2.2748 0.9673
4.6392 6.5200 -2.2744 0.9673
4.5984 6.5481 -2.2742 0.9673
4.5575 6.5758 -2.2741 0.9673
4.4751 6.6306 -2.2737 0.9673
4.4336 6.6576 -2.2735 0.9673
4.3920 6.6844 -2.2733 0.9673
4.3502 6.7108 -2.2731 0.9673
4.3083 6.7371 -2.2729 0.9673
4.2239 6.7887 -2.2726 0.9673
4.1815 6.8141 -2.2724 0.9673
4.0962 6.8641 -2.2720 0.9673
4.0103 6.9131 -2.2716 0.9673
3.9671 6.9372 -2.2714 0.9673
3.8804 6.9845 -2.2710 0.9673
3.7931 7.0308 -2.2706 0.9673
3.7053 7.0761 -2.2703 0.9673
3.6611 7.0983 -2.2701 0.9673
3.6168 7.1202 -2.2699 0.9673
3.4832 7.1842 -2.2693 0.9673
3.3936 7.2256 -2.2689 0.9673
3.3485 7.2458 -2.2688 0.9674
3.2581 7.2854 -2.2684 0.9674
3.2127 7.3048 -2.2682 0.9674
3.0758 7.3612 -2.2676 0.9674
3.0299 7.3794 -2.2674 0.9674
2.9840 7.3973 -2.2671 0.9674
2.8917 7.4323 -2.2667 0.9674
2.8455 7.4493 -2.2665 0.9674
2.7526 7.4826 -2.2661 0.9674
2.6593 7.5147 -2.2657 0.9674
2.6126 7.5303 -2.2655 0.9674
2.5657 7.5456 -2.2653 0.9674
2.5188 7.5606 -2.2651 0.9674
2.4717 7.5754 -2.2649 0.9674
2.3774 7.6039 -2.2644 0.9674
2.3301 7.6178 -2.2642 0.9674
2.2828 7.6313 -2.2640 0.9674
1.7667 6.0420 -1.7892 0.9742
2.1402 7.6701 -2.2634 0.9674
1.9248 7.2432 -2.1302 0.9693
1.8794 7.2526 -2.1295 0.9693
1.5535 6.3155 -1.8486 0.9733
1.5177 6.3389 -1.8526 0.9733
1.4150 6.2503 -1.8215 0.9737
1.3781 6.2671 -1.8238 0.9737
1.2950 6.2574 -1.8162 0.9738
1.1709 6.2384 -1.8041 0.9740
1.1036 6.0874 -1.7584 0.9746
1.1083 6.3364 -1.8283 0.9736
1.0549 6.2586 -1.8040 0.9740
1.0256 6.3235 -1.8208 0.9737
0.9501 6.0962 -1.7536 0.9747
0.9032 6.3068 -1.8109 0.9739
0.8134 6.2280 -1.7852 0.9742
0.7833 6.3004 -1.8046 0.9739
0.6654 6.3061 -1.8023 0.9740
0.6262 6.3083 -1.8018 0.9740
0.4292 6.3002 -1.7948 0.9741
0.3908 6.3118 -1.7974 0.9740
0.2655 6.1285 -1.7435 0.9748
0.1949 6.3003 -1.7916 0.9741
0.1559 6.2999 -1.7912 0.9741
-0.1188 6.4002 -1.8194 0.9737
-0.1582 6.3928 -1.8176 0.9738
-0.3149 6.3585 -1.8095 0.9739
-0.3520 6.3175 -1.7984 0.9740
-0.3887 6.2771 -1.7875 0.9742
-0.4722 6.3504 -1.8100 0.9739
-0.7495 6.3492 -1.8172 0.9738
-0.8827 6.4475 -1.8497 0.9733
-0.9565 6.3974 -1.8385 0.9735
-1.1312 6.4671 -1.8661 0.9731
-1.3115 6.3368 -1.8393 0.9734
-1.3775 6.4546 -1.8759 0.9729
-1.4162 6.4402 -1.8742 0.9730
-1.4915 6.2296 -1.8207 0.9737
-1.5580 6.3340 -1.8540 0.9732
-1.7194 6.4704 -1.9029 0.9725
-1.7001 6.2416 -1.8387 0.9735
-1.8077 6.4785 -1.9117 0.9724
-1.9447 6.5011 -1.9287 0.9722
-1.9852 6.4902 -1.9291 0.9722
-2.0850 6.5265 -1.9474 0.9719
-2.1333 6.5379 -1.9547 0.9718
-2.1741 6.5259 -1.9551 0.9718
-2.1362 6.2824 -1.8860 0.9728
-2.3819 6.4749 -1.9609 0.9717
-2.4997 6.4247 -1.9594 0.9717
-2.5881 6.5320 -1.9970 0.9712
-2.6982 6.5714 -2.0191 0.9709
-2.7616 6.4961 -2.0063 0.9711
-2.8202 6.5214 -2.0195 0.9709
-2.9083 6.5031 -2.0248 0.9708
-2.9842 6.5638 -2.0494 0.9705
-3.0260 6.5479 -2.0502 0.9704
-2.9691 6.3219 -1.9852 0.9714
-3.0188 6.3256 -1.9922 0.9713
-3.2040 6.6084 -2.0874 0.9699
-3.4630 6.6135 -2.1219 0.9694
-3.4207 6.3406 -2.0477 0.9705
-3.5301 6.3541 -2.0660 0.9702
-3.7514 6.5599 -2.1479 0.9691
-3.7458 6.3661 -2.0994 0.9698
-4.0520 6.6031 -2.2020 0.9683
-4.1253 6.5396 -2.1977 0.9684
-4.1679 6.5176 -2.1989 0.9683
-4.4299 6.4769 -2.2303 0.9679
-4.4695 6.4488 -2.2301 0.9679
-4.5088 6.4204 -2.2299 0.9679
-4.5871 6.3630 -2.2295 0.9679
-4.6259 6.3339 -2.2293 0.9679
-4.6645 6.3046 -2.2291 0.9679
-4.7030 6.2751 -2.2289 0.9679
-4.7413 6.2453 -2.2287 0.9679
-4.8926 6.1239 -2.2279 0.9679
-5.0040 6.0305 -2.2273 0.9679
-5.0773 5.9671 -2.2269 0.9679
-5.1136 5.9350 -2.2267 0.9679
-5.1498 5.9028 -2.2265 0.9679
-5.1858 5.8703 -2.2263 0.9680
-5.2215 5.8376 -2.2261 0.9680
-5.3972 5.6710 -2.2252 0.9680
-5.4317 5.6370 -2.2250 0.9680
-5.5677 5.4992 -2.2242 0.9680
-5.6011 5.4642 -2.2241 0.9680
-5.6673 5.3936 -2.2237 0.9680
-5.7650 5.2863 -2.2232 0.9680
-5.7971 5.2501 -2.2230 0.9680
-5.8290 5.2137 -2.2228 0.9680
-5.9233 5.1035 -2.2223 0.9680
-5.9543 5.0664 -2.2221 0.9680
-6.0156 4.9916 -2.2218 0.9680
-6.0459 4.9539 -2.2216 0.9680
-6.1175 4.8873 -2.2255 0.9680
-6.4307 4.8820 -2.2948 0.9670
-6.5151 4.8829 -2.3141 0.9667
-6.6010 4.8837 -2.3338 0.9664
-6.6882 4.8846 -2.3540 0.9661
-6.7654 4.8770 -2.3705 0.9659
-6.7949 4.8348 -2.3703 0.9659
-6.8533 4.7497 -2.3700 0.9659
-6.8820 4.7069 -2.3698 0.9659
-7.0759 4.4026 -2.3687 0.9659
-7.1026 4.3585 -2.3685 0.9659
-7.1808 4.2251 -2.3681 0.9659
-7.2063 4.1804 -2.3679 0.9659
-7.2316 4.1355 -2.3678 0.9660
-7.2566 4.0904 -2.3676 0.9660
-7.2813 4.0452 -2.3675 0.9660
-7.3299 3.9544 -2.3672 0.9660
-7.4007 3.8170 -2.3668 0.9660
-7.4464 3.7248 -2.3665 0.9660
-7.4689 3.6784 -2.3664 0.9660
-7.4911 3.6320 -2.3662 0.9660
-7.5559 3.4918 -2.3658 0.9660
-7.5977 3.3977 -2.3656 0.9660
-7.6181 3.3505 -2.3655 0.9660
-7.6582 3.2556 -2.3652 0.9660
-7.7161 3.1125 -2.3648 0.9660
-7.7348 3.0646 -2.3647 0.9660
-7.7713 2.9684 -2.3645 0.9660
-7.7892 2.9202 -2.3644 0.9660
-7.8409 2.7748 -2.3640 0.9660
-7.8576 2.7261 -2.3639 0.9660
-7.8739 2.6773 -2.3638 0.9660
-7.9057 2.5795 -2.3636 0.9660
-7.9212 2.5305 -2.3635 0.9660
-7.9512 2.4321 -2.3633 0.9660
-7.9657 2.3828 -2.3632 0.9660
-7.9800 2.3334 -2.3631 0.9660
-7.9940 2.2839 -2.3630 0.9660
-8.0076 2.2343 -2.3629 0.9660
-8.0210 2.1847 -2.3628 0.9660
-8.0340 2.1349 -2.3627 0.9660
-8.0592 2.0352 -2.3626 0.9660
-8.0832 1.9353 -2.3624 0.9660
-8.0946 1.8852 -2.3623 0.9660
-8.1059 1.8350 -2.3622 0.9660
-8.1168 1.7848 -2.3621 0.9660
-8.1274 1.7345 -2.3621 0.9660
-8.1377 1.6842 -2.3620 0.9660
-8.1477 1.6337 -2.3619 0.9660
-8.1574 1.5833 -2.3618 0.9660
-8.1667 1.5327 -2.3618 0.9660
-8.1758 1.4822 -2.3617 0.9660
-8.1931 1.3809 -2.3615 0.9660
-8.2090 1.2793 -2.3614 0.9660
-8.2552 0.9227 -2.3610 0.9660
-8.2606 0.8716 -2.3609 0.9660
-8.2748 0.7182 -2.3608 0.9661
-8.2789 0.6670 -2.3607 0.9661
-8.2827 0.6158 -2.3607 0.9661
-8.2862 0.5645 -2.3606 0.9661
-8.2948 0.4107 -2.3605 0.9661
-8.2989 0.3080 -2.3604 0.9661
-8.3018 0.2054 -2.3603 0.9661
-8.3039 0.0513 -2.3602 0.9661
-8.0764 -0.1999 -2.3612 0.9669
-8.0731 -0.2997 -2.3612 0.9669
-8.0597 -0.5492 -2.3611 0.9669
-8.0562 -0.5990 -2.3611 0.9669
-8.0166 -0.9966 -2.3610 0.9669
-7.9968 -1.1452 -2.3611 0.9669
-7.9895 -1.1946 -2.3611 0.9669
-7.9820 -1.2440 -2.3611 0.9669
-7.9742 -1.2934 -2.3611 0.9669
-7.9661 -1.3427 -2.3611 0.9669
-7.9490 -1.4411 -2.3611 0.9669
-7.9111 -1.6373 -2.3612 0.9669
-7.8796 -1.7839 -2.3613 0.9669
-7.8685 -1.8326 -2.3613 0.9669
-7.8571 -1.8812 -2.3613 0.9669
-7.8335 -1.9783 -2.3614 0.9669
-7.8212 -2.0267 -2.3614 0.9669
-7.8086 -2.0751 -2.3614 0.9669
-7.7691 -2.2197 -2.3615 0.9669
-7.7270 -2.3636 -2.3617 0.9669
-7.6823 -2.5067 -2.3618 0.9669
-7.6668 -2.5542 -2.3619 0.9669
-7.6350 -2.6489 -2.3620 0.9669
-7.5503 -2.8840 -2.3622 0.9669
-7.5325 -2.9308 -2.3623 0.9669
-7.5144 -2.9774 -2.3623 0.9669
-7.4961 -3.0238 -2.3624 0.9669
-7.4775 -3.0702 -2.3625 0.9669
-7.4585 -3.1165 -2.3625 0.9669
-7.4393 -3.1627 -2.3626 0.9669
-7.4198 -3.2087 -2.3627 0.9669
-7.4000 -3.2546 -2.3627 0.9669
-7.3597 -3.3461 -2.3629 0.9669
-7.3182 -3.4371 -2.3630 0.9669
-7.2970 -3.4824 -2.3631 0.9669
-7.2756 -3.5276 -2.3632 0.9669
-7.2096 -3.6623 -2.3634 0.9669
-7.1871 -3.7070 -2.3635 0.9669
-7.1643 -3.7515 -2.3636 0.9669
-7.1179 -3.8401 -2.3638 0.9669
-7.0943 -3.8842 -2.3639 0.9669
-7.0704 -3.9281 -2.3640 0.9669
-6.9722 -4.1025 -2.3643 0.9668
-6.9215 -4.1887 -2.3645 0.9668
-6.8958 -4.2316 -2.3646 0.9668
-6.7631 -4.4438 -2.3652 0.9668
-6.7083 -4.5275 -2.3654 0.9668
-6.6524 -4.6106 -2.3656 0.9668
-6.6241 -4.6518 -2.3657 0.9668
-6.5667 -4.7339 -2.3660 0.9668
-6.5376 -4.7746 -2.3661 0.9668
-6.5083 -4.8152 -2.3662 0.9668
-6.4787 -4.8556 -2.3663 0.9668
-6.4489 -4.8958 -2.3664 0.9668
-6.4188 -4.9359 -2.3666 0.9668
-6.3885 -4.9757 -2.3667 0.9668
-6.3272 -5.0549 -2.3669 0.9668
-6.2961 -5.0942 -2.3671 0.9668
-6.1373 -5.2879 -2.3677 0.9668
-6.0722 -5.3640 -2.3680 0.9668
-6.0392 -5.4018 -2.3681 0.9668
-5.9727 -5.4767 -2.3684 0.9668
-5.9391 -5.5139 -2.3686 0.9668
-5.9052 -5.5509 -2.3687 0.9668
-5.8711 -5.5876 -2.3688 0.9668
-5.8368 -5.6242 -2.3690 0.9668
-5.7325 -5.7326 -2.3694 0.9668
-5.6973 -5.7683 -2.3696 0.9668
-5.6263 -5.8390 -2.3699 0.9668
-5.5904 -5.8741 -2.3700 0.9668
-5.5543 -5.9089 -2.3702 0.9668
-5.4449 -6.0122 -2.3707 0.9668
-5.3708 -6.0799 -2.3710 0.9668
-5.2959 -6.1467 -2.3713 0.9668
-5.2582 -6.1798 -2.3715 0.9668
-5.1821 -6.2452 -2.3718 0.9667
-5.1052 -6.3097 -2.3722 0.9667
-5.0275 -6.3733 -2.3725 0.9667
-4.9883 -6.4047 -2.3727 0.9667
-4.7897 -6.5583 -2.3735 0.9667
-4.7089 -6.6180 -2.3739 0.9667
-4.6274 -6.6768 -2.3743 0.9667
-4.5038 -6.7630 -2.3748 0.9667
-4.4622 -6.7913 -2.3750 0.9667
-4.4205 -6.8193 -2.3752 0.9667
-4.3365 -6.8746 -2.3756 0.9667
-4.2942 -6.9018 -2.3758 0.9667
-4.2518 -6.9288 -2.3759 0.9667
-4.1665 -6.9819 -2.3763 0.9667
-4.1236 -7.0082 -2.3765 0.9667
-4.0805 -7.0341 -2.3767 0.9667
-4.0373 -7.0598 -2.3769 0.9667
-3.8627 -7.1599 -2.3777 0.9667
-3.7745 -7.2083 -2.3781 0.9667
-3.6856 -7.2557 -2.3785 0.9667
-3.6410 -7.2790 -2.3787 0.9667
-3.5513 -7.3247 -2.3791 0.9666
-3.4157 -7.3912 -2.3797 0.9666
-3.3702 -7.4129 -2.3800 0.9666
-3.3246 -7.4342 -2.3802 0.9666
-3.2330 -7.4761 -2.3806 0.9666
-3.1870 -7.4966 -2.3808 0.9666
-3.1408 -7.5168 -2.3810 0.9666
-3.0482 -7.5565 -2.3814 0.9666
-3.0016 -7.5759 -2.3817 0.9666
-2.9550 -7.5950 -2.3819 0.9666
-2.9082 -7.6138 -2.3821 0.9666
-2.7200 -7.6862 -2.3830 0.9666
-2.6727 -7.7036 -2.3832 0.9666
-2.4344 -7.7862 -2.3843 0.9666
-2.3383 -7.8171 -2.3847 0.9666
-2.2902 -7.8322 -2.3850 0.9666
-2.1936 -7.8614 -2.3854 0.9666
-2.1451 -7.8756 -2.3856 0.9666
-2.0965 -7.8895 -2.3859 0.9666
-2.0479 -7.9030 -2.3861 0.9665
-1.9992 -7.9163 -2.3863 0.9665
-1.9504 -7.9293 -2.3866 0.9665
-1.8525 -7.9543 -2.3870 0.9665
-1.8035 -7.9664 -2.3873 0.9665
-1.6065 -8.0117 -2.3882 0.9665
-1.5571 -8.0223 -2.3884 0.9665
-1.5076 -8.0325 -2.3887 0.9665
-1.4084 -8.0521 -2.3891 0.9665
-1.3587 -8.0615 -2.3894 0.9665
-1.3089 -8.0705 -2.3896 0.9665
-1.2093 -8.0877 -2.3901 0.9665
-0.9591 -8.1253 -2.3913 0.9665
-0.8085 -8.1442 -2.3920 0.9665
-0.7079 -8.1552 -2.3925 0.9665
-0.6070 -8.1650 -2.3930 0.9665
-0.5566 -8.1694 -2.3932 0.9665
-0.5061 -8.1735 -2.3934 0.9664
-0.4556 -8.1773 -2.3937 0.9664
-0.4051 -8.1808 -2.3939 0.9664
-0.3545 -8.1840 -2.3942 0.9664
-0.1520 -8.1936 -2.3951 0.9664
-0.1014 -8.1952 -2.3954 0.9664
0.0000 -8.1975 -2.3959 0.9664
0.1521 -8.1987 -2.3966 0.9664
0.3043 -8.1969 -2.3974 0.9664
0.3550 -8.1957 -2.3976 0.9664
0.4057 -8.1942 -2.3979 0.9664
0.4565 -8.1924 -2.3981 0.9664
0.5071 -8.1903 -2.3984 0.9664
0.5579 -8.1878 -2.3986 0.9664
0.6592 -8.1820 -2.3991 0.9664
0.7099 -8.1786 -2.3993 0.9664
0.7605 -8.1749 -2.3996 0.9664
0.8111 -8.1709 -2.3998 0.9664
0.9123 -8.1619 -2.4003 0.9664
1.0639 -8.1461 -2.4011 0.9663
1.1144 -8.1402 -2.4013 0.9663
1.2152 -8.1275 -2.4018 0.9663
1.3159 -8.1135 -2.4023 0.9663
1.3662 -8.1061 -2.4026 0.9663
1.4165 -8.0983 -2.4028 0.9663
1.4667 -8.0902 -2.4031 0.9663
1.5168 -8.0819 -2.4033 0.9663
1.5670 -8.0732 -2.4036 0.9663
1.6670 -8.0548 -2.4041 0.9663
1.8665 -8.0144 -2.4051 0.9663
1.9162 -8.0036 -2.4053 0.9663
1.9659 -7.9924 -2.4056 0.9663
2.0155 -7.9809 -2.4058 0.9663
2.0650 -7.9691 -2.4060 0.9663
2.1145 -7.9570 -2.4063 0.9663
2.1639 -7.9446 -2.4065 0.9663
2.3607 -7.8919 -2.4075 0.9663
2.4097 -7.8779 -2.4078 0.9663
2.7019 -7.7879 -2.4092 0.9662
2.7986 -7.7554 -2.4097 0.9662
3.0386 -7.6690 -2.4109 0.9662
3.1813 -7.6136 -2.4117 0.9662
3.2286 -7.5946 -2.4119 0.9662
3.2759 -7.5752 -2.4122 0.9662
3.4168 -7.5154 -2.4129 0.9662
3.5102 -7.4740 -2.4134 0.9662
3.5567 -7.4529 -2.4136 0.9662
3.6031 -7.4315 -2.4138 0.9662
3.6494 -7.4098 -2.4141 0.9662
3.6955 -7.3878 -2.4143 0.9662
3.7415 -7.3655 -2.4145 0.9662
3.8330 -7.3201 -2.4150 0.9662
3.9240 -7.2736 -2.4155 0.9661
4.0595 -7.2016 -2.4162 0.9661
4.1043 -7.1771 -2.4164 0.9661
4.1936 -7.1271 -2.4169 0.9661
4.2379 -7.1017 -2.4171 0.9661
4.2822 -7.0761 -2.4173 0.9661
4.3702 -7.0239 -2.4178 0.9661
4.6731 -6.8326 -2.4194 0.9661
4.8004 -6.7466 -2.4200 0.9661
4.8425 -6.7174 -2.4203 0.9661
4.8844 -6.6879 -2.4205 0.9661
4.9261 -6.6582 -2.4207 0.9661
4.9677 -6.6282 -2.4209 0.9661
5.0090 -6.5980 -2.4211 0.9661
5.0911 -6.5367 -2.4216 0.9661
5.1725 -6.4744 -2.4220 0.9661
5.2931 -6.3790 -2.4226 0.9660
5.3329 -6.3467 -2.4228 0.9660
5.4120 -6.2813 -2.4233 0.9660
5.4512 -6.2483 -2.4235 0.9660
5.4902 -6.2150 -2.4237 0.9660
5.5290 -6.1815 -2.4239 0.9660
5.5676 -6.1477 -2.4241 0.9660
5.6441 -6.0793 -2.4245 0.9660
5.6821 -6.0449 -2.4247 0.9660
5.7574 -5.9751 -2.4251 0.9660
5.8318 -5.9044 -2.4255 0.9660
5.8687 -5.8687 -2.4257 0.9660
5.9418 -5.7966 -2.4261 0.9660
6.0853 -5.6497 -2.4269 0.9660
6.2252 -5.4992 -2.4277 0.9660
6.3276 -5.3840 -2.4282 0.9660
6.3947 -5.3062 -2.4286 0.9660
6.4279 -5.2669 -2.4288 0.9660
6.4608 -5.2275 -2.4290 0.9660
6.4935 -5.1878 -2.4292 0.9660
6.5259 -5.1479 -2.4293 0.9660
6.5581 -5.1078 -2.4295 0.9660
6.5901 -5.0676 -2.4297 0.9659
6.6218 -5.0271 -2.4299 0.9659
6.6844 -4.9455 -2.4302 0.9659
6.7460 -4.8631 -2.4306 0.9659
6.8066 -4.7800 -2.4309 0.9659
6.9246 -4.6114 -2.4316 0.9659
6.9821 -4.5261 -2.4319 0.9659
7.0104 -4.4831 -2.4321 0.9659
7.0938 -4.3531 -2.4325 0.9659
7.1747 -4.2216 -2.4330 0.9659
7.2273 -4.1331 -2.4333 0.9659
7.3538 -3.9088 -2.4341 0.9659
7.3783 -3.8635 -2.4342 0.9659
7.4025 -3.8180 -2.4343 0.9659
7.4734 -3.6807 -2.4348 0.9659
7.4964 -3.6346 -2.4349 0.9659
7.5192 -3.5884 -2.4350 0.9659
7.5637 -3.4955 -2.4353 0.9659
7.5856 -3.4488 -2.4354 0.9659
7.6496 -3.3080 -2.4358 0.9659
7.6907 -3.2135 -2.4361 0.9659
7.7108 -3.1660 -2.4362 0.9659
7.7502 -3.0708 -2.4365 0.9659
7.7694 -3.0229 -2.4366 0.9659
7.7883 -2.9750 -2.4367 0.9659
7.8069 -2.9269 -2.4368 0.9659
7.8252 -2.8786 -2.4369 0.9658
7.8784 -2.7334 -2.4373 0.9658
7.8956 -2.6847 -2.4374 0.9658
7.9288 -2.5871 -2.4376 0.9658
7.9451 -2.5381 -2.4377 0.9658
7.9609 -2.4891 -2.4378 0.9658
7.9766 -2.4399 -2.4379 0.9658
7.9918 -2.3906 -2.4380 0.9658
8.0357 -2.2422 -2.4383 0.9658
8.0635 -2.1428 -2.4385 0.9658
8.0769 -2.0930 -2.4386 0.9658
8.0900 -2.0431 -2.4387 0.9658
8.1028 -1.9931 -2.4388 0.9658
8.1152 -1.9430 -2.4389 0.9658
8.1392 -1.8426 -2.4391 0.9658
8.1620 -1.7419 -2.4392 0.9658
8.2036 -1.5397 -2.4395 0.9658
8.2133 -1.4890 -2.4396 0.9658
8.2402 -1.3365 -2.4398 0.9658
8.2566 -1.2346 -2.4400 0.9658
8.2854 -1.0301 -2.4402 0.9658
8.3092 -0.8249 -2.4405 0.9658
8.3143 -0.7735 -2.4405 0.9658
8.3236 -0.6707 -2.4406 0.9658
8.3316 -0.5677 -2.4407 0.9658
8.3411 -0.4130 -2.4409 0.9658
8.3437 -0.3615 -2.4409 0.9658
8.3506 -0.1550 -2.4410 0.9658
8.3523 -0.0000 -2.4411 0.9658
8.3523 0.0516 -2.4412 0.9658
8.3519 0.1033 -2.4412 0.9658
8.3512 0.1550 -2.4412 0.9658
8.3471 0.3098 -2.4413 0.9658
8.3401 0.4647 -2.4413 0.9658
8.3302 0.6193 -2.4414 0.9658
8.3125 0.8252 -2.4414 0.9658
8.3072 0.8766 -2.4414 0.9658
8.3016 0.9279 -2.4414 0.9658
8.2957 0.9792 -2.4414 0.9658
8.2895 1.0305 -2.4414 0.9658
8.2689 1.1841 -2.4414 0.9658
8.2536 1.2863 -2.4414 0.9658
8.2370 1.3883 -2.4414 0.9658
8.2282 1.4392 -2.4414 0.9658
8.1898 1.6422 -2.4413 0.9658
8.1687 1.7433 -2.4412 0.9658
8.1577 1.7938 -2.4412 0.9658
8.1347 1.8945 -2.4412 0.9658
8.1228 1.9448 -2.4411 0.9658
8.0850 2.0951 -2.4410 0.9658
8.0582 2.1948 -2.4410 0.9658
8.0157 2.3438 -2.4408 0.9658
8.0009 2.3933 -2.4408 0.9658
7.9858 2.4427 -2.4408 0.9658
7.9704 2.4920 -2.4407 0.9658
7.9547 2.5412 -2.4407 0.9658
7.9386 2.5903 -2.4406 0.9658
7.9056 2.6881 -2.4405 0.9658
7.8887 2.7369 -2.4404 0.9658
7.8714 2.7856 -2.4404 0.9658
7.8360 2.8826 -2.4403 0.9658
7.8178 2.9309 -2.4402 0.9658
7.7994 2.9791 -2.4402 0.9658
7.7806 3.0272 -2.4401 0.9658
7.7615 3.0752 -2.4400 0.9658
7.6822 3.2659 -2.4397 0.9658
7.6407 3.3604 -2.4396 0.9658
7.6196 3.4075 -2.4395 0.9658
7.5764 3.5013 -2.4394 0.9658
7.5543 3.5479 -2.4393 0.9658
7.5320 3.5945 -2.4392 0.9658
7.4632 3.7332 -2.4390 0.9658
7.4397 3.7791 -2.4389 0.9658
7.4160 3.8249 -2.4388 0.9658
7.3675 3.9161 -2.4386 0.9658
7.3180 4.0066 -2.4384 0.9658
7.2927 4.0516 -2.4383 0.9658
7.2673 4.0964 -2.4382 0.9658
7.2415 4.1411 -2.4381 0.9658
7.2154 4.1857 -2.4380 0.9658
7.1625 4.2742 -2.4378 0.9658
7.1085 4.3621 -2.4376 0.9658
6.9971 4.5358 -2.4371 0.9658
6.9399 4.6215 -2.4369 0.9658
6.8815 4.7066 -2.4367 0.9659
6.8519 4.7488 -2.4366 0.9659
6.7310 4.9158 -2.4361 0.9659
6.6376 5.0391 -2.4357 0.9659
6.6059 5.0797 -2.4356 0.9659
6.5419 5.1605 -2.4353 0.9659
6.5095 5.2006 -2.4352 0.9659
6.4769 5.2404 -2.4350 0.9659
6.4108 5.3196 -2.4347 0.9659
6.3663 5.3494 -2.4304 0.9659
6.1397 5.2899 -2.3686 0.9668
6.0319 5.2623 -2.3395 0.9672
5.9266 5.2354 -2.3112 0.9676
5.7143 5.3052 -2.2789 0.9680
5.6811 5.3401 -2.2788 0.9680
5.6139 5.4093 -2.2785 0.9680
5.5458 5.4776 -2.2782 0.9680
5.5115 5.5115 -2.2781 0.9680
5.4770 5.5451 -2.2779 0.9680
5.4422 5.5785 -2.2778 0.9680
5.3720 5.6446 -2.2775 0.9680
5.3011 5.7099 -2.2772 0.9681
5.2294 5.7742 -2.2769 0.9681
5.1932 5.8060 -2.2767 0.9681
5.1568 5.8376 -2.2765 0.9681
5.1203 5.8690 -2.2764 0.9681
5.0835 5.9001 -2.2762 0.9681
4.9721 5.9921 -2.2757 0.9681
4.9346 6.0223 -2.2756 0.9681
4.8969 6.0523 -2.2754 0.9681
4.7443 6.1697 -2.2747 0.9681
4.6670 6.2270 -2.2744 0.9681
4.6280 6.2553 -2.2742 0.9681
4.5496 6.3111 -2.2739 0.9681
4.5101 6.3386 -2.2737 0.9681
4.3908 6.4197 -2.2732 0.9681
4.3506 6.4462 -2.2730 0.9681
4.2698 6.4985 -2.2726 0.9681
4.2292 6.5242 -2.2724 0.9681
4.1476 6.5749 -2.2721 0.9681
4.1065 6.5999 -2.2719 0.9681
4.0652 6.6247 -2.2717 0.9681
4.0239 6.6491 -2.2715 0.9681
3.9823 6.6733 -2.2713 0.9681
3.9407 6.6973 -2.2711 0.9681
3.8988 6.7210 -2.2709 0.9681
3.8148 6.7675 -2.2706 0.9681
3.7302 6.8130 -2.2702 0.9681
3.6450 6.8575 -2.2698 0.9682
3.6022 6.8793 -2.2696 0.9682
3.4731 6.9432 -2.2690 0.9682
3.3864 6.9845 -2.2687 0.9682
3.3429 7.0048 -2.2685 0.9682
3.2554 7.0444 -2.2681 0.9682
3.0792 7.1204 -2.2673 0.9682
2.8563 7.2091 -2.2664 0.9682
2.7665 7.2426 -2.2660 0.9682
2.7214 7.2590 -2.2658 0.9682
2.6762 7.2751 -2.2656 0.9682
2.6310 7.2908 -2.2654 0.9682
2.5856 7.3063 -2.2652 0.9682
2.4946 7.3364 -2.2648 0.9682
2.4490 7.3511 -2.2646 0.9682
2.4033 7.3654 -2.2644 0.9682
2.3115 7.3933 -2.2640 0.9682
2.2655 7.4068 -2.2638 0.9682
2.2195 7.4200 -2.2636 0.9682
1.7667 6.0419 -1.8398 0.9741
2.1272 7.4455 -2.2632 0.9682
2.0809 7.4578 -2.2630 0.9682
1.8951 7.5042 -2.2621 0.9683
1.5516 6.3081 -1.8986 0.9733
1.5159 6.3314 -1.9028 0.9732
1.3455 6.3044 -1.8841 0.9735
1.1421 6.0851 -1.8096 0.9745
1.1036 6.0873 -1.8082 0.9745
1.0655 6.3219 -1.8738 0.9736
0.7825 6.2944 -1.8538 0.9739
0.7397 6.2669 -1.8443 0.9740
0.7050 6.3071 -1.8549 0.9739
0.6305 6.3518 -1.8656 0.9738
0.5895 6.3366 -1.8600 0.9738
0.5458 6.2877 -1.8446 0.9740
0.5120 6.3543 -1.8632 0.9738
0.4725 6.3551 -1.8625 0.9738
0.4279 6.2811 -1.8400 0.9741
0.3153 6.3684 -1.8636 0.9738
0.2655 6.1284 -1.7928 0.9748
0.2350 6.3293 -1.8512 0.9740
0.1963 6.3482 -1.8563 0.9739
0.1575 6.3671 -1.8615 0.9738
0.1185 6.3863 -1.8668 0.9737
0.0791 6.4005 -1.8708 0.9737
0.0380 6.1415 -1.7950 0.9747
-0.0000 6.3619 -1.8594 0.9738
-0.0392 6.3339 -1.8513 0.9739
-0.0780 6.3055 -1.8430 0.9741
-0.3134 6.3300 -1.8524 0.9739
-0.3883 6.2708 -1.8363 0.9742
-0.4334 6.3600 -1.8632 0.9738
-0.4729 6.3612 -1.8643 0.9738
-0.5165 6.4110 -1.8798 0.9736
-0.5566 6.4124 -1.8812 0.9735
-0.5753 6.1841 -1.8152 0.9744
-0.6920 6.1908 -1.8207 0.9744
-0.7311 6.1930 -1.8226 0.9743
-0.8487 6.1998 -1.8289 0.9743
-1.0476 6.4595 -1.9126 0.9731
-1.0891 6.4619 -1.9153 0.9731
-1.1289 6.4544 -1.9151 0.9731
-1.1687 6.4468 -1.9149 0.9731
-1.2058 6.4246 -1.9105 0.9731
-1.2456 6.4176 -1.9107 0.9731
-1.3130 6.3444 -1.8936 0.9734
-1.3708 6.4230 -1.9195 0.9730
-1.4503 6.2272 -1.8687 0.9737
-1.6287 6.4493 -1.9441 0.9727
-1.6614 6.4115 -1.9358 0.9728
-1.7202 6.4734 -1.9576 0.9725
-1.8094 6.4845 -1.9676 0.9723
-1.9009 6.5011 -1.9796 0.9722
-1.9404 6.4869 -1.9789 0.9722
-1.9997 6.5376 -1.9981 0.9719
-2.0420 6.5311 -2.0000 0.9719
-2.0892 6.2712 -1.9319 0.9728
-2.2136 6.5100 -2.0097 0.9718
-2.2553 6.5003 -2.0110 0.9717
-2.2990 6.4964 -2.0141 0.9717
-2.3469 6.5037 -2.0208 0.9716
-2.3931 6.5054 -2.0259 0.9715
-2.4342 6.4929 -2.0267 0.9715
-2.4711 6.4692 -2.0240 0.9716
-2.6432 6.4375 -2.0339 0.9714
-2.7512 6.4716 -2.0553 0.9711
-2.7889 6.4492 -2.0536 0.9711
-2.9209 6.5313 -2.0911 0.9706
-3.0145 6.5230 -2.1002 0.9705
-3.1455 6.5912 -2.1345 0.9700
-3.1178 6.3304 -2.0624 0.9710
-3.1680 6.3332 -2.0697 0.9709
-3.2148 6.3287 -2.0747 0.9709
-3.4486 6.5860 -2.1728 0.9695
-3.5015 6.5876 -2.1804 0.9694
-3.4209 6.3410 -2.1058 0.9704
-3.6374 6.5472 -2.1890 0.9693
-3.7716 6.5953 -2.2205 0.9688
-3.8287 6.5999 -2.2300 0.9687
-3.9150 6.5604 -2.2329 0.9687
-4.0349 6.4848 -2.2323 0.9687
-4.1140 6.4332 -2.2318 0.9687
-4.1925 6.3807 -2.2314 0.9687
-4.3090 6.3001 -2.2308 0.9687
-4.3474 6.2727 -2.2306 0.9687
-4.3858 6.2452 -2.2304 0.9687
-4.4239 6.2174 -2.2302 0.9687
-4.5373 6.1326 -2.2296 0.9687
-4.7226 5.9867 -2.2286 0.9687
-4.7955 5.9268 -2.2282 0.9687
-4.9742 5.7733 -2.2273 0.9687
-5.0094 5.7419 -2.2271 0.9687
-5.0444 5.7103 -2.2269 0.9687
-5.0792 5.6785 -2.2267 0.9687
-5.1482 5.6144 -2.2263 0.9688
-5.2164 5.5493 -2.2260 0.9688
-5.2502 5.5165 -2.2258 0.9688
-5.2837 5.4835 -2.2256 0.9688
-5.3171 5.4503 -2.2254 0.9688
-5.3503 5.4168 -2.2253 0.9688
-5.3833 5.3832 -2.2251 0.9688
-5.4160 5.3494 -2.2249 0.9688
-5.4809 5.2812 -2.2245 0.9688
-5.5130 5.2467 -2.2244 0.9688
-5.5449 5.2122 -2.2242 0.9688
-5.5766 5.1774 -2.2240 0.9688
-5.6081 5.1424 -2.2238 0.9688
-5.6393 5.1072 -2.2237 0.9688
-5.6704 5.0718 -2.2235 0.9688
-5.7318 5.0006 -2.2232 0.9688
-5.7622 4.9646 -2.2230 0.9688
-5.7923 4.9285 -2.2228 0.9688
-5.8222 4.8923 -2.2227 0.9688
-5.8706 4.8712 -2.2296 0.9687
-6.4151 4.8702 -2.3540 0.9670
-6.4937 4.8668 -2.3718 0.9667
-6.5525 4.7854 -2.3715 0.9668
-6.5815 4.7445 -2.3713 0.9668
-6.6103 4.7034 -2.3711 0.9668
-6.6670 4.6206 -2.3708 0.9668
-6.6950 4.5790 -2.3706 0.9668
-6.7228 4.5372 -2.3705 0.9668
-6.7503 4.4952 -2.3703 0.9668
-6.7775 4.4531 -2.3702 0.9668
-6.8044 4.4108 -2.3700 0.9668
-6.8575 4.3258 -2.3697 0.9668
-6.8837 4.2830 -2.3696 0.9668
-6.9353 4.1970 -2.3693 0.9668
-6.9607 4.1538 -2.3691 0.9668
-6.9858 4.1104 -2.3690 0.9668
-7.0836 3.9354 -2.3684 0.9668
-7.1771 3.7581 -2.3678 0.9668
-7.1998 3.7134 -2.3677 0.9668
-7.2222 3.6686 -2.3676 0.9668
-7.2444 3.6237 -2.3674 0.9668
-7.2662 3.5786 -2.3673 0.9668
-7.3092 3.4881 -2.3670 0.9668
-7.3509 3.3971 -2.3668 0.9668
-7.4696 3.1211 -2.3660 0.9668
-7.4884 3.0746 -2.3659 0.9668
-7.5251 2.9815 -2.3657 0.9668
-7.5607 2.8879 -2.3655 0.9668
-7.5951 2.7939 -2.3653 0.9668
-7.6446 2.6522 -2.3649 0.9668
-7.6605 2.6048 -2.3648 0.9668
-7.6761 2.5572 -2.3647 0.9668
-7.6915 2.5096 -2.3646 0.9668
-7.7065 2.4619 -2.3645 0.9668
-7.7213 2.4141 -2.3644 0.9668
-7.7638 2.2701 -2.3641 0.9669
-7.7774 2.2220 -2.3640 0.9669
-7.8163 2.0771 -2.3638 0.9669
-7.8408 1.9801 -2.3636 0.9669
-7.8754 1.8341 -2.3633 0.9669
-7.8863 1.7853 -2.3633 0.9669
-7.9173 1.6385 -2.3630 0.9669
-7.9364 1.5404 -2.3629 0.9669
-7.9630 1.3928 -2.3627 0.9669
-7.9791 1.2941 -2.3625 0.9669
-7.9868 1.2447 -2.3625 0.9669
-7.9941 1.1953 -2.3624 0.9669
-8.0011 1.1458 -2.3623 0.9669
-8.0143 1.0467 -2.3622 0.9669
-8.0262 0.9474 -2.3621 0.9669
-8.0317 0.8977 -2.3620 0.9669
-8.0369 0.8480 -2.3620 0.9669
-8.0419 0.7983 -2.3619 0.9669
-8.0547 0.6489 -2.3618 0.9669
-8.0618 0.5492 -2.3617 0.9669
-8.0702 0.3996 -2.3616 0.9669
-8.0724 0.3496 -2.3615 0.9669
-8.0743 0.2997 -2.3615 0.9669
-8.0771 0.1998 -2.3614 0.9669
-8.0781 0.1499 -2.3614 0.9669
-7.8652 -0.0487 -2.3623 0.9677
-7.8575 -0.3404 -2.3622 0.9677
-7.8552 -0.3890 -2.3622 0.9677
-7.8526 -0.4375 -2.3622 0.9677
-7.8465 -0.5346 -2.3621 0.9677
-7.8430 -0.5831 -2.3621 0.9677
-7.8392 -0.6316 -2.3621 0.9677
-7.8352 -0.6801 -2.3621 0.9677
-7.8261 -0.7769 -2.3621 0.9677
-7.8158 -0.8737 -2.3621 0.9677
-7.8044 -0.9703 -2.3621 0.9677
-7.7984 -1.0185 -2.3621 0.9677
-7.7852 -1.1149 -2.3621 0.9677
-7.7781 -1.1630 -2.3621 0.9677
-7.7708 -1.2111 -2.3621 0.9677
-7.7386 -1.4030 -2.3622 0.9677
-7.7018 -1.5940 -2.3622 0.9677
-7.6711 -1.7367 -2.3623 0.9677
-7.6604 -1.7841 -2.3623 0.9677
-7.6492 -1.8315 -2.3623 0.9677
-7.6262 -1.9260 -2.3624 0.9677
-7.5501 -2.2077 -2.3626 0.9677
-7.5225 -2.3010 -2.3627 0.9677
-7.5083 -2.3476 -2.3627 0.9677
-7.4790 -2.4403 -2.3628 0.9677
-7.4485 -2.5327 -2.3629 0.9677
-7.4329 -2.5788 -2.3630 0.9677
-7.4008 -2.6707 -2.3631 0.9677
-7.3331 -2.8532 -2.3633 0.9677
-7.2795 -2.9889 -2.3635 0.9677
-7.2610 -3.0340 -2.3635 0.9677
-7.2423 -3.0789 -2.3636 0.9677
-7.2233 -3.1237 -2.3637 0.9677
-7.1846 -3.2130 -2.3638 0.9677
-7.1648 -3.2575 -2.3639 0.9677
-7.1244 -3.3461 -2.3640 0.9677
-7.1038 -3.3902 -2.3641 0.9677
-7.0829 -3.4342 -2.3642 0.9677
-7.0404 -3.5217 -2.3643 0.9677
-7.0187 -3.5653 -2.3644 0.9677
-6.9746 -3.6521 -2.3646 0.9677
-6.9294 -3.7384 -2.3648 0.9677
-6.9063 -3.7813 -2.3648 0.9677
-6.8118 -3.9516 -2.3652 0.9676
-6.7875 -3.9937 -2.3653 0.9676
-6.7629 -4.0358 -2.3654 0.9676
-6.7381 -4.0777 -2.3655 0.9676
-6.6877 -4.1611 -2.3657 0.9676
-6.6621 -4.2026 -2.3658 0.9676
-6.6363 -4.2439 -2.3659 0.9676
-6.6102 -4.2850 -2.3660 0.9676
-6.5839 -4.3260 -2.3661 0.9676
-6.5573 -4.3668 -2.3662 0.9676
-6.5305 -4.4075 -2.3663 0.9676
-6.4760 -4.4883 -2.3665 0.9676
-6.4485 -4.5285 -2.3666 0.9676
-6.4207 -4.5685 -2.3668 0.9676
-6.3926 -4.6084 -2.3669 0.9676
-6.3643 -4.6480 -2.3670 0.9676
-6.2779 -4.7660 -2.3673 0.9676
-6.2486 -4.8050 -2.3675 0.9676
-6.2191 -4.8438 -2.3676 0.9676
-6.0679 -5.0351 -2.3682 0.9676
-6.0371 -5.0728 -2.3683 0.9676
-6.0059 -5.1103 -2.3685 0.9676
-5.9429 -5.1848 -2.3687 0.9676
-5.8790 -5.2585 -2.3690 0.9676
-5.6818 -5.4749 -2.3698 0.9676
-5.6482 -5.5102 -2.3700 0.9676
-5.6144 -5.5454 -2.3701 0.9676
-5.5460 -5.6151 -2.3704 0.9676
-5.5116 -5.6496 -2.3706 0.9676
-5.4420 -5.7181 -2.3709 0.9676
-5.4068 -5.7520 -2.3710 0.9676
-5.3715 -5.7857 -2.3712 0.9676
-5.2642 -5.8855 -2.3716 0.9676
-5.2281 -5.9184 -2.3718 0.9676
-5.1552 -5.9834 -2.3721 0.9676
-5.0815 -6.0475 -2.3724 0.9675
-5.0070 -6.1107 -2.3727 0.9675
-4.8938 -6.2038 -2.3732 0.9675
-4.8557 -6.2344 -2.3734 0.9675
-4.8174 -6.2648 -2.3736 0.9675
-4.7402 -6.3248 -2.3739 0.9675
-4.6623 -6.3839 -2.3743 0.9675
-4.6231 -6.4130 -2.3744 0.9675
-4.5836 -6.4420 -2.3746 0.9675
-4.5441 -6.4707 -2.3748 0.9675
-4.5043 -6.4992 -2.3750 0.9675
-4.4243 -6.5554 -2.3753 0.9675
-4.3839 -6.5831 -2.3755 0.9675
-4.3029 -6.6378 -2.3759 0.9675
-4.2620 -6.6648 -2.3760 0.9675
-4.2211 -6.6916 -2.3762 0.9675
-4.1799 -6.7181 -2.3764 0.9675
-4.1386 -6.7443 -2.3766 0.9675
-4.0972 -6.7703 -2.3768 0.9675
-3.9718 -6.8468 -2.3774 0.9675
-3.9297 -6.8718 -2.3775 0.9675
-3.8450 -6.9209 -2.3779 0.9675
-3.8025 -6.9452 -2.3781 0.9675
-3.7169 -6.9928 -2.3785 0.9675
-3.6739 -7.0162 -2.3787 0.9675
-3.6307 -7.0394 -2.3789 0.9675
-3.5440 -7.0849 -2.3793 0.9675
-3.5004 -7.1073 -2.3795 0.9675
-3.4566 -7.1294 -2.3797 0.9675
-3.4128 -7.1513 -2.3799 0.9674
-3.3688 -7.1729 -2.3801 0.9674
-3.3246 -7.1942 -2.3803 0.9674
-3.2804 -7.2152 -2.3805 0.9674
-3.1915 -7.2565 -2.3809 0.9674
-3.0570 -7.3163 -2.3815 0.9674
-3.0120 -7.3357 -2.3817 0.9674
-2.9216 -7.3737 -2.3822 0.9674
-2.8762 -7.3923 -2.3824 0.9674
-2.7850 -7.4286 -2.3828 0.9674
-2.6474 -7.4810 -2.3834 0.9674
-2.6013 -7.4979 -2.3836 0.9674
-2.5551 -7.5145 -2.3839 0.9674
-2.4625 -7.5469 -2.3843 0.9674
-2.3694 -7.5782 -2.3847 0.9674
-2.2759 -7.6083 -2.3852 0.9674
-2.2290 -7.6229 -2.3854 0.9674
-2.1820 -7.6373 -2.3856 0.9674
-2.0877 -7.6651 -2.3860 0.9674
-2.0405 -7.6786 -2.3863 0.9674
-1.9932 -7.6917 -2.3865 0.9674
-1.9458 -7.7046 -2.3867 0.9674
-1.8506 -7.7296 -2.3872 0.9673
-1.8030 -7.7416 -2.3874 0.9673
-1.7074 -7.7648 -2.3878 0.9673
-1.4673 -7.8176 -2.3890 0.9673
-1.4190 -7.8273 -2.3892 0.9673
-1.3707 -7.8366 -2.3894 0.9673
-1.2254 -7.8630 -2.3901 0.9673
-1.1283 -7.8791 -2.3906 0.9673
-0.9822 -7.9010 -2.3913 0.9673
-0.9334 -7.9076 -2.3915 0.9673
-0.8846 -7.9140 -2.3917 0.9673
-0.7868 -7.9259 -2.3922 0.9673
-0.7378 -7.9314 -2.3924 0.9673
-0.6889 -7.9366 -2.3927 0.9673
-0.5417 -7.9504 -2.3934 0.9673
-0.4925 -7.9544 -2.3936 0.9673
-0.3942 -7.9614 -2.3941 0.9673
-0.1479 -7.9737 -2.3953 0.9672
-0.0986 -7.9753 -2.3955 0.9672
-0.0493 -7.9766 -2.3958 0.9672
0.0493 -7.9781 -2.3962 0.9672
0.0987 -7.9785 -2.3965 0.9672
0.1974 -7.9782 -2.3970 0.9672
0.2961 -7.9768 -2.3974 0.9672
0.3455 -7.9756 -2.3977 0.9672
0.4442 -7.9723 -2.3982 0.9672
0.4935 -7.9702 -2.3984 0.9672
0.5429 -7.9678 -2.3987 0.9672
0.6415 -7.9621 -2.3991 0.9672
0.7400 -7.9552 -2.3996 0.9672
0.7893 -7.9512 -2.3999 0.9672
0.8386 -7.9470 -2.4001 0.9672
0.9370 -7.9376 -2.4006 0.9672
1.0353 -7.9270 -2.4011 0.9672
1.1335 -7.9152 -2.4016 0.9672
1.1825 -7.9088 -2.4018 0.9672
1.2315 -7.9022 -2.4020 0.9671
1.2805 -7.8952 -2.4023 0.9671
1.3784 -7.8804 -2.4028 0.9671
1.4272 -7.8725 -2.4030 0.9671
1.5735 -7.8470 -2.4037 0.9671
1.6707 -7.8285 -2.4042 0.9671
1.7193 -7.8188 -2.4045 0.9671
1.8646 -7.7879 -2.4052 0.9671
1.9612 -7.7658 -2.4057 0.9671
2.0575 -7.7425 -2.4061 0.9671
2.1056 -7.7304 -2.4064 0.9671
2.1536 -7.7180 -2.4066 0.9671
2.2014 -7.7053 -2.4069 0.9671
2.3923 -7.6516 -2.4078 0.9671
2.4398 -7.6374 -2.4081 0.9671
2.4873 -7.6229 -2.4083 0.9671
2.5346 -7.6081 -2.4085 0.9671
2.5819 -7.5931 -2.4088 0.9671
2.6761 -7.5620 -2.4092 0.9671
2.8168 -7.5133 -2.4100 0.9670
2.9100 -7.4794 -2.4104 0.9670
3.0029 -7.4442 -2.4109 0.9670
3.0492 -7.4263 -2.4111 0.9670
3.1414 -7.3894 -2.4116 0.9670
3.1873 -7.3706 -2.4118 0.9670
3.2332 -7.3514 -2.4121 0.9670
3.2789 -7.3320 -2.4123 0.9670
3.3700 -7.2923 -2.4128 0.9670
3.5955 -7.1880 -2.4139 0.9670
3.6403 -7.1664 -2.4142 0.9670
3.6849 -7.1444 -2.4144 0.9670
3.7737 -7.0996 -2.4148 0.9670
3.8179 -7.0768 -2.4151 0.9670
3.9932 -6.9828 -2.4160 0.9670
4.0367 -6.9586 -2.4162 0.9670
4.1662 -6.8845 -2.4169 0.9670
4.2091 -6.8592 -2.4171 0.9669
4.2519 -6.8337 -2.4173 0.9669
4.2945 -6.8079 -2.4175 0.9669
4.4212 -6.7289 -2.4182 0.9669
4.5465 -6.6475 -2.4189 0.9669
4.6703 -6.5638 -2.4195 0.9669
4.7112 -6.5353 -2.4197 0.9669
4.7520 -6.5066 -2.4199 0.9669
4.7926 -6.4777 -2.4202 0.9669
4.8329 -6.4485 -2.4204 0.9669
4.8732 -6.4191 -2.4206 0.9669
4.9132 -6.3894 -2.4208 0.9669
4.9927 -6.3292 -2.4212 0.9669
5.0322 -6.2988 -2.4214 0.9669
5.1106 -6.2371 -2.4218 0.9669
5.1495 -6.2059 -2.4220 0.9669
5.3032 -6.0787 -2.4229 0.9669
5.4164 -5.9808 -2.4235 0.9669
5.4538 -5.9477 -2.4237 0.9669
5.4909 -5.9143 -2.4239 0.9669
5.5646 -5.8469 -2.4243 0.9669
5.6734 -5.7440 -2.4248 0.9668
5.8156 -5.6037 -2.4256 0.9668
5.9200 -5.4962 -2.4262 0.9668
5.9543 -5.4599 -2.4264 0.9668
6.0223 -5.3867 -2.4267 0.9668
6.0559 -5.3497 -2.4269 0.9668
6.0894 -5.3126 -2.4271 0.9668
6.2208 -5.1618 -2.4278 0.9668
6.3168 -5.0467 -2.4284 0.9668
6.3484 -5.0079 -2.4285 0.9668
6.4107 -4.9297 -2.4289 0.9668
6.4416 -4.8903 -2.4291 0.9668
6.4722 -4.8507 -2.4292 0.9668
6.5025 -4.8109 -2.4294 0.9668
6.5325 -4.7709 -2.4296 0.9668
6.5920 -4.6904 -2.4299 0.9668
6.6213 -4.6499 -2.4301 0.9668
6.6792 -4.5683 -2.4304 0.9668
6.7078 -4.5272 -2.4306 0.9668
6.7361 -4.4859 -2.4307 0.9668
6.8195 -4.3610 -2.4312 0.9668
6.8468 -4.3190 -2.4314 0.9668
7.0049 -4.0636 -2.4323 0.9667
7.0555 -3.9771 -2.4326 0.9667
7.1293 -3.8463 -2.4330 0.9667
7.2239 -3.6696 -2.4336 0.9667
7.2469 -3.6250 -2.4337 0.9667
7.2696 -3.5803 -2.4338 0.9667
7.2920 -3.5355 -2.4340 0.9667
7.3360 -3.4454 -2.4342 0.9667
7.3998 -3.3092 -2.4346 0.9667
7.4205 -3.2636 -2.4348 0.9667
7.5198 -3.0334 -2.4354 0.9667
7.5387 -2.9870 -2.4355 0.9667
7.5758 -2.8938 -2.4357 0.9667
7.6465 -2.7060 -2.4362 0.9667
7.6634 -2.6588 -2.4363 0.9667
7.6801 -2.6115 -2.4364 0.9667
7.6964 -2.5640 -2.4365 0.9667
7.7124 -2.5165 -2.4366 0.9667
7.7436 -2.4211 -2.4368 0.9667
7.8164 -2.1810 -2.4373 0.9667
7.8564 -2.0359 -2.4376 0.9667
7.8691 -1.9873 -2.4377 0.9667
7.8937 -1.8900 -2.4378 0.9667
7.9282 -1.7434 -2.4381 0.9667
7.9496 -1.6453 -2.4382 0.9667
7.9699 -1.5469 -2.4384 0.9667
7.9795 -1.4977 -2.4385 0.9667
7.9979 -1.3989 -2.4386 0.9667
8.0151 -1.3000 -2.4388 0.9667
8.0232 -1.2504 -2.4388 0.9667
8.0310 -1.2008 -2.4389 0.9667
8.0385 -1.1512 -2.4390 0.9667
8.0525 -1.0517 -2.4391 0.9667
8.0591 -1.0019 -2.4391 0.9667
8.0712 -0.9022 -2.4393 0.9666
8.0821 -0.8023 -2.4394 0.9666
8.0871 -0.7524 -2.4394 0.9666
8.1001 -0.6023 -2.4396 0.9666
8.1039 -0.5521 -2.4396 0.9666
8.1073 -0.5020 -2.4397 0.9666
8.1104 -0.4519 -2.4397 0.9666
8.1132 -0.4017 -2.4397 0.9666
8.1178 -0.3014 -2.4398 0.9666
8.1196 -0.2512 -2.4399 0.9666
8.1212 -0.2009 -2.4399 0.9666
8.1223 -0.1507 -2.4399 0.9666
8.1238 -0.0503 -2.4400 0.9666
8.1241 -0.0000 -2.4400 0.9666
8.1240 0.0502 -2.4401 0.9666
8.1236 0.1005 -2.4401 0.9666
8.1219 0.2009 -2.4401 0.9666
8.1147 0.4018 -2.4402 0.9666
8.1121 0.4520 -2.4402 0.9666
8.1060 0.5523 -2.4403 0.9666
8.0987 0.6525 -2.4403 0.9666
8.0945 0.7025 -2.4403 0.9666
8.0852 0.8026 -2.4403 0.9666
8.0747 0.9025 -2.4403 0.9666
8.0499 1.1020 -2.4403 0.9666
8.0429 1.1517 -2.4403 0.9666
8.0356 1.2015 -2.4403 0.9666
8.0032 1.3999 -2.4402 0.9666
7.9852 1.4987 -2.4402 0.9666
7.9757 1.5480 -2.4402 0.9666
7.9659 1.5973 -2.4402 0.9666
7.9558 1.6465 -2.4402 0.9666
7.9347 1.7448 -2.4401 0.9666
7.8888 1.9404 -2.4400 0.9666
7.8380 2.1348 -2.4399 0.9666
7.7966 2.2798 -2.4397 0.9666
7.7373 2.4717 -2.4396 0.9666
7.7217 2.5195 -2.4395 0.9666
7.6896 2.6147 -2.4394 0.9666
7.6563 2.7095 -2.4393 0.9666
7.6393 2.7567 -2.4392 0.9666
7.6219 2.8038 -2.4392 0.9667
7.6042 2.8508 -2.4391 0.9667
7.5115 3.0842 -2.4388 0.9667
7.4723 3.1767 -2.4387 0.9667
7.4523 3.2227 -2.4386 0.9667
7.4320 3.2686 -2.4385 0.9667
7.4115 3.3144 -2.4385 0.9667
7.3694 3.4056 -2.4383 0.9667
7.3043 3.5414 -2.4381 0.9667
7.2820 3.5864 -2.4380 0.9667
7.2366 3.6759 -2.4378 0.9667
7.1900 3.7649 -2.4376 0.9667
7.1424 3.8532 -2.4375 0.9667
7.0936 3.9410 -2.4373 0.9667
7.0689 3.9846 -2.4372 0.9667
7.0438 4.0281 -2.4371 0.9667
6.9670 4.1575 -2.4368 0.9667
6.9409 4.2004 -2.4367 0.9667
6.8337 4.3700 -2.4363 0.9667
6.8062 4.4120 -2.4361 0.9667
6.7505 4.4954 -2.4359 0.9667
6.6937 4.5781 -2.4357 0.9667
6.6360 4.6601 -2.4355 0.9667
6.5772 4.7414 -2.4352 0.9667
6.5474 4.7817 -2.4351 0.9667
6.4871 4.8619 -2.4349 0.9667
6.4566 4.9016 -2.4347 0.9667
6.3948 4.9806 -2.4345 0.9667
6.3635 5.0198 -2.4343 0.9667
6.3320 5.0587 -2.4342 0.9667
6.2360 5.1745 -2.4338 0.9667
6.1709 5.2506 -2.4335 0.9667
6.1177 5.2709 -2.4254 0.9668
6.0109 5.2441 -2.3958 0.9672
5.8057 5.1929 -2.3395 0.9680
5.7110 5.1721 -2.3141 0.9683
5.5586 5.1607 -2.2781 0.9688
5.5263 5.1946 -2.2780 0.9688
5.4609 5.2619 -2.2777 0.9688
5.2939 5.4266 -2.2770 0.9688
5.2600 5.4588 -2.2768 0.9688
5.0870 5.6170 -2.2761 0.9688
5.0518 5.6480 -2.2759 0.9688
4.9809 5.7092 -2.2756 0.9689
4.9452 5.7395 -2.2755 0.9689
4.8731 5.7995 -2.2751 0.9689
4.7637 5.8876 -2.2747 0.9689
4.7269 5.9165 -2.2745 0.9689
4.6527 5.9737 -2.2742 0.9689
4.6153 6.0019 -2.2740 0.9689
4.5777 6.0299 -2.2738 0.9689
4.5021 6.0852 -2.2735 0.9689
4.4641 6.1124 -2.2733 0.9689
4.3489 6.1928 -2.2728 0.9689
4.2714 6.2451 -2.2725 0.9689
4.2323 6.2710 -2.2723 0.9689
4.1931 6.2965 -2.2721 0.9689
4.1143 6.3469 -2.2718 0.9689
4.0747 6.3717 -2.2716 0.9689
4.0348 6.3963 -2.2714 0.9689
3.9949 6.4206 -2.2712 0.9689
3.9548 6.4447 -2.2710 0.9689
3.9146 6.4685 -2.2709 0.9689
3.8742 6.4921 -2.2707 0.9689
3.6701 6.6060 -2.2698 0.9689
3.4627 6.7136 -2.2688 0.9689
3.4208 6.7343 -2.2686 0.9689
3.3367 6.7749 -2.2682 0.9690
3.2521 6.8145 -2.2678 0.9690
3.1670 6.8530 -2.2675 0.9690
3.0815 6.8906 -2.2671 0.9690
3.0386 6.9089 -2.2669 0.9690
2.9956 6.9270 -2.2667 0.9690
2.9092 6.9624 -2.2664 0.9690
2.8659 6.9797 -2.2662 0.9690
2.8224 6.9967 -2.2660 0.9690
2.7788 7.0135 -2.2658 0.9690
2.6476 7.0621 -2.2652 0.9690
2.4713 7.1230 -2.2645 0.9690
2.2935 7.1794 -2.2637 0.9690
2.2489 7.1928 -2.2635 0.9690
2.2041 7.2060 -2.2633 0.9690
1.7667 6.0419 -1.8906 0.9741
2.0696 7.2437 -2.2627 0.9690
1.9795 7.2675 -2.2623 0.9690
1.5498 6.3007 -1.9488 0.9733
1.4750 6.3334 -1.9531 0.9732
1.4240 6.2902 -1.9371 0.9734
1.3870 6.3074 -1.9397 0.9734
1.3472 6.3124 -1.9386 0.9734
1.2193 6.0806 -1.8627 0.9744
1.2250 6.3111 -1.9309 0.9735
1.1392 6.2836 -1.9180 0.9737
0.9365 6.2633 -1.9021 0.9739
0.8736 6.1006 -1.8510 0.9746
0.8354 6.1028 -1.8500 0.9746
0.8073 6.1814 -1.8723 0.9743
0.7820 6.2901 -1.9037 0.9739
0.7385 6.2557 -1.8919 0.9740
0.7037 6.2958 -1.9027 0.9739
0.6684 6.3340 -1.9129 0.9737
0.5894 6.3358 -1.9111 0.9738
0.5483 6.3176 -1.9046 0.9739
0.5085 6.3115 -1.9018 0.9739
0.4707 6.3313 -1.9068 0.9738
0.3523 6.3238 -1.9023 0.9739
0.3137 6.3348 -1.9050 0.9739
0.2357 6.3509 -1.9088 0.9738
0.1580 6.3848 -1.9182 0.9737
0.0380 6.1415 -1.8446 0.9747
-0.0393 6.3443 -1.9055 0.9739
-0.0784 6.3328 -1.9022 0.9739
-0.1575 6.3656 -1.9125 0.9738
-0.1968 6.3613 -1.9115 0.9738
-0.3111 6.2832 -1.8895 0.9741
-0.4343 6.3746 -1.9190 0.9737
-0.4979 6.1796 -1.8620 0.9744
-0.5551 6.3953 -1.9280 0.9735
-0.5980 6.4280 -1.9390 0.9734
-0.6357 6.4035 -1.9327 0.9735
-0.7184 6.4272 -1.9424 0.9734
-0.9252 6.4609 -1.9603 0.9731
-1.2031 6.4104 -1.9590 0.9731
-1.2485 6.4323 -1.9680 0.9730
-1.4597 6.4479 -1.9856 0.9728
-1.6283 6.4478 -1.9974 0.9726
-1.6810 6.4872 -2.0128 0.9724
-1.7130 6.4463 -2.0033 0.9725
-1.7000 6.2416 -1.9429 0.9733
-1.8544 6.4906 -2.0274 0.9722
-1.9331 6.4623 -2.0259 0.9722
-1.9855 6.4912 -2.0388 0.9720
-2.0018 6.2661 -1.9757 0.9729
-2.1267 6.5180 -2.0592 0.9718
-2.2535 6.4952 -2.0649 0.9717
-2.3508 6.5145 -2.0801 0.9715
-2.4316 6.4859 -2.0804 0.9715
-2.4719 6.4715 -2.0807 0.9715
-2.7352 6.5459 -2.1308 0.9708
-2.7732 6.5232 -2.1289 0.9708
-2.7959 6.4652 -2.1156 0.9710
-2.8479 6.4752 -2.1246 0.9709
-2.8899 6.4620 -2.1261 0.9709
-2.9531 6.4953 -2.1430 0.9706
-3.0031 6.4983 -2.1501 0.9705
-2.9689 6.3213 -2.0976 0.9713
-3.3097 6.6167 -2.2221 0.9696
-3.4483 6.5855 -2.2327 0.9694
-3.4925 6.5706 -2.2349 0.9694
-3.4212 6.3414 -2.1641 0.9704
-3.4731 6.3435 -2.1721 0.9702
-3.6128 6.5029 -2.2343 0.9694
-3.6923 6.4565 -2.2339 0.9694
-3.7318 6.4330 -2.2337 0.9694
-3.8104 6.3851 -2.2333 0.9694
-3.8884 6.3364 -2.2329 0.9694
-3.9271 6.3117 -2.2327 0.9694
-3.9657 6.2867 -2.2325 0.9694
-4.0042 6.2615 -2.2323 0.9694
-4.0806 6.2103 -2.2319 0.9694
-4.1940 6.1320 -2.2313 0.9694
-4.2687 6.0785 -2.2309 0.9695
-4.3428 6.0242 -2.2305 0.9695
-4.4527 5.9410 -2.2299 0.9695
-4.5250 5.8845 -2.2295 0.9695
-4.5609 5.8559 -2.2293 0.9695
-4.5967 5.8271 -2.2291 0.9695
-4.7028 5.7394 -2.2286 0.9695
-4.7378 5.7097 -2.2284 0.9695
-4.8417 5.6194 -2.2278 0.9695
-4.8760 5.5889 -2.2277 0.9695
-4.9100 5.5582 -2.2275 0.9695
-4.9439 5.5273 -2.2273 0.9695
-5.0111 5.4648 -2.2269 0.9695
-5.0444 5.4333 -2.2267 0.9695
-5.0775 5.4015 -2.2266 0.9695
-5.2079 5.2726 -2.2259 0.9695
-5.2400 5.2399 -2.2257 0.9695
-5.2719 5.2070 -2.2255 0.9695
-5.3036 5.1739 -2.2253 0.9695
-5.3350 5.1406 -2.2252 0.9695
-5.3663 5.1071 -2.2250 0.9695
-5.3974 5.0734 -2.2248 0.9695
-5.4282 5.0396 -2.2247 0.9695
-5.4589 5.0055 -2.2245 0.9695
-5.4893 4.9713 -2.2243 0.9695
-5.5195 4.9369 -2.2242 0.9695
-5.5794 4.8675 -2.2238 0.9695
-5.7754 4.8529 -2.2657 0.9690
-5.9243 4.8543 -2.3004 0.9685
-6.2921 4.7768 -2.3727 0.9675
-6.3211 4.7374 -2.3725 0.9675
-6.3783 4.6583 -2.3722 0.9676
-6.4066 4.6184 -2.3721 0.9676
-6.4346 4.5784 -2.3719 0.9676
-6.4624 4.5382 -2.3717 0.9676
-6.5442 4.4167 -2.3713 0.9676
-6.5709 4.3759 -2.3711 0.9676
-6.5974 4.3348 -2.3710 0.9676
-6.6237 4.2937 -2.3708 0.9676
-6.7512 4.0856 -2.3701 0.9676
-6.8004 4.0013 -2.3698 0.9676
-6.8246 3.9589 -2.3697 0.9676
-6.8722 3.8737 -2.3694 0.9676
-6.9188 3.7880 -2.3691 0.9676
-6.9417 3.7449 -2.3690 0.9676
-6.9643 3.7017 -2.3688 0.9676
-7.0088 3.6149 -2.3686 0.9676
-7.0306 3.5713 -2.3684 0.9676
-7.0735 3.4837 -2.3682 0.9676
-7.1152 3.3956 -2.3679 0.9676
-7.1357 3.3513 -2.3678 0.9676
-7.1759 3.2625 -2.3676 0.9676
-7.2150 3.1732 -2.3673 0.9676
-7.2341 3.1283 -2.3672 0.9676
-7.2715 3.0383 -2.3670 0.9676
-7.2898 2.9931 -2.3668 0.9676
-7.3256 2.9025 -2.3666 0.9676
-7.3431 2.8570 -2.3665 0.9676
-7.3937 2.7199 -2.3662 0.9676
-7.4101 2.6740 -2.3661 0.9676
-7.4262 2.6280 -2.3660 0.9676
-7.4420 2.5819 -2.3659 0.9676
-7.4727 2.4895 -2.3657 0.9676
-7.4876 2.4431 -2.3656 0.9676
-7.5023 2.3967 -2.3655 0.9676
-7.5581 2.2100 -2.3651 0.9676
-7.5969 2.0692 -2.3648 0.9677
-7.6214 1.9749 -2.3647 0.9677
-7.6331 1.9277 -2.3646 0.9677
-7.6447 1.8804 -2.3645 0.9677
-7.6559 1.8330 -2.3644 0.9677
-7.6775 1.7380 -2.3642 0.9677
-7.6878 1.6905 -2.3642 0.9677
-7.7263 1.4996 -2.3639 0.9677
-7.7352 1.4518 -2.3638 0.9677
-7.7438 1.4038 -2.3637 0.9677
-7.7521 1.3559 -2.3637 0.9677
-7.7753 1.2118 -2.3635 0.9677
-7.7824 1.1636 -2.3634 0.9677
-7.7958 1.0672 -2.3633 0.9677
-7.8021 1.0190 -2.3632 0.9677
-7.8081 0.9707 -2.3632 0.9677
-7.8191 0.8740 -2.3631 0.9677
-7.8335 0.7287 -2.3629 0.9677
-7.8377 0.6803 -2.3629 0.9677
-7.8485 0.5347 -2.3627 0.9677
-7.8515 0.4862 -2.3627 0.9677
-7.8542 0.4376 -2.3626 0.9677
-7.8621 0.2432 -2.3625 0.9677
-7.8644 0.1459 -2.3624 0.9677
-7.8650 0.0973 -2.3624 0.9677
-7.6615 -0.0474 -2.3633 0.9684
-7.6602 -0.1422 -2.3633 0.9684
-7.6577 -0.2369 -2.3632 0.9684
-7.6541 -0.3316 -2.3632 0.9684
-7.6518 -0.3789 -2.3632 0.9684
-7.6465 -0.4735 -2.3631 0.9684
-7.6433 -0.5208 -2.3631 0.9684
-7.6400 -0.5680 -2.3631 0.9684
-7.6235 -0.7568 -2.3631 0.9684
-7.6186 -0.8040 -2.3631 0.9684
-7.6135 -0.8510 -2.3631 0.9684
-7.6081 -0.8981 -2.3631 0.9684
-7.6024 -0.9451 -2.3631 0.9684
-7.5964 -0.9922 -2.3631 0.9684
-7.5901 -1.0391 -2.3631 0.9684
-7.5836 -1.0860 -2.3631 0.9684
-7.5767 -1.1329 -2.3631 0.9684
-7.5622 -1.2265 -2.3631 0.9684
-7.5545 -1.2733 -2.3631 0.9684
-7.5383 -1.3666 -2.3632 0.9684
-7.5209 -1.4598 -2.3632 0.9684
-7.5024 -1.5527 -2.3632 0.9684
-7.4927 -1.5991 -2.3632 0.9684
-7.4828 -1.6454 -2.3633 0.9684
-7.4620 -1.7379 -2.3633 0.9684
-7.4512 -1.7840 -2.3633 0.9684
-7.4401 -1.8301 -2.3634 0.9684
-7.4287 -1.8761 -2.3634 0.9684
-7.4171 -1.9220 -2.3634 0.9684
-7.3929 -2.0137 -2.3635 0.9684
-7.3804 -2.0594 -2.3635 0.9684
-7.3677 -2.1050 -2.3636 0.9684
-7.3546 -2.1506 -2.3636 0.9684
-7.3413 -2.1960 -2.3636 0.9684
-7.2997 -2.3320 -2.3638 0.9684
-7.2853 -2.3771 -2.3638 0.9684
-7.2090 -2.6015 -2.3640 0.9684
-7.1930 -2.6461 -2.3641 0.9684
-7.1767 -2.6906 -2.3642 0.9684
-7.1600 -2.7350 -2.3642 0.9684
-7.1260 -2.8234 -2.3643 0.9684
-7.0730 -2.9554 -2.3645 0.9684
-7.0175 -3.0864 -2.3647 0.9684
-6.9792 -3.1731 -2.3648 0.9684
-6.9398 -3.2594 -2.3650 0.9684
-6.9197 -3.3023 -2.3651 0.9684
-6.8994 -3.3452 -2.3651 0.9684
-6.7938 -3.5575 -2.3655 0.9684
-6.7719 -3.5995 -2.3656 0.9684
-6.7498 -3.6415 -2.3657 0.9684
-6.6818 -3.7665 -2.3659 0.9684
-6.6586 -3.8079 -2.3660 0.9684
-6.5143 -4.0532 -2.3666 0.9684
-6.4894 -4.0936 -2.3667 0.9684
-6.4642 -4.1338 -2.3668 0.9684
-6.4388 -4.1739 -2.3669 0.9684
-6.4132 -4.2138 -2.3670 0.9684
-6.3872 -4.2536 -2.3671 0.9684
-6.3611 -4.2932 -2.3672 0.9684
-6.2812 -4.4111 -2.3675 0.9684
-6.1992 -4.5275 -2.3679 0.9684
-6.1433 -4.6042 -2.3681 0.9684
-6.1150 -4.6424 -2.3682 0.9684
-6.0865 -4.6803 -2.3683 0.9684
-6.0577 -4.7181 -2.3684 0.9684
-5.9995 -4.7931 -2.3687 0.9684
-5.9701 -4.8304 -2.3688 0.9684
-5.9105 -4.9044 -2.3690 0.9684
-5.8803 -4.9411 -2.3692 0.9684
-5.8500 -4.9776 -2.3693 0.9684
-5.8194 -5.0140 -2.3694 0.9684
-5.7886 -5.0501 -2.3696 0.9684
-5.7576 -5.0861 -2.3697 0.9684
-5.6949 -5.1575 -2.3699 0.9683
-5.6313 -5.2282 -2.3702 0.9683
-5.5668 -5.2980 -2.3705 0.9683
-5.5343 -5.3327 -2.3706 0.9683
-5.5015 -5.3671 -2.3708 0.9683
-5.4354 -5.4354 -2.3710 0.9683
-5.4020 -5.4692 -2.3712 0.9683
-5.3684 -5.5029 -2.3713 0.9683
-5.3005 -5.5695 -2.3716 0.9683
-5.2663 -5.6025 -2.3718 0.9683
-5.2319 -5.6354 -2.3719 0.9683
-5.1973 -5.6680 -2.3721 0.9683
-5.1624 -5.7004 -2.3722 0.9683
-5.1275 -5.7325 -2.3724 0.9683
-5.0568 -5.7963 -2.3727 0.9683
-5.0212 -5.8278 -2.3728 0.9683
-4.9854 -5.8591 -2.3730 0.9683
-4.9132 -5.9211 -2.3733 0.9683
-4.8035 -6.0125 -2.3738 0.9683
-4.7294 -6.0723 -2.3741 0.9683
-4.6546 -6.1312 -2.3744 0.9683
-4.5410 -6.2178 -2.3749 0.9683
-4.4258 -6.3023 -2.3755 0.9683
