ply
format ascii 1.0
element vertex 1538
property float32 x
property float32 y
property float32 z
property float32 I
end_header
-7.5197 14.5795 -2.2425 0.9359
-7.6531 14.3981 -2.2290 0.9363
-7.1179 12.8118 -2.0036 0.9425
-7.9258 14.0606 -2.2064 0.9369
-8.0480 14.0732 -2.2162 0.9366
-8.4839 14.0190 -2.2400 0.9360
-6.9112 11.1077 -1.7883 0.9486
-7.2628 11.5134 -1.8609 0.9465
-4.8216 7.4381 -1.2117 0.9648
-9.0763 13.6293 -2.2385 0.9360
-9.1595 13.5716 -2.2382 0.9360
-9.2424 13.5133 -2.2380 0.9360
-9.3249 13.4546 -2.2378 0.9360
-9.4887 13.3356 -2.2374 0.9361
-9.6510 13.2146 -2.2369 0.9361
-5.5859 7.3580 -1.2629 0.9634
-5.8352 7.5884 -1.3086 0.9621
-5.6523 7.2573 -1.2575 0.9635
-5.6998 7.2256 -1.2581 0.9635
-5.7640 7.2147 -1.2624 0.9634
-6.0912 7.2491 -1.2943 0.9625
-6.1226 7.0179 -1.2731 0.9631
-6.4661 7.3198 -1.3351 0.9613
-6.2339 6.9696 -1.2783 0.9630
-6.4918 7.1682 -1.3220 0.9617
-6.4635 6.8761 -1.2901 0.9626
-6.5341 6.8657 -1.2956 0.9625
-6.5967 6.8461 -1.2996 0.9623
-6.6396 6.8059 -1.2998 0.9623
-6.7783 6.7783 -1.3104 0.9620
-7.0523 6.9656 -1.3550 0.9608
-7.2721 7.0072 -1.3805 0.9600
-7.2164 6.8679 -1.3618 0.9606
-7.3152 6.8763 -1.3724 0.9603
-7.4887 6.9526 -1.3969 0.9596
-7.5371 6.9113 -1.3979 0.9596
-7.6348 6.8290 -1.4003 0.9595
-7.8161 6.8190 -1.4179 0.9590
-7.7603 6.6031 -1.3929 0.9597
-8.4522 6.9257 -1.4938 0.9568
-8.5261 6.8985 -1.4992 0.9567
-8.6849 6.8510 -1.5122 0.9563
-8.7781 6.8369 -1.5210 0.9561
-8.8841 6.8316 -1.5320 0.9558
-9.0090 6.6653 -1.5320 0.9558
-9.2637 6.6780 -1.5611 0.9549
-9.6756 6.7058 -1.6093 0.9536
-10.2390 6.9104 -1.6886 0.9514
-10.4105 6.9328 -1.7098 0.9508
-10.5781 6.9504 -1.7303 0.9502
-10.7547 6.8775 -1.7451 0.9498
-11.3433 6.9608 -1.8193 0.9477
-11.6238 7.0344 -1.8573 0.9466
-11.8262 7.0573 -1.8826 0.9459
-11.5562 6.7996 -1.8329 0.9473
-12.0025 6.9627 -1.8968 0.9455
-12.1118 6.8273 -1.9006 0.9454
-12.8343 7.1303 -2.0070 0.9424
-12.9204 6.8676 -2.0002 0.9426
-13.7343 7.0837 -2.1125 0.9395
-13.5841 6.9003 -2.0828 0.9403
-14.6024 7.0799 -2.2184 0.9366
-14.6448 6.9889 -2.2182 0.9366
-14.7688 6.7146 -2.2178 0.9366
-14.8090 6.6226 -2.2176 0.9366
-14.8486 6.5305 -2.2175 0.9366
-14.8877 6.4381 -2.2173 0.9366
-14.9262 6.3455 -2.2172 0.9366
-14.9642 6.2526 -2.2170 0.9366
-15.0015 6.1596 -2.2169 0.9366
-15.1102 5.8790 -2.2164 0.9366
-15.1453 5.7851 -2.2163 0.9366
-15.1797 5.6909 -2.2161 0.9366
-15.2137 5.5966 -2.2160 0.9367
-15.2714 5.5108 -2.2194 0.9366
-15.2798 5.4073 -2.2157 0.9367
-15.7800 5.3656 -2.2784 0.9349
-16.1390 5.3767 -2.3254 0.9336
-16.4812 5.2651 -2.3652 0.9325
-16.5125 5.1627 -2.3650 0.9325
-16.6313 4.7516 -2.3645 0.9326
-16.6594 4.6484 -2.3643 0.9326
-16.6869 4.5451 -2.3642 0.9326
-16.7137 4.4415 -2.3641 0.9326
-16.7655 4.2340 -2.3638 0.9326
-16.8148 4.0259 -2.3636 0.9326
-16.8615 3.8172 -2.3633 0.9326
-16.9672 3.2933 -2.3627 0.9326
-17.0050 3.0828 -2.3625 0.9326
-17.0569 2.7664 -2.3622 0.9326
-17.0729 2.6608 -2.3620 0.9326
-17.0882 2.5550 -2.3619 0.9326
-17.1304 2.2373 -2.3616 0.9326
-17.1553 2.0251 -2.3614 0.9326
-17.1668 1.9189 -2.3613 0.9326
-17.1879 1.7063 -2.3611 0.9326
-17.2146 1.3870 -2.3609 0.9327
-17.2354 1.0672 -2.3606 0.9327
-17.2411 0.9606 -2.3605 0.9327
-17.2461 0.8539 -2.3604 0.9327
-17.2542 0.6405 -2.3603 0.9327
-17.2572 0.5338 -2.3602 0.9327
-17.2596 0.4270 -2.3601 0.9327
-17.2614 0.3203 -2.3601 0.9327
-17.2625 0.2135 -2.3600 0.9327
-16.3673 -0.3037 -2.3617 0.9360
-16.3647 -0.4049 -2.3617 0.9360
-16.3614 -0.5061 -2.3616 0.9360
-16.3576 -0.6072 -2.3616 0.9360
-16.3480 -0.8093 -2.3615 0.9360
-16.3424 -0.9106 -2.3614 0.9360
-16.3361 -1.0116 -2.3614 0.9360
-16.3292 -1.1125 -2.3613 0.9360
-16.3216 -1.2135 -2.3613 0.9360
-16.3135 -1.3144 -2.3612 0.9360
-16.3047 -1.4152 -2.3612 0.9360
-16.2954 -1.5160 -2.3611 0.9360
-16.2748 -1.7173 -2.3610 0.9360
-16.2636 -1.8179 -2.3610 0.9360
-16.2393 -2.0189 -2.3609 0.9360
-16.2126 -2.2195 -2.3608 0.9360
-16.1520 -2.6197 -2.3607 0.9360
-16.1179 -2.8192 -2.3607 0.9360
-16.1001 -2.9188 -2.3606 0.9360
-16.0816 -3.0183 -2.3606 0.9360
-16.0624 -3.1177 -2.3606 0.9360
-16.0427 -3.2169 -2.3606 0.9360
-16.0224 -3.3160 -2.3606 0.9360
-16.0015 -3.4150 -2.3606 0.9360
-15.9799 -3.5139 -2.3605 0.9360
-15.9578 -3.6126 -2.3605 0.9360
-15.9118 -3.8097 -2.3605 0.9360
-15.8125 -4.2020 -2.3605 0.9360
-15.7862 -4.2997 -2.3605 0.9360
-15.7318 -4.4947 -2.3605 0.9360
-15.6750 -4.6889 -2.3605 0.9360
-15.5545 -5.0752 -2.3605 0.9360
-15.4906 -5.2673 -2.3605 0.9360
-15.3906 -5.5538 -2.3606 0.9360
-15.3560 -5.6490 -2.3606 0.9360
-15.3209 -5.7439 -2.3606 0.9360
-15.2122 -6.0273 -2.3607 0.9360
-15.1748 -6.1213 -2.3607 0.9360
-15.1368 -6.2151 -2.3607 0.9360
-15.0983 -6.3087 -2.3608 0.9360
-15.0195 -6.4951 -2.3608 0.9360
-14.9792 -6.5880 -2.3609 0.9360
-14.8552 -6.8650 -2.3610 0.9360
-14.7696 -7.0485 -2.3610 0.9360
-14.7260 -7.1398 -2.3611 0.9360
-14.6371 -7.3217 -2.3612 0.9360
-14.5460 -7.5025 -2.3613 0.9360
-14.4527 -7.6821 -2.3614 0.9360
-14.4053 -7.7715 -2.3614 0.9360
-14.3573 -7.8606 -2.3615 0.9360
-14.3087 -7.9495 -2.3615 0.9360
-14.2596 -8.0380 -2.3616 0.9360
-14.1599 -8.2142 -2.3617 0.9360
-14.1091 -8.3018 -2.3618 0.9360
-14.0579 -8.3891 -2.3618 0.9360
-13.9010 -8.6492 -2.3620 0.9360
-13.7938 -8.8210 -2.3622 0.9360
-13.6845 -8.9914 -2.3623 0.9360
-13.5166 -9.2447 -2.3626 0.9360
-13.4597 -9.3284 -2.3626 0.9360
-13.4021 -9.4118 -2.3627 0.9360
-13.2857 -9.5775 -2.3629 0.9360
-13.2267 -9.6598 -2.3630 0.9360
-13.1671 -9.7418 -2.3630 0.9359
-12.8621 -10.1461 -2.3635 0.9359
-12.7997 -10.2259 -2.3636 0.9359
-12.7367 -10.3053 -2.3637 0.9359
-12.6093 -10.4629 -2.3639 0.9359
-12.4800 -10.6190 -2.3641 0.9359
-12.4146 -10.6964 -2.3642 0.9359
-12.1484 -11.0022 -2.3646 0.9359
-12.0807 -11.0776 -2.3647 0.9359
-11.9439 -11.2272 -2.3649 0.9359
-11.8749 -11.3014 -2.3651 0.9359
-11.5940 -11.5940 -2.3655 0.9359
-11.3786 -11.8089 -2.3659 0.9359
-11.2329 -11.9500 -2.3661 0.9359
-11.0855 -12.0893 -2.3664 0.9359
-11.0111 -12.1583 -2.3665 0.9359
-10.9363 -12.2268 -2.3667 0.9359
-10.8611 -12.2949 -2.3668 0.9359
-10.7854 -12.3625 -2.3669 0.9358
-10.7094 -12.4297 -2.3671 0.9358
-10.3230 -12.7586 -2.3678 0.9358
-10.2445 -12.8230 -2.3679 0.9358
-10.1656 -12.8868 -2.3680 0.9358
-10.0863 -12.9503 -2.3682 0.9358
-9.9267 -13.0757 -2.3685 0.9358
-9.7654 -13.1991 -2.3688 0.9358
-9.6026 -13.3206 -2.3691 0.9358
-9.2726 -13.5576 -2.3697 0.9358
-9.1892 -13.6156 -2.3699 0.9358
-9.1055 -13.6731 -2.3700 0.9358
-8.8521 -13.8425 -2.3705 0.9358
-8.7669 -13.8979 -2.3707 0.9357
-8.6814 -13.9528 -2.3708 0.9357
-8.5094 -14.0611 -2.3712 0.9357
-8.1613 -14.2714 -2.3719 0.9357
-7.9854 -14.3734 -2.3722 0.9357
-7.8969 -14.4235 -2.3724 0.9357
-7.8081 -14.4731 -2.3726 0.9357
-7.7191 -14.5222 -2.3727 0.9357
-7.6298 -14.5707 -2.3729 0.9357
-7.5401 -14.6188 -2.3731 0.9357
-7.3597 -14.7132 -2.3735 0.9357
-7.2691 -14.7596 -2.3736 0.9357
-7.1783 -14.8054 -2.3738 0.9357
-6.9957 -14.8954 -2.3742 0.9357
-6.9040 -14.9395 -2.3744 0.9357
-6.8120 -14.9831 -2.3746 0.9356
-6.4414 -15.1519 -2.3753 0.9356
-6.3481 -15.1927 -2.3755 0.9356
-6.2546 -15.2329 -2.3757 0.9356
-6.0667 -15.3116 -2.3761 0.9356
-5.9723 -15.3501 -2.3763 0.9356
-5.7830 -15.4254 -2.3767 0.9356
-5.6880 -15.4622 -2.3769 0.9356
-5.2095 -15.6373 -2.3779 0.9356
-5.0165 -15.7032 -2.3783 0.9355
-4.8228 -15.7668 -2.3787 0.9355
-4.7256 -15.7977 -2.3790 0.9355
-4.5306 -15.8578 -2.3794 0.9355
-4.4328 -15.8869 -2.3796 0.9355
-4.2368 -15.9434 -2.3800 0.9355
-4.0400 -15.9974 -2.3804 0.9355
-3.9414 -16.0235 -2.3807 0.9355
-3.8425 -16.0491 -2.3809 0.9355
-3.5451 -16.1220 -2.3815 0.9355
-3.3461 -16.1676 -2.3820 0.9355
-3.1464 -16.2108 -2.3824 0.9354
-2.8459 -16.2709 -2.3831 0.9354
-2.7455 -16.2898 -2.3833 0.9354
-2.6450 -16.3080 -2.3835 0.9354
-2.5443 -16.3256 -2.3837 0.9354
-2.1406 -16.3897 -2.3847 0.9354
-2.0394 -16.4042 -2.3849 0.9354
-1.8367 -16.4314 -2.3853 0.9354
-1.7351 -16.4440 -2.3856 0.9354
-1.6336 -16.4560 -2.3858 0.9354
-1.4302 -16.4782 -2.3863 0.9353
-1.3284 -16.4883 -2.3865 0.9353
-1.2266 -16.4978 -2.3867 0.9353
-1.1246 -16.5067 -2.3870 0.9353
-1.0226 -16.5150 -2.3872 0.9353
-0.8184 -16.5296 -2.3877 0.9353
-0.7163 -16.5360 -2.3879 0.9353
-0.6141 -16.5418 -2.3882 0.9353
-0.3071 -16.5553 -2.3889 0.9353
-0.2048 -16.5586 -2.3891 0.9353
0.1025 -16.5645 -2.3898 0.9352
0.2049 -16.5652 -2.3901 0.9352
0.6148 -16.5618 -2.3910 0.9352
0.7173 -16.5593 -2.3913 0.9352
1.0247 -16.5483 -2.3920 0.9352
1.1271 -16.5433 -2.3923 0.9352
1.3319 -16.5315 -2.3928 0.9352
1.4343 -16.5246 -2.3930 0.9352
1.5366 -16.5171 -2.3932 0.9352
1.9455 -16.4809 -2.3942 0.9351
2.2516 -16.4471 -2.3950 0.9351
2.8620 -16.3624 -2.3965 0.9351
2.9634 -16.3461 -2.3967 0.9351
3.3683 -16.2747 -2.3977 0.9350
3.4692 -16.2552 -2.3980 0.9350
3.5700 -16.2351 -2.3982 0.9350
3.6707 -16.2145 -2.3985 0.9350
3.9722 -16.1486 -2.3992 0.9350
4.0724 -16.1255 -2.3995 0.9350
4.1725 -16.1017 -2.3997 0.9350
4.2724 -16.0773 -2.4000 0.9350
4.3722 -16.0522 -2.4002 0.9350
4.5713 -16.0003 -2.4008 0.9350
4.6707 -15.9733 -2.4010 0.9350
4.7699 -15.9459 -2.4013 0.9349
4.8690 -15.9177 -2.4015 0.9349
4.9678 -15.8890 -2.4018 0.9349
5.0665 -15.8596 -2.4020 0.9349
5.5573 -15.7036 -2.4033 0.9349
5.7523 -15.6370 -2.4038 0.9349
5.8495 -15.6027 -2.4040 0.9349
6.0433 -15.5325 -2.4045 0.9349
6.1399 -15.4964 -2.4048 0.9349
6.2363 -15.4598 -2.4050 0.9348
6.3324 -15.4225 -2.4053 0.9348
6.4284 -15.3847 -2.4055 0.9348
6.5241 -15.3462 -2.4058 0.9348
6.6196 -15.3072 -2.4060 0.9348
7.1873 -15.0605 -2.4075 0.9348
7.3746 -14.9735 -2.4080 0.9348
7.5608 -14.8843 -2.4085 0.9348
7.6534 -14.8387 -2.4088 0.9347
7.8380 -14.7460 -2.4093 0.9347
8.0215 -14.6509 -2.4098 0.9347
8.3848 -14.4540 -2.4108 0.9347
8.4749 -14.4033 -2.4110 0.9347
8.5647 -14.3521 -2.4113 0.9347
8.6542 -14.3003 -2.4115 0.9347
8.7433 -14.2480 -2.4118 0.9347
8.8322 -14.1951 -2.4120 0.9347
8.9206 -14.1416 -2.4122 0.9347
9.0088 -14.0876 -2.4125 0.9347
9.1843 -13.9779 -2.4130 0.9346
9.2715 -13.9223 -2.4132 0.9346
9.7023 -13.6358 -2.4144 0.9346
9.7874 -13.5769 -2.4147 0.9346
9.8722 -13.5174 -2.4149 0.9346
9.9565 -13.4574 -2.4151 0.9346
10.2075 -13.2743 -2.4159 0.9346
10.7798 -12.8289 -2.4175 0.9345
11.0980 -12.5631 -2.4184 0.9345
11.2547 -12.4273 -2.4189 0.9345
11.3324 -12.3586 -2.4191 0.9345
11.6390 -12.0791 -2.4200 0.9345
11.7897 -11.9364 -2.4205 0.9344
11.8644 -11.8643 -2.4207 0.9344
12.0124 -11.7189 -2.4211 0.9344
12.0858 -11.6454 -2.4214 0.9344
12.1587 -11.5715 -2.4216 0.9344
12.5163 -11.1951 -2.4227 0.9344
12.5864 -11.1185 -2.4229 0.9344
12.7252 -10.9640 -2.4233 0.9344
12.7939 -10.8860 -2.4235 0.9344
12.8621 -10.8076 -2.4238 0.9344
12.9298 -10.7288 -2.4240 0.9344
12.9971 -10.6496 -2.4242 0.9343
13.1300 -10.4898 -2.4246 0.9343
13.1958 -10.4093 -2.4248 0.9343
13.2610 -10.3284 -2.4250 0.9343
13.3258 -10.2471 -2.4252 0.9343
13.3900 -10.1653 -2.4254 0.9343
13.5170 -10.0006 -2.4258 0.9343
13.5797 -9.9176 -2.4260 0.9343
13.6419 -9.8343 -2.4262 0.9343
13.7037 -9.7506 -2.4264 0.9343
13.8254 -9.5819 -2.4268 0.9343
14.0043 -9.3260 -2.4274 0.9343
14.1208 -9.1536 -2.4278 0.9343
14.1782 -9.0668 -2.4280 0.9342
14.2352 -8.9797 -2.4282 0.9342
14.2916 -8.8922 -2.4284 0.9342
14.4027 -8.7161 -2.4288 0.9342
14.4574 -8.6275 -2.4290 0.9342
14.5116 -8.5386 -2.4291 0.9342
14.6183 -8.3597 -2.4295 0.9342
14.6709 -8.2698 -2.4297 0.9342
14.7229 -8.1795 -2.4299 0.9342
14.7743 -8.0889 -2.4301 0.9342
14.8251 -7.9980 -2.4302 0.9342
14.8754 -7.9067 -2.4304 0.9342
14.9251 -7.8151 -2.4306 0.9342
15.1182 -7.4458 -2.4313 0.9342
15.1650 -7.3526 -2.4315 0.9342
15.2112 -7.2592 -2.4316 0.9342
15.2569 -7.1655 -2.4318 0.9341
15.4337 -6.7878 -2.4325 0.9341
15.4765 -6.6927 -2.4326 0.9341
15.5601 -6.5016 -2.4330 0.9341
15.6811 -6.2131 -2.4334 0.9341
15.7203 -6.1164 -2.4336 0.9341
15.7588 -6.0194 -2.4338 0.9341
15.7967 -5.9223 -2.4339 0.9341
15.8340 -5.8248 -2.4341 0.9341
15.8707 -5.7271 -2.4342 0.9341
15.9068 -5.6292 -2.4344 0.9341
15.9423 -5.5311 -2.4345 0.9341
15.9772 -5.4327 -2.4347 0.9341
16.0450 -5.2353 -2.4350 0.9341
16.0781 -5.1363 -2.4351 0.9341
16.1104 -5.0371 -2.4352 0.9341
16.1422 -4.9376 -2.4354 0.9341
16.1734 -4.8380 -2.4355 0.9341
16.2338 -4.6381 -2.4358 0.9340
16.2631 -4.5378 -2.4359 0.9340
16.2917 -4.4374 -2.4361 0.9340
16.3197 -4.3368 -2.4362 0.9340
16.3471 -4.2360 -2.4363 0.9340
16.4255 -3.9327 -2.4367 0.9340
16.5212 -3.5259 -2.4372 0.9340
16.5435 -3.4238 -2.4373 0.9340
16.6065 -3.1168 -2.4377 0.9340
16.6263 -3.0142 -2.4378 0.9340
16.6987 -2.6025 -2.4382 0.9340
16.7153 -2.4993 -2.4383 0.9340
16.7609 -2.1890 -2.4387 0.9340
16.7748 -2.0854 -2.4388 0.9340
16.7881 -1.9817 -2.4389 0.9340
16.8007 -1.8780 -2.4390 0.9340
16.8127 -1.7741 -2.4391 0.9340
16.8346 -1.5661 -2.4392 0.9340
16.8540 -1.3579 -2.4394 0.9339
16.8627 -1.2537 -2.4395 0.9339
16.8781 -1.0451 -2.4397 0.9339
16.9114 -0.3138 -2.4403 0.9339
16.9150 -0.1046 -2.4404 0.9339
16.9159 -0.0000 -2.4405 0.9339
16.9155 0.2092 -2.4406 0.9339
16.9144 0.3138 -2.4407 0.9339
16.9101 0.5230 -2.4408 0.9339
16.9070 0.6276 -2.4409 0.9339
16.9032 0.7322 -2.4409 0.9339
16.8814 1.1502 -2.4412 0.9339
16.8667 1.3589 -2.4413 0.9339
16.8181 1.8799 -2.4415 0.9339
16.8065 1.9839 -2.4415 0.9339
16.7065 2.7097 -2.4418 0.9339
16.6896 2.8130 -2.4418 0.9339
16.6351 3.1222 -2.4419 0.9339
16.5533 3.5328 -2.4420 0.9339
16.5313 3.6351 -2.4420 0.9339
16.5086 3.7373 -2.4420 0.9339
16.4367 4.0430 -2.4420 0.9339
16.4114 4.1446 -2.4420 0.9339
16.3855 4.2460 -2.4420 0.9339
16.3589 4.3472 -2.4420 0.9339
16.3318 4.4483 -2.4420 0.9339
16.3037 4.5496 -2.4420 0.9339
16.2755 4.6500 -2.4420 0.9339
16.2464 4.7505 -2.4420 0.9339
16.1863 4.9512 -2.4420 0.9339
16.1554 5.0511 -2.4420 0.9339
16.1238 5.1509 -2.4420 0.9339
16.0587 5.3499 -2.4420 0.9339
15.9912 5.5479 -2.4420 0.9339
15.9210 5.7453 -2.4419 0.9339
15.8113 6.0395 -2.4419 0.9339
15.7735 6.1371 -2.4418 0.9339
15.6961 6.3316 -2.4418 0.9339
15.6564 6.4285 -2.4418 0.9339
15.6162 6.5251 -2.4417 0.9339
15.4918 6.8134 -2.4416 0.9339
15.4491 6.9089 -2.4416 0.9339
15.4059 7.0042 -2.4416 0.9339
15.3620 7.0993 -2.4415 0.9339
15.3175 7.1940 -2.4415 0.9339
15.1805 7.4765 -2.4413 0.9339
15.0383 7.7564 -2.4412 0.9339
14.7896 8.2166 -2.4409 0.9339
14.6335 8.4889 -2.4407 0.9339
14.4723 8.7582 -2.4405 0.9339
14.4175 8.8473 -2.4404 0.9339
14.3621 8.9360 -2.4404 0.9339
14.2496 9.1124 -2.4402 0.9339
14.1925 9.2001 -2.4401 0.9339
13.1281 8.8602 -2.2850 0.9380
13.0726 8.9409 -2.2849 0.9380
12.9031 9.1809 -2.2847 0.9380
12.7876 9.3392 -2.2845 0.9380
12.5508 9.6511 -2.2842 0.9380
12.4903 9.7282 -2.2841 0.9380
12.3681 9.8811 -2.2839 0.9380
12.3062 9.9570 -2.2838 0.9380
12.2438 10.0325 -2.2837 0.9380
12.1811 10.1075 -2.2836 0.9380
12.1178 10.1822 -2.2835 0.9380
11.9899 10.3304 -2.2833 0.9380
11.7945 10.5496 -2.2830 0.9380
11.7285 10.6218 -2.2829 0.9381
11.6621 10.6937 -2.2828 0.9381
11.4599 10.9066 -2.2824 0.9381
11.0441 11.3207 -2.2817 0.9381
10.9732 11.3881 -2.2816 0.9381
10.9020 11.4552 -2.2815 0.9381
10.8304 11.5217 -2.2814 0.9381
10.6858 11.6535 -2.2811 0.9381
10.6130 11.7187 -2.2810 0.9381
10.4660 11.8477 -2.2807 0.9381
10.0919 12.1622 -2.2801 0.9381
10.0160 12.2237 -2.2799 0.9381
9.7083 12.4648 -2.2794 0.9381
9.5522 12.5825 -2.2791 0.9382
9.4737 12.6405 -2.2790 0.9382
9.3947 12.6981 -2.2789 0.9382
9.2968 12.7296 -2.2742 0.9383
8.9636 12.7640 -2.2502 0.9389
8.8541 12.7753 -2.2425 0.9391
8.6373 12.7978 -2.2275 0.9395
8.5300 12.8088 -2.2202 0.9397
8.3174 12.8308 -2.2060 0.9401
8.2121 12.8417 -2.1991 0.9403
8.1075 12.8526 -2.1924 0.9404
8.0035 12.8633 -2.1857 0.9406
7.9002 12.8740 -2.1792 0.9408
7.7974 12.8846 -2.1728 0.9410
7.4927 12.9162 -2.1543 0.9414
7.0942 12.9574 -2.1312 0.9420
6.8980 12.9776 -2.1204 0.9423
6.7039 12.9977 -2.1099 0.9426
6.6075 13.0077 -2.1049 0.9427
6.5116 13.0176 -2.0999 0.9429
4.3934 9.0615 -1.4529 0.9601
6.0851 13.1674 -2.0927 0.9431
5.7916 13.1686 -2.0755 0.9435
5.7109 13.2061 -2.0758 0.9435
5.6183 13.2157 -2.0718 0.9436
5.2513 13.2536 -2.0567 0.9440
5.1604 13.2630 -2.0532 0.9441
5.0697 13.2724 -2.0498 0.9442
4.9794 13.2817 -2.0464 0.9443
4.6562 13.1574 -2.0136 0.9452
4.0949 12.8182 -1.9414 0.9471
4.0104 12.8269 -1.9389 0.9471
3.8421 12.8443 -1.9342 0.9473
3.6746 12.8616 -1.9298 0.9474
3.4247 12.8875 -1.9238 0.9475
3.3418 12.8960 -1.9220 0.9476
3.1763 12.9131 -1.9185 0.9477
3.0938 12.9217 -1.9169 0.9477
2.4535 10.5349 -1.5606 0.9572
2.3472 10.3683 -1.5337 0.9579
2.1987 10.3022 -1.5198 0.9583
1.8632 10.2773 -1.5069 0.9587
1.7690 10.4961 -1.5357 0.9579
1.7199 10.6040 -1.5498 0.9575
2.1340 13.6927 -1.9993 0.9455
2.0487 13.7015 -1.9987 0.9455
1.7078 13.7367 -1.9971 0.9456
1.6226 13.7455 -1.9969 0.9456
1.0355 10.4312 -1.5123 0.9585
0.9618 10.3384 -1.4980 0.9589
0.7720 10.3831 -1.5021 0.9588
0.6553 11.7604 -1.6993 0.9535
0.5246 10.5936 -1.5302 0.9580
0.4651 10.7360 -1.5504 0.9575
0.5145 13.8601 -2.0010 0.9455
0.2577 13.8867 -2.0038 0.9454
0.1719 13.8955 -2.0049 0.9454
0.0860 13.9044 -2.0060 0.9454
-0.0000 13.9133 -2.0073 0.9453
-0.0861 13.9222 -2.0086 0.9453
-0.1723 13.9311 -2.0100 0.9453
-0.2587 13.9400 -2.0115 0.9452
-0.3451 13.9489 -2.0131 0.9452
-0.5185 13.9669 -2.0164 0.9451
-0.8671 14.0029 -2.0241 0.9449
-0.9547 14.0120 -2.0262 0.9448
-1.1304 14.0301 -2.0307 0.9447
-1.3955 14.0575 -2.0381 0.9445
-1.4843 14.0667 -2.0407 0.9444
-1.5734 14.0759 -2.0434 0.9444
-1.6627 14.0851 -2.0462 0.9443
-1.7522 14.0944 -2.0491 0.9442
-1.9321 14.1130 -2.0551 0.9441
-2.1130 14.1317 -2.0615 0.9439
-2.2951 14.1505 -2.0682 0.9437
-2.3866 14.1599 -2.0717 0.9436
-2.5705 14.1790 -2.0790 0.9434
-2.8489 14.2077 -2.0906 0.9431
-2.9424 14.2174 -2.0946 0.9430
-3.2252 14.2466 -2.1074 0.9427
-3.5115 14.2762 -2.1210 0.9423
-3.7046 14.2961 -2.1307 0.9421
-3.8017 14.3062 -2.1356 0.9419
-2.9882 10.9710 -1.6405 0.9551
-3.1165 10.9081 -1.6367 0.9552
-3.3118 11.3262 -1.7025 0.9534
-3.4453 11.2636 -1.6993 0.9535
-3.5054 11.2116 -1.6947 0.9536
-3.5650 11.1594 -1.6901 0.9538
-4.0899 12.2768 -1.8669 0.9490
-4.9032 14.4200 -2.1974 0.9403
-3.8685 11.1504 -1.7028 0.9534
-4.2070 11.2217 -1.7290 0.9527
-4.3105 11.0788 -1.7151 0.9531
-4.3983 10.9036 -1.6962 0.9536
-4.4643 10.8728 -1.6957 0.9536
-4.5519 10.8939 -1.7034 0.9534
-4.7835 11.0615 -1.7387 0.9525
-4.9504 11.2558 -1.7740 0.9515
-6.3521 14.2039 -2.2448 0.9391
-6.5260 14.1215 -2.2444 0.9391
-6.6125 14.0795 -2.2441 0.9391
-6.6988 14.0369 -2.2439 0.9391
-6.7849 13.9939 -2.2437 0.9391
-6.2285 12.4517 -2.0086 0.9453
-7.0413 13.8616 -2.2431 0.9391
-7.1262 13.8165 -2.2428 0.9391
-7.2951 13.7246 -2.2424 0.9391
-7.3792 13.6780 -2.2422 0.9391
-7.1185 12.8129 -2.1147 0.9425
-7.7122 13.4861 -2.2413 0.9391
-7.7947 13.4369 -2.2411 0.9392
-7.8770 13.3871 -2.2409 0.9392
-8.0404 13.2862 -2.2405 0.9392
-7.1123 11.5901 -1.9619 0.9465
-4.6596 7.3867 -1.2600 0.9653
-4.6718 7.2070 -1.2391 0.9659
-4.7838 7.2808 -1.2569 0.9654
-4.9034 7.2653 -1.2646 0.9652
-4.9412 7.2246 -1.2628 0.9652
-5.3046 7.5536 -1.3317 0.9634
-5.2260 7.3448 -1.3005 0.9642
-5.2660 7.2105 -1.2882 0.9646
-5.3143 7.1829 -1.2891 0.9645
-5.2796 6.9544 -1.2597 0.9653
-5.3657 6.9779 -1.2699 0.9651
-5.3674 6.8042 -1.2503 0.9656
-5.4270 6.7929 -1.2544 0.9655
-5.6501 6.9832 -1.2960 0.9643
-6.0870 7.1538 -1.3552 0.9628
-6.2055 6.9378 -1.3429 0.9631
-6.3926 6.8855 -1.3555 0.9627
-6.4625 6.8751 -1.3613 0.9626
-6.6234 6.7894 -1.3684 0.9624
-6.8548 6.8548 -1.3986 0.9616
-6.8652 6.7808 -1.3921 0.9618
-7.1527 6.8921 -1.4330 0.9607
-7.2121 6.8639 -1.4364 0.9606
-6.9833 6.5642 -1.3827 0.9620
-7.0754 6.5689 -1.3929 0.9617
-7.2636 6.5782 -1.4138 0.9612
-8.1965 6.8873 -1.5446 0.9577
-8.3936 6.8776 -1.5655 0.9571
-8.4768 6.8586 -1.5731 0.9569
-8.6192 6.8861 -1.5916 0.9564
-8.8000 6.8540 -1.6092 0.9559
-9.0089 6.6653 -1.6168 0.9557
-9.4328 6.8890 -1.6852 0.9539
-9.2635 6.6780 -1.6475 0.9549
-9.6806 6.8881 -1.7141 0.9531
-9.8360 6.9074 -1.7340 0.9526
-10.6508 6.9982 -1.8386 0.9498
-10.7318 6.9568 -1.8451 0.9496
-10.8038 6.9089 -1.8502 0.9495
-10.7225 6.7639 -1.8290 0.9501
-11.2426 6.9951 -1.9103 0.9479
-11.6213 7.0328 -1.9597 0.9466
-11.3795 6.7907 -1.9118 0.9479
-11.9430 7.0272 -1.9992 0.9455
-12.0130 6.9688 -2.0036 0.9454
-12.2491 7.0048 -2.0358 0.9446
-12.8011 7.1119 -2.1127 0.9425
-12.7008 6.8520 -2.0820 0.9433
-13.4087 7.1272 -2.1908 0.9405
-13.5092 7.0738 -2.2000 0.9402
-13.6792 7.0554 -2.2206 0.9397
-13.7216 6.9701 -2.2204 0.9397
-13.7635 6.8847 -2.2203 0.9397
-13.8457 6.7130 -2.2199 0.9397
-13.8860 6.6268 -2.2198 0.9397
-13.9257 6.5403 -2.2196 0.9397
-13.9650 6.4536 -2.2195 0.9397
-14.0037 6.3668 -2.2193 0.9397
-14.0419 6.2796 -2.2192 0.9397
-14.0795 6.1922 -2.2191 0.9397
-14.1166 6.1046 -2.2189 0.9397
-14.2596 5.7521 -2.2183 0.9398
-14.2940 5.6635 -2.2182 0.9398
-14.3939 5.3963 -2.2178 0.9398
-15.3631 5.3301 -2.3461 0.9364
-15.5358 5.2826 -2.3674 0.9358
-15.5673 5.1862 -2.3673 0.9358
-15.6581 4.8956 -2.3669 0.9358
-15.7709 4.5058 -2.3663 0.9359
-15.8238 4.3100 -2.3661 0.9359
-15.8742 4.1135 -2.3658 0.9359
-15.9222 3.9164 -2.3656 0.9359
-15.9453 3.8177 -2.3655 0.9359
-15.9678 3.7188 -2.3654 0.9359
-15.9897 3.6198 -2.3652 0.9359
-16.0317 3.4215 -2.3650 0.9359
-16.0518 3.3221 -2.3649 0.9359
-16.0713 3.2226 -2.3648 0.9359
-16.0901 3.1230 -2.3647 0.9359
-16.1260 2.9235 -2.3645 0.9359
-16.1430 2.8236 -2.3644 0.9359
-16.1905 2.5233 -2.3640 0.9359
-16.2052 2.4230 -2.3639 0.9359
-16.2191 2.3226 -2.3638 0.9359
-16.2325 2.2222 -2.3637 0.9359
-16.2453 2.1217 -2.3636 0.9359
-16.2575 2.0211 -2.3635 0.9359
-16.2902 1.7190 -2.3633 0.9359
-16.2999 1.6181 -2.3632 0.9359
-16.3175 1.4163 -2.3630 0.9359
-16.3253 1.3153 -2.3629 0.9360
-16.3392 1.1132 -2.3628 0.9360
-16.3700 0.3037 -2.3621 0.9360
-16.3711 0.2025 -2.3621 0.9360
-16.3716 0.1012 -2.3620 0.9360
-15.5621 -0.2887 -2.3637 0.9390
-15.5596 -0.3850 -2.3636 0.9390
-15.5566 -0.4812 -2.3635 0.9390
-15.5529 -0.5774 -2.3635 0.9390
-15.5386 -0.8658 -2.3633 0.9390
-15.5326 -0.9618 -2.3633 0.9390
-15.5260 -1.0578 -2.3632 0.9390
-15.5189 -1.1538 -2.3632 0.9390
-15.5028 -1.3456 -2.3631 0.9390
-15.4939 -1.4414 -2.3631 0.9390
-15.4844 -1.5372 -2.3630 0.9390
-15.4744 -1.6329 -2.3630 0.9390
-15.4637 -1.7285 -2.3629 0.9390
-15.4407 -1.9196 -2.3629 0.9390
-15.4283 -2.0150 -2.3628 0.9390
-15.4018 -2.2056 -2.3628 0.9390
-15.3877 -2.3008 -2.3627 0.9390
-15.3418 -2.5858 -2.3627 0.9390
-15.2908 -2.8699 -2.3626 0.9390
-15.2538 -3.0587 -2.3626 0.9390
-15.2146 -3.2471 -2.3625 0.9390
-15.1731 -3.4350 -2.3625 0.9390
-15.0833 -3.8092 -2.3625 0.9390
-15.0594 -3.9024 -2.3625 0.9390
-15.0350 -3.9954 -2.3624 0.9390
-15.0100 -4.0883 -2.3624 0.9390
-14.9583 -4.2737 -2.3624 0.9390
-14.9316 -4.3661 -2.3624 0.9390
-14.8481 -4.6424 -2.3625 0.9390
-14.7896 -4.8257 -2.3625 0.9390
-14.7596 -4.9171 -2.3625 0.9390
-14.7290 -5.0083 -2.3625 0.9390
-14.6661 -5.1901 -2.3625 0.9390
-14.6338 -5.2807 -2.3625 0.9390
-14.6010 -5.3712 -2.3626 0.9390
-14.5336 -5.5515 -2.3626 0.9390
-14.4286 -5.8203 -2.3627 0.9390
-14.3925 -5.9095 -2.3627 0.9390
-14.3558 -5.9985 -2.3627 0.9390
-14.3186 -6.0872 -2.3628 0.9390
-14.2809 -6.1757 -2.3628 0.9390
-14.1645 -6.4399 -2.3629 0.9390
-14.1246 -6.5274 -2.3629 0.9390
-14.0841 -6.6148 -2.3630 0.9390
-14.0017 -6.7887 -2.3630 0.9390
-13.9172 -6.9616 -2.3631 0.9390
-13.8741 -7.0476 -2.3632 0.9390
-13.7865 -7.2190 -2.3633 0.9390
-13.6967 -7.3892 -2.3634 0.9390
-13.6510 -7.4740 -2.3634 0.9390
-13.5582 -7.6426 -2.3635 0.9390
-13.4633 -7.8101 -2.3636 0.9390
-13.4151 -7.8934 -2.3637 0.9390
-13.3171 -8.0591 -2.3638 0.9390
-13.1663 -8.3054 -2.3640 0.9390
-13.1151 -8.3869 -2.3641 0.9390
-13.0634 -8.4681 -2.3641 0.9390
-12.9052 -8.7098 -2.3643 0.9390
-12.8515 -8.7897 -2.3644 0.9389
-12.7973 -8.8693 -2.3645 0.9389
-12.7426 -8.9486 -2.3646 0.9389
-12.6318 -9.1061 -2.3647 0.9389
-12.5757 -9.1844 -2.3648 0.9389
-12.5190 -9.2623 -2.3649 0.9389
-12.4620 -9.3398 -2.3650 0.9389
-12.4044 -9.4171 -2.3651 0.9389
-12.3464 -9.4940 -2.3651 0.9389
-12.2879 -9.5705 -2.3652 0.9389
-12.2289 -9.6466 -2.3653 0.9389
-12.1695 -9.7225 -2.3654 0.9389
-12.0492 -9.8730 -2.3656 0.9389
-11.9884 -9.9477 -2.3657 0.9389
-11.9272 -10.0221 -2.3658 0.9389
-11.6141 -10.3882 -2.3663 0.9389
-11.3556 -10.6742 -2.3667 0.9389
-11.2899 -10.7447 -2.3668 0.9389
-11.2237 -10.8148 -2.3669 0.9389
-11.1572 -10.8845 -2.3670 0.9389
-10.8866 -11.1593 -2.3675 0.9389
-10.7488 -11.2942 -2.3677 0.9389
-10.6793 -11.3611 -2.3678 0.9389
-10.6094 -11.4275 -2.3680 0.9389
-10.3972 -11.6242 -2.3683 0.9389
-10.1814 -11.8169 -2.3687 0.9388
-10.0355 -11.9433 -2.3690 0.9388
-9.9621 -12.0058 -2.3691 0.9388
-9.8882 -12.0678 -2.3692 0.9388
-9.8139 -12.1294 -2.3694 0.9388
-9.7393 -12.1906 -2.3695 0.9388
-9.6643 -12.2513 -2.3696 0.9388
-9.5889 -12.3116 -2.3698 0.9388
-9.4370 -12.4307 -2.3701 0.9388
-9.2064 -12.6059 -2.3705 0.9388
-9.0509 -12.7203 -2.3708 0.9388
-8.9726 -12.7768 -2.3709 0.9388
-8.8940 -12.8329 -2.3711 0.9388
-8.8150 -12.8885 -2.3712 0.9388
-8.7357 -12.9436 -2.3714 0.9388
-8.6561 -12.9982 -2.3715 0.9388
-8.5761 -13.0523 -2.3717 0.9388
-8.4957 -13.1059 -2.3718 0.9388
-8.4151 -13.1591 -2.3720 0.9388
-8.3341 -13.2117 -2.3721 0.9388
-8.2527 -13.2639 -2.3723 0.9388
-8.1712 -13.3156 -2.3725 0.9387
-8.0069 -13.4174 -2.3728 0.9387
-7.8414 -13.5173 -2.3731 0.9387
-7.7582 -13.5665 -2.3733 0.9387
-7.5067 -13.7109 -2.3738 0.9387
-7.3376 -13.8047 -2.3741 0.9387
-7.2526 -13.8508 -2.3743 0.9387
-7.1673 -13.8964 -2.3744 0.9387
-6.9960 -13.9860 -2.3748 0.9387
-6.8234 -14.0735 -2.3751 0.9387
-6.6499 -14.1589 -2.3755 0.9387
-6.4752 -14.2422 -2.3759 0.9387
-6.3875 -14.2831 -2.3760 0.9387
-6.2113 -14.3632 -2.3764 0.9387
-6.1228 -14.4024 -2.3766 0.9386
-5.8559 -14.5169 -2.3771 0.9386
-5.7665 -14.5540 -2.3773 0.9386
-5.6768 -14.5905 -2.3775 0.9386
-5.5869 -14.6265 -2.3777 0.9386
-5.4968 -14.6620 -2.3779 0.9386
-5.4065 -14.6968 -2.3781 0.9386
-5.3159 -14.7312 -2.3783 0.9386
-5.2251 -14.7650 -2.3785 0.9386
-5.1341 -14.7982 -2.3786 0.9386
-5.0429 -14.8309 -2.3788 0.9386
-4.8599 -14.8946 -2.3792 0.9386
-4.4915 -15.0152 -2.3800 0.9386
-4.3989 -15.0439 -2.3802 0.9386
-4.2132 -15.0997 -2.3806 0.9385
-3.9334 -15.1792 -2.3812 0.9385
-3.7460 -15.2292 -2.3816 0.9385
-3.2748 -15.3445 -2.3827 0.9385
-3.1801 -15.3658 -2.3829 0.9385
-2.8001 -15.4452 -2.3837 0.9385
-2.7047 -15.4636 -2.3839 0.9385
-2.2264 -15.5468 -2.3850 0.9384
-2.1304 -15.5617 -2.3852 0.9384
-2.0343 -15.5760 -2.3854 0.9384
-1.9381 -15.5897 -2.3857 0.9384
-1.7454 -15.6154 -2.3861 0.9384
-1.6490 -15.6273 -2.3863 0.9384
-1.5525 -15.6386 -2.3865 0.9384
-1.3592 -15.6595 -2.3870 0.9384
-1.2624 -15.6691 -2.3872 0.9384
-0.8748 -15.7014 -2.3881 0.9384
-0.7778 -15.7080 -2.3883 0.9384
-0.5835 -15.7194 -2.3888 0.9383
-0.4863 -15.7242 -2.3890 0.9383
-0.2919 -15.7320 -2.3895 0.9383
-0.1946 -15.7350 -2.3897 0.9383
-0.0973 -15.7374 -2.3899 0.9383
0.0973 -15.7404 -2.3904 0.9383
0.1947 -15.7410 -2.3906 0.9383
0.2921 -15.7410 -2.3908 0.9383
0.4869 -15.7392 -2.3913 0.9383
0.5842 -15.7374 -2.3915 0.9383
0.8763 -15.7284 -2.3922 0.9383
1.0710 -15.7195 -2.3927 0.9382
1.1683 -15.7141 -2.3929 0.9382
1.3629 -15.7015 -2.3934 0.9382
1.4601 -15.6943 -2.3936 0.9382
1.5572 -15.6865 -2.3938 0.9382
1.6544 -15.6781 -2.3941 0.9382
1.7515 -15.6691 -2.3943 0.9382
1.8486 -15.6595 -2.3946 0.9382
2.2362 -15.6152 -2.3955 0.9382
2.3329 -15.6026 -2.3957 0.9382
2.5262 -15.5756 -2.3962 0.9382
2.6228 -15.5612 -2.3964 0.9381
2.7192 -15.5462 -2.3967 0.9381
2.8156 -15.5307 -2.3969 0.9381
2.9119 -15.5145 -2.3972 0.9381
3.1041 -15.4804 -2.3976 0.9381
3.2002 -15.4624 -2.3979 0.9381
3.3918 -15.4247 -2.3983 0.9381
3.4875 -15.4050 -2.3986 0.9381
3.7738 -15.3422 -2.3993 0.9381
3.8690 -15.3201 -2.3995 0.9381
3.9641 -15.2974 -2.3998 0.9381
4.2484 -15.2258 -2.4005 0.9380
4.3429 -15.2008 -2.4007 0.9380
4.4373 -15.1751 -2.4010 0.9380
4.6256 -15.1221 -2.4015 0.9380
4.8132 -15.0668 -2.4019 0.9380
5.0002 -15.0091 -2.4024 0.9380
5.1865 -14.9491 -2.4029 0.9380
5.3721 -14.8867 -2.4034 0.9380
5.4646 -14.8547 -2.4036 0.9380
5.5568 -14.8221 -2.4039 0.9380
5.8326 -14.7209 -2.4046 0.9379
6.1065 -14.6145 -2.4053 0.9379
6.4688 -14.4647 -2.4062 0.9379
6.5587 -14.4258 -2.4065 0.9379
6.6485 -14.3864 -2.4067 0.9379
6.7379 -14.3465 -2.4070 0.9379
6.9162 -14.2649 -2.4074 0.9379
7.0935 -14.1810 -2.4079 0.9379
7.1818 -14.1383 -2.4081 0.9379
7.2699 -14.0950 -2.4084 0.9379
7.3576 -14.0511 -2.4086 0.9378
7.6192 -13.9163 -2.4093 0.9378
7.7923 -13.8237 -2.4098 0.9378
7.8784 -13.7765 -2.4100 0.9378
7.9642 -13.7289 -2.4103 0.9378
8.0497 -13.6808 -2.4105 0.9378
8.1349 -13.6320 -2.4107 0.9378
8.6400 -13.3285 -2.4121 0.9378
8.8059 -13.2232 -2.4126 0.9377
8.9705 -13.1158 -2.4130 0.9377
9.1337 -13.0062 -2.4135 0.9377
9.2957 -12.8947 -2.4140 0.9377
9.4563 -12.7812 -2.4144 0.9377
9.5360 -12.7237 -2.4146 0.9377
9.6154 -12.6656 -2.4149 0.9377
9.7731 -12.5481 -2.4153 0.9377
9.8514 -12.4885 -2.4155 0.9377
9.9294 -12.4285 -2.4158 0.9377
10.4647 -11.9949 -2.4173 0.9376
10.6142 -11.8667 -2.4177 0.9376
10.7620 -11.7366 -2.4182 0.9376
10.8354 -11.6708 -2.4184 0.9376
10.9083 -11.6046 -2.4186 0.9376
10.9809 -11.5380 -2.4188 0.9376
11.4074 -11.1286 -2.4201 0.9376
11.5462 -10.9885 -2.4205 0.9375
11.6832 -10.8468 -2.4209 0.9375
11.7510 -10.7752 -2.4212 0.9375
11.8185 -10.7033 -2.4214 0.9375
11.8854 -10.6309 -2.4216 0.9375
11.9520 -10.5581 -2.4218 0.9375
12.0180 -10.4849 -2.4220 0.9375
12.2136 -10.2627 -2.4226 0.9375
12.3416 -10.1125 -2.4230 0.9375
12.4678 -9.9608 -2.4234 0.9375
12.5301 -9.8842 -2.4236 0.9375
12.5921 -9.8074 -2.4238 0.9375
12.7144 -9.6524 -2.4242 0.9375
12.7749 -9.5744 -2.4244 0.9375
12.8349 -9.4959 -2.4246 0.9374
12.8944 -9.4172 -2.4248 0.9374
12.9535 -9.3380 -2.4249 0.9374
13.1275 -9.0982 -2.4255 0.9374
13.2411 -8.9365 -2.4259 0.9374
13.2971 -8.8551 -2.4261 0.9374
13.5162 -8.5261 -2.4268 0.9374
13.5696 -8.4430 -2.4270 0.9374
13.6226 -8.3595 -2.4272 0.9374
13.7270 -8.1916 -2.4275 0.9374
13.7784 -8.1072 -2.4277 0.9374
13.9294 -7.8518 -2.4282 0.9374
13.9787 -7.7661 -2.4284 0.9374
14.0757 -7.5937 -2.4287 0.9373
14.1234 -7.5070 -2.4289 0.9373
14.1705 -7.4200 -2.4291 0.9373
14.3536 -7.0692 -2.4297 0.9373
14.4852 -6.8031 -2.4302 0.9373
14.6118 -6.5345 -2.4307 0.9373
14.7333 -6.2635 -2.4312 0.9373
14.7727 -6.1726 -2.4313 0.9373
14.8874 -5.8986 -2.4318 0.9373
14.9245 -5.8068 -2.4319 0.9373
14.9611 -5.7147 -2.4321 0.9373
14.9971 -5.6224 -2.4322 0.9373
15.0324 -5.5299 -2.4324 0.9373
15.0672 -5.4372 -2.4325 0.9372
15.1351 -5.2510 -2.4328 0.9372
15.2006 -5.0640 -2.4331 0.9372
15.2325 -4.9702 -2.4332 0.9372
15.2638 -4.8761 -2.4333 0.9372
15.3541 -4.5929 -2.4338 0.9372
15.3831 -4.4981 -2.4339 0.9372
15.4392 -4.3079 -2.4341 0.9372
15.4664 -4.2126 -2.4343 0.9372
15.4929 -4.1171 -2.4344 0.9372
15.5188 -4.0214 -2.4345 0.9372
15.5442 -3.9256 -2.4346 0.9372
15.6167 -3.6370 -2.4350 0.9372
15.6396 -3.5406 -2.4351 0.9372
15.7647 -2.9588 -2.4358 0.9372
15.7833 -2.8614 -2.4359 0.9372
15.8189 -2.6662 -2.4361 0.9372
15.8357 -2.5684 -2.4362 0.9372
15.8971 -2.1763 -2.4366 0.9371
15.9109 -2.0781 -2.4367 0.9371
15.9240 -1.9797 -2.4368 0.9371
15.9366 -1.8812 -2.4369 0.9371
15.9599 -1.6841 -2.4371 0.9371
15.9706 -1.5854 -2.4372 0.9371
15.9806 -1.4867 -2.4373 0.9371
16.0148 -1.0911 -2.4376 0.9371
16.0390 -0.6948 -2.4379 0.9371
16.0473 -0.4964 -2.4381 0.9371
16.0552 -0.1986 -2.4383 0.9371
16.0575 0.0993 -2.4385 0.9371
16.0570 0.1986 -2.4386 0.9371
16.0541 0.3972 -2.4387 0.9371
16.0517 0.4965 -2.4388 0.9371
16.0451 0.6950 -2.4389 0.9371
16.0360 0.8935 -2.4390 0.9371
16.0306 0.9926 -2.4390 0.9371
15.9938 1.4879 -2.4393 0.9371
15.9642 1.7845 -2.4394 0.9371
15.9162 2.1789 -2.4396 0.9371
15.8737 2.4739 -2.4397 0.9371
15.8582 2.5721 -2.4397 0.9371
15.8083 2.8659 -2.4398 0.9371
15.7904 2.9636 -2.4398 0.9371
15.6253 3.7411 -2.4399 0.9371
15.5534 4.0304 -2.4399 0.9371
15.5282 4.1265 -2.4399 0.9371
15.4490 4.4138 -2.4399 0.9371
15.4214 4.5093 -2.4399 0.9371
15.3932 4.6046 -2.4399 0.9371
15.2744 4.9839 -2.4399 0.9371
15.2114 5.1724 -2.4399 0.9371
15.1462 5.3600 -2.4399 0.9371
15.0437 5.6399 -2.4398 0.9371
14.9726 5.8255 -2.4398 0.9371
14.9361 5.9179 -2.4397 0.9371
14.8614 6.1020 -2.4397 0.9371
14.8232 6.1937 -2.4396 0.9371
14.7451 6.3765 -2.4396 0.9371
14.6236 6.6486 -2.4395 0.9371
14.5398 6.8287 -2.4394 0.9371
14.4970 6.9184 -2.4394 0.9371
14.3654 7.1858 -2.4392 0.9371
14.2288 7.4506 -2.4391 0.9371
14.1821 7.5383 -2.4390 0.9371
14.1349 7.6257 -2.4390 0.9371
14.0872 7.7128 -2.4389 0.9371
13.9901 7.8861 -2.4388 0.9371
13.9407 7.9722 -2.4387 0.9371
13.8908 8.0581 -2.4387 0.9371
13.8403 8.1436 -2.4386 0.9371
13.7894 8.2288 -2.4386 0.9371
13.6332 8.4825 -2.4384 0.9371
13.5801 8.5664 -2.4383 0.9371
13.5264 8.6500 -2.4382 0.9371
12.5658 8.2564 -2.2833 0.9410
12.4093 8.4873 -2.2831 0.9410
12.3562 8.5636 -2.2830 0.9410
12.3026 8.6396 -2.2829 0.9410
12.1939 8.7905 -2.2828 0.9410
12.1389 8.8654 -2.2827 0.9410
11.7408 9.3800 -2.2821 0.9410
11.4428 9.7365 -2.2816 0.9410
11.3819 9.8066 -2.2815 0.9410
11.1966 10.0148 -2.2812 0.9410
11.1339 10.0833 -2.2811 0.9410
11.0074 10.2194 -2.2809 0.9410
10.7492 10.4865 -2.2805 0.9411
10.6836 10.5523 -2.2804 0.9411
10.6176 10.6176 -2.2803 0.9411
10.5512 10.6825 -2.2801 0.9411
10.3497 10.8748 -2.2798 0.9411
10.2816 10.9380 -2.2797 0.9411
10.0058 11.1865 -2.2792 0.9411
9.9359 11.2476 -2.2791 0.9411
9.8656 11.3083 -2.2789 0.9411
9.7950 11.3685 -2.2788 0.9411
9.4363 11.6628 -2.2782 0.9411
9.3636 11.7203 -2.2781 0.9411
9.2904 11.7773 -2.2780 0.9411
9.2169 11.8338 -2.2778 0.9411
9.1430 11.8900 -2.2777 0.9411
9.0687 11.9456 -2.2776 0.9411
8.8441 12.1097 -2.2772 0.9411
8.7685 12.1634 -2.2771 0.9411
8.6164 12.2695 -2.2768 0.9411
8.4629 12.3736 -2.2765 0.9412
8.3857 12.4250 -2.2764 0.9412
8.3082 12.4758 -2.2762 0.9412
8.2304 12.5262 -2.2761 0.9412
8.1522 12.5761 -2.2759 0.9412
8.0738 12.6254 -2.2758 0.9412
7.9160 12.7227 -2.2755 0.9412
7.8367 12.7706 -2.2754 0.9412
7.3922 12.9265 -2.2613 0.9415
7.2923 12.9368 -2.2552 0.9417
7.0941 12.9573 -2.2433 0.9420
6.8980 12.9776 -2.2319 0.9423
6.6074 13.0076 -2.2156 0.9427
6.5115 13.0175 -2.2104 0.9428
6.4161 13.0274 -2.2052 0.9429
4.3934 9.0614 -1.5293 0.9601
4.3390 9.0921 -1.5299 0.9601
6.1089 13.0071 -2.1822 0.9435
5.9224 13.0264 -2.1730 0.9437
5.8298 13.0359 -2.1686 0.9439
5.3720 13.0833 -2.1478 0.9444
5.0117 13.1205 -2.1329 0.9448
4.9224 13.1298 -2.1294 0.9448
4.8334 13.1390 -2.1260 0.9449
4.7446 13.1481 -2.1227 0.9450
4.5854 13.2167 -2.1244 0.9450
4.4092 13.2349 -2.1184 0.9451
4.1796 12.8093 -2.0461 0.9469
4.0949 12.8181 -2.0435 0.9470
3.9262 12.8355 -2.0383 0.9471
3.6746 12.8615 -2.0313 0.9473
3.5078 12.8788 -2.0270 0.9474
3.4247 12.8874 -2.0250 0.9475
3.2589 12.9045 -2.0212 0.9476
3.1763 12.9131 -2.0194 0.9476
3.0938 12.9216 -2.0177 0.9477
3.0777 13.5950 -2.1168 0.9452
2.8192 13.6217 -2.1124 0.9453
2.5616 13.6484 -2.1088 0.9454
1.8626 10.2742 -1.5857 0.9586
2.3904 13.6661 -2.1068 0.9454
2.3048 13.6749 -2.1060 0.9454
1.7234 10.6256 -1.6347 0.9574
2.0487 13.7014 -2.1038 0.9455
1.5172 10.5947 -1.6253 0.9576
1.7078 13.7367 -2.1021 0.9455
1.4523 13.7631 -2.1017 0.9455
1.3671 13.7719 -2.1017 0.9455
0.8346 10.3594 -1.5783 0.9588
0.7729 10.3953 -1.5830 0.9587
0.7118 10.4478 -1.5903 0.9585
0.4652 10.7391 -1.6324 0.9574
0.5145 13.8600 -2.1062 0.9454
0.3433 13.8777 -2.1081 0.9454
0.0000 13.9132 -2.1128 0.9453
-0.0861 13.9221 -2.1142 0.9452
-0.1723 13.9310 -2.1157 0.9452
-0.2587 13.9399 -2.1173 0.9452
-0.3451 13.9489 -2.1189 0.9451
-0.4317 13.9578 -2.1206 0.9451
-0.5185 13.9668 -2.1224 0.9450
-0.6924 13.9848 -2.1263 0.9449
-1.3955 14.0574 -2.1452 0.9444
-1.5734 14.0758 -2.1509 0.9443
-1.7522 14.0943 -2.1568 0.9442
-1.9320 14.1129 -2.1632 0.9440
-2.1130 14.1316 -2.1699 0.9438
-2.2039 14.1409 -2.1734 0.9437
-2.2950 14.1504 -2.1769 0.9437
-2.4783 14.1693 -2.1844 0.9435
-2.5705 14.1788 -2.1883 0.9434
-2.9424 14.2173 -2.2048 0.9430
-3.0363 14.2270 -2.2092 0.9428
-3.2252 14.2465 -2.2182 0.9426
-2.8231 12.1220 -1.8901 0.9509
-3.4157 14.2662 -2.2277 0.9424
-3.6078 14.2860 -2.2376 0.9421
-3.1746 10.8570 -1.7178 0.9553
-3.4317 10.7421 -1.7125 0.9554
-4.0864 12.2662 -1.9634 0.9490
-3.8685 11.1502 -1.7923 0.9534
-4.9379 13.9534 -2.2477 0.9419
-5.0236 13.9213 -2.2475 0.9419
-4.1379 11.2483 -1.8201 0.9527
-4.4410 11.8458 -1.9212 0.9501
-5.2795 13.8218 -2.2469 0.9419
-4.3976 10.9017 -1.7851 0.9536
-5.7017 13.6457 -2.2458 0.9419
-4.9513 11.2579 -1.8677 0.9515
-6.0352 13.4955 -2.2450 0.9419
-6.2006 13.4173 -2.2446 0.9420
-6.1525 13.1000 -2.1978 0.9431
-3.6204 7.3509 -1.2443 0.9674
-3.6576 7.3122 -1.2416 0.9675
-3.6947 7.2736 -1.2389 0.9675
-6.8515 13.0846 -2.2430 0.9420
-6.9316 13.0408 -2.2427 0.9420
-4.0342 7.4779 -1.2903 0.9662
-6.9427 12.4966 -2.1709 0.9438
-4.0606 6.9012 -1.2160 0.9681
-4.2529 7.1267 -1.2603 0.9670
-4.2979 7.1021 -1.2606 0.9670
-4.2003 6.8448 -1.2195 0.9680
-4.3399 6.9752 -1.2475 0.9673
-4.7116 7.0750 -1.2908 0.9662
-4.8542 7.1924 -1.3177 0.9655
-4.9435 7.2280 -1.3298 0.9652
-4.8671 7.0226 -1.2975 0.9660
-4.9453 6.9502 -1.2954 0.9661
-5.0404 6.9015 -1.2978 0.9660
-5.0692 6.8517 -1.2943 0.9661
-5.1852 6.8301 -1.3023 0.9659
-5.3058 6.8123 -1.3113 0.9657
-5.3667 6.8033 -1.3159 0.9655
-5.4138 6.7764 -1.3172 0.9655
-5.4532 6.7398 -1.3166 0.9655
-5.5079 6.7220 -1.3197 0.9655
-5.6585 6.7342 -1.3357 0.9650
-5.8574 6.8839 -1.3726 0.9641
-5.8915 6.8379 -1.3707 0.9641
-6.0286 6.9102 -1.3926 0.9636
-6.0056 6.7985 -1.3775 0.9640
-6.3002 6.7860 -1.4062 0.9632
-6.3800 6.7873 -1.4146 0.9630
-6.3123 6.5511 -1.3815 0.9639
-6.6279 6.5465 -1.4147 0.9630
-7.0380 6.7816 -1.4842 0.9612
-7.2861 6.8489 -1.5186 0.9603
-7.0891 6.5816 -1.4690 0.9616
-7.4565 6.8373 -1.5363 0.9599
-7.2635 6.5782 -1.4881 0.9611
-7.6040 6.8014 -1.5493 0.9596
-7.7579 6.7682 -1.5634 0.9592
-7.8586 6.7709 -1.5753 0.9589
-8.0964 6.8891 -1.6144 0.9579
-7.8734 6.6158 -1.5617 0.9592
-8.2501 6.8458 -1.6280 0.9576
-8.2996 6.8006 -1.6294 0.9575
-8.6666 6.8366 -1.6763 0.9563
-8.7848 6.8421 -1.6909 0.9559
-9.0145 6.8436 -1.7187 0.9552
-9.2054 6.8991 -1.7470 0.9545
-9.3598 6.8357 -1.7601 0.9542
-9.2634 6.6779 -1.7342 0.9548
-9.6626 6.7856 -1.7930 0.9534
-9.8742 6.8435 -1.8244 0.9526
-10.7194 6.9487 -1.9399 0.9496
-10.8132 6.9150 -1.9491 0.9494
-11.4049 6.9987 -2.0321 0.9473
-11.2068 6.7820 -1.9892 0.9484
-11.8219 7.0547 -2.0906 0.9458
-12.2240 7.0912 -2.1461 0.9444
-11.9210 6.8172 -2.0854 0.9460
-12.9215 6.8682 -2.2222 0.9425
-12.9629 6.7877 -2.2221 0.9425
-13.0037 6.7070 -2.2219 0.9425
-13.0441 6.6260 -2.2218 0.9425
-13.0839 6.5448 -2.2216 0.9425
-13.2384 6.2175 -2.2211 0.9425
-13.3125 6.0525 -2.2208 0.9426
-13.3489 5.9697 -2.2206 0.9426
-13.3847 5.8867 -2.2205 0.9426
-13.4548 5.7200 -2.2202 0.9426
-13.4891 5.6363 -2.2201 0.9426
-13.6211 5.2996 -2.2195 0.9426
-14.6523 5.2874 -2.3655 0.9389
-14.7997 4.9305 -2.3689 0.9388
-14.8291 4.8386 -2.3688 0.9388
-14.8579 4.7465 -2.3687 0.9388
-14.8862 4.6543 -2.3685 0.9388
-14.9676 4.3766 -2.3682 0.9389
-14.9936 4.2838 -2.3680 0.9389
-15.0682 4.0042 -2.3677 0.9389
-15.0920 3.9108 -2.3676 0.9389
-15.1151 3.8172 -2.3674 0.9389
-15.1377 3.7235 -2.3673 0.9389
-15.1597 3.6296 -2.3672 0.9389
-15.2223 3.3473 -2.3669 0.9389
-15.2420 3.2529 -2.3668 0.9389
-15.2611 3.1585 -2.3667 0.9389
-15.2976 2.9692 -2.3664 0.9389
-15.3637 2.5895 -2.3660 0.9389
-15.3933 2.3990 -2.3658 0.9389
-15.4206 2.2083 -2.3656 0.9389
-15.4333 2.1128 -2.3656 0.9389
-15.4571 1.9216 -2.3654 0.9389
-15.4681 1.8259 -2.3653 0.9389
-15.4785 1.7302 -2.3652 0.9389
-15.4883 1.6343 -2.3651 0.9389
-15.5062 1.4425 -2.3649 0.9389
-15.5143 1.3466 -2.3649 0.9389
-15.5351 1.0584 -2.3646 0.9389
-15.5408 0.9623 -2.3645 0.9389
-15.5505 0.7700 -2.3644 0.9390
-15.5579 0.5775 -2.3642 0.9390
-15.5607 0.4813 -2.3642 0.9390
-15.5646 0.2888 -2.3640 0.9390
-15.5661 0.0962 -2.3639 0.9390
-14.8345 0.0000 -2.3656 0.9417
-14.8338 -0.0918 -2.3655 0.9417
-14.8286 -0.3669 -2.3653 0.9417
-14.8256 -0.4586 -2.3653 0.9417
-14.8222 -0.5502 -2.3652 0.9417
-14.8028 -0.9167 -2.3650 0.9417
-14.7966 -1.0082 -2.3650 0.9417
-14.7824 -1.1910 -2.3649 0.9417
-14.7266 -1.7384 -2.3647 0.9417
-14.7154 -1.8294 -2.3646 0.9417
-14.7036 -1.9204 -2.3646 0.9417
-14.6912 -2.0112 -2.3646 0.9417
-14.6363 -2.3739 -2.3645 0.9417
-14.6212 -2.4643 -2.3644 0.9417
-14.6055 -2.5547 -2.3644 0.9417
-14.5893 -2.6449 -2.3644 0.9417
-14.5726 -2.7351 -2.3644 0.9417
-14.5374 -2.9150 -2.3643 0.9417
-14.4399 -3.3630 -2.3643 0.9417
-14.4188 -3.4522 -2.3643 0.9417
-14.3971 -3.5413 -2.3643 0.9417
-14.3749 -3.6303 -2.3642 0.9417
-14.2303 -4.1610 -2.3642 0.9417
-14.2043 -4.2489 -2.3642 0.9417
-14.0950 -4.5990 -2.3643 0.9417
-14.0664 -4.6861 -2.3643 0.9417
-14.0372 -4.7731 -2.3643 0.9417
-14.0075 -4.8598 -2.3643 0.9417
-13.9465 -5.0327 -2.3643 0.9417
-13.8833 -5.2049 -2.3644 0.9417
-13.8510 -5.2907 -2.3644 0.9417
-13.7509 -5.5469 -2.3644 0.9417
-13.7164 -5.6319 -2.3645 0.9417
-13.6815 -5.7167 -2.3645 0.9417
-13.5736 -5.9697 -2.3646 0.9417
-13.5366 -6.0537 -2.3646 0.9417
-13.4991 -6.1373 -2.3647 0.9417
-13.4611 -6.2208 -2.3647 0.9417
-13.3440 -6.4697 -2.3648 0.9417
-13.2634 -6.6345 -2.3649 0.9417
-13.1808 -6.7983 -2.3650 0.9417
-13.1387 -6.8798 -2.3650 0.9417
-13.0962 -6.9611 -2.3651 0.9417
-13.0532 -7.0421 -2.3651 0.9417
-12.8761 -7.3634 -2.3653 0.9417
-12.8306 -7.4431 -2.3654 0.9417
-12.7847 -7.5225 -2.3654 0.9417
-12.6913 -7.6804 -2.3655 0.9417
-12.5959 -7.8372 -2.3657 0.9417
-12.4987 -7.9928 -2.3658 0.9417
-12.3996 -8.1472 -2.3659 0.9417
-12.3494 -8.2240 -2.3660 0.9417
-12.2986 -8.3004 -2.3661 0.9417
-12.1957 -8.4524 -2.3662 0.9417
-12.0379 -8.6780 -2.3664 0.9417
-11.9305 -8.8268 -2.3666 0.9417
-11.8761 -8.9008 -2.3666 0.9417
-11.7659 -9.0476 -2.3668 0.9417
-11.7101 -9.1205 -2.3669 0.9417
-11.5973 -9.2653 -2.3671 0.9416
-11.4826 -9.4087 -2.3672 0.9416
-11.3074 -9.6212 -2.3675 0.9416
-11.2481 -9.6914 -2.3676 0.9416
-11.1283 -9.8305 -2.3678 0.9416
-11.0678 -9.8995 -2.3679 0.9416
-10.8836 -10.1044 -2.3682 0.9416
-10.7587 -10.2392 -2.3684 0.9416
-10.6322 -10.3724 -2.3686 0.9416
-10.5683 -10.4384 -2.3687 0.9416
-10.3742 -10.6341 -2.3690 0.9416
-10.3088 -10.6986 -2.3692 0.9416
-9.9755 -11.0149 -2.3697 0.9416
-9.9077 -11.0769 -2.3699 0.9416
-9.7710 -11.1997 -2.3701 0.9416
-9.7020 -11.2605 -2.3702 0.9416
-9.6327 -11.3209 -2.3703 0.9416
-9.1372 -11.7316 -2.3712 0.9415
-8.9195 -11.9011 -2.3716 0.9415
-8.5498 -12.1747 -2.3723 0.9415
-8.3996 -12.2810 -2.3726 0.9415
-8.1718 -12.4370 -2.3730 0.9415
-7.5505 -12.8324 -2.3742 0.9415
-7.4715 -12.8797 -2.3744 0.9415
-7.3922 -12.9265 -2.3746 0.9415
-7.1526 -13.0640 -2.3750 0.9415
-7.0721 -13.1089 -2.3752 0.9415
-6.9914 -13.1533 -2.3754 0.9414
-6.9104 -13.1971 -2.3755 0.9414
-6.8291 -13.2405 -2.3757 0.9414
-6.7475 -13.2834 -2.3758 0.9414
-6.5013 -13.4092 -2.3763 0.9414
-6.3359 -13.4904 -2.3767 0.9414
-6.2528 -13.5303 -2.3768 0.9414
-6.1694 -13.5697 -2.3770 0.9414
-6.0858 -13.6086 -2.3772 0.9414
-6.0020 -13.6469 -2.3774 0.9414
-5.8336 -13.7221 -2.3777 0.9414
-5.7490 -13.7590 -2.3779 0.9414
-5.4086 -13.9011 -2.3786 0.9414
-5.3229 -13.9353 -2.3788 0.9414
-5.1509 -14.0022 -2.3791 0.9414
-5.0646 -14.0349 -2.3793 0.9414
-4.9781 -14.0670 -2.3795 0.9413
-4.7174 -14.1603 -2.3801 0.9413
-4.6301 -14.1903 -2.3802 0.9413
-4.5426 -14.2197 -2.3804 0.9413
-4.3671 -14.2771 -2.3808 0.9413
-4.1908 -14.3323 -2.3812 0.9413
-4.1025 -14.3591 -2.3814 0.9413
-3.8363 -14.4362 -2.3820 0.9413
-3.7472 -14.4609 -2.3821 0.9413
-3.5687 -14.5085 -2.3825 0.9413
-3.4792 -14.5314 -2.3827 0.9413
-3.2997 -14.5758 -2.3831 0.9413
-3.2098 -14.5971 -2.3833 0.9413
-3.1197 -14.6179 -2.3835 0.9413
-3.0295 -14.6381 -2.3837 0.9412
-2.9392 -14.6578 -2.3839 0.9412
-2.8487 -14.6770 -2.3841 0.9412
-2.5766 -14.7310 -2.3847 0.9412
-2.3946 -14.7643 -2.3851 0.9412
-2.2122 -14.7953 -2.3855 0.9412
-2.1208 -14.8100 -2.3858 0.9412
-1.9379 -14.8377 -2.3862 0.9412
-1.8462 -14.8507 -2.3864 0.9412
-1.6627 -14.8750 -2.3868 0.9412
-1.3868 -14.9072 -2.3874 0.9412
-1.2947 -14.9168 -2.3876 0.9412
-1.1103 -14.9343 -2.3881 0.9411
-1.0180 -14.9422 -2.3883 0.9411
-0.8333 -14.9563 -2.3887 0.9411
-0.6483 -14.9682 -2.3891 0.9411
-0.5558 -14.9732 -2.3893 0.9411
-0.3707 -14.9817 -2.3898 0.9411
-0.2780 -14.9851 -2.3900 0.9411
-0.0927 -14.9901 -2.3904 0.9411
0.3710 -14.9926 -2.3915 0.9411
0.5565 -14.9896 -2.3919 0.9411
0.7420 -14.9843 -2.3924 0.9410
0.8347 -14.9809 -2.3926 0.9410
0.9274 -14.9768 -2.3928 0.9410
1.0201 -14.9722 -2.3931 0.9410
1.2980 -14.9548 -2.3937 0.9410
1.3906 -14.9479 -2.3939 0.9410
1.4832 -14.9404 -2.3942 0.9410
1.5757 -14.9324 -2.3944 0.9410
1.6682 -14.9237 -2.3946 0.9410
1.7606 -14.9145 -2.3948 0.9410
1.8530 -14.9047 -2.3951 0.9410
1.9453 -14.8944 -2.3953 0.9410
2.0376 -14.8835 -2.3955 0.9410
2.1298 -14.8720 -2.3957 0.9410
2.2219 -14.8599 -2.3960 0.9410
2.3140 -14.8473 -2.3962 0.9409
2.4060 -14.8341 -2.3964 0.9409
2.5897 -14.8060 -2.3969 0.9409
2.9563 -14.7430 -2.3978 0.9409
3.1390 -14.7081 -2.3982 0.9409
3.2302 -14.6898 -2.3985 0.9409
3.3213 -14.6709 -2.3987 0.9409
3.4123 -14.6515 -2.3989 0.9409
3.5939 -14.6110 -2.3994 0.9409
3.6846 -14.5898 -2.3996 0.9409
3.7751 -14.5682 -2.3998 0.9409
3.9557 -14.5231 -2.4003 0.9409
4.3154 -14.4263 -2.4012 0.9408
4.4049 -14.4007 -2.4014 0.9408
4.5836 -14.3479 -2.4019 0.9408
4.7616 -14.2928 -2.4023 0.9408
4.8503 -14.2644 -2.4026 0.9408
5.0274 -14.2061 -2.4030 0.9408
5.2037 -14.1455 -2.4035 0.9408
5.3792 -14.0827 -2.4039 0.9408
5.4667 -14.0505 -2.4042 0.9408
5.6412 -13.9845 -2.4046 0.9407
5.7281 -13.9507 -2.4048 0.9407
5.9013 -13.8813 -2.4053 0.9407
6.3306 -13.6987 -2.4064 0.9407
6.4158 -13.6606 -2.4067 0.9407
6.5008 -13.6219 -2.4069 0.9407
6.7543 -13.5028 -2.4076 0.9407
6.9221 -13.4207 -2.4080 0.9407
7.0056 -13.3789 -2.4082 0.9407
7.4193 -13.1620 -2.4094 0.9406
7.5012 -13.1171 -2.4096 0.9406
7.5829 -13.0717 -2.4098 0.9406
7.6643 -13.0257 -2.4100 0.9406
7.7454 -12.9793 -2.4102 0.9406
7.8263 -12.9324 -2.4105 0.9406
7.9871 -12.8369 -2.4109 0.9406
8.0671 -12.7884 -2.4111 0.9406
8.2261 -12.6900 -2.4116 0.9406
8.3052 -12.6400 -2.4118 0.9406
8.3840 -12.5896 -2.4120 0.9406
8.4624 -12.5386 -2.4122 0.9406
8.5406 -12.4872 -2.4124 0.9406
8.6960 -12.3828 -2.4129 0.9406
8.7732 -12.3299 -2.4131 0.9405
8.8500 -12.2766 -2.4133 0.9405
8.9266 -12.2227 -2.4135 0.9405
9.0028 -12.1683 -2.4137 0.9405
9.0787 -12.1135 -2.4140 0.9405
9.1543 -12.0582 -2.4142 0.9405
9.2295 -12.0024 -2.4144 0.9405
9.3043 -11.9462 -2.4146 0.9405
9.3789 -11.8894 -2.4148 0.9405
9.5269 -11.7746 -2.4152 0.9405
9.6735 -11.6579 -2.4157 0.9405
9.7463 -11.5989 -2.4159 0.9405
9.8186 -11.5394 -2.4161 0.9405
9.8906 -11.4795 -2.4163 0.9405
10.1045 -11.2969 -2.4169 0.9405
10.1751 -11.2351 -2.4171 0.9404
10.2452 -11.1730 -2.4173 0.9404
10.4534 -10.9838 -2.4180 0.9404
10.6581 -10.7907 -2.4186 0.9404
10.7925 -10.6598 -2.4190 0.9404
10.9253 -10.5273 -2.4194 0.9404
10.9912 -10.4603 -2.4196 0.9404
11.0565 -10.3931 -2.4198 0.9404
11.1215 -10.3253 -2.4200 0.9404
11.1861 -10.2572 -2.4202 0.9404
11.3139 -10.1197 -2.4206 0.9404
11.8081 -9.5539 -2.4221 0.9403
11.8678 -9.4814 -2.4223 0.9403
11.9272 -9.4086 -2.4225 0.9403
11.9860 -9.3353 -2.4227 0.9403
12.2737 -8.9638 -2.4236 0.9403
12.4406 -8.7365 -2.4241 0.9403
12.5496 -8.5832 -2.4245 0.9403
12.6566 -8.4286 -2.4248 0.9403
12.7094 -8.3508 -2.4250 0.9403
12.8136 -8.1941 -2.4254 0.9403
12.9158 -8.0361 -2.4257 0.9402
12.9661 -7.9567 -2.4259 0.9402
13.1142 -7.7164 -2.4264 0.9402
13.2105 -7.5546 -2.4267 0.9402
13.2579 -7.4733 -2.4269 0.9402
13.3047 -7.3917 -2.4271 0.9402
13.4423 -7.1450 -2.4275 0.9402
13.4871 -7.0622 -2.4277 0.9402
13.5314 -6.9791 -2.4279 0.9402
13.5752 -6.8958 -2.4280 0.9402
13.6185 -6.8121 -2.4282 0.9402
13.6612 -6.7282 -2.4283 0.9402
13.7034 -6.6440 -2.4285 0.9402
13.8671 -6.3046 -2.4291 0.9402
13.9457 -6.1334 -2.4294 0.9402
14.1329 -5.7010 -2.4301 0.9401
14.2040 -5.5264 -2.4304 0.9401
14.2729 -5.3509 -2.4307 0.9401
14.3065 -5.2629 -2.4308 0.9401
14.3396 -5.1746 -2.4310 0.9401
14.3721 -5.0861 -2.4311 0.9401
14.4041 -4.9974 -2.4312 0.9401
14.4967 -4.7301 -2.4316 0.9401
14.5264 -4.6406 -2.4318 0.9401
14.5556 -4.5509 -2.4319 0.9401
14.7442 -3.9181 -2.4328 0.9401
14.7688 -3.8271 -2.4329 0.9401
14.8836 -3.3694 -2.4335 0.9401
14.9456 -3.0931 -2.4338 0.9401
14.9651 -3.0008 -2.4339 0.9400
14.9840 -2.9083 -2.4340 0.9400
15.0024 -2.8157 -2.4341 0.9400
15.0539 -2.5372 -2.4344 0.9400
15.0853 -2.3510 -2.4346 0.9400
15.1002 -2.2578 -2.4347 0.9400
15.1412 -1.9775 -2.4350 0.9400
15.1770 -1.6964 -2.4353 0.9400
15.1878 -1.6026 -2.4353 0.9400
15.2075 -1.4148 -2.4355 0.9400
15.2249 -1.2267 -2.4357 0.9400
15.2326 -1.1325 -2.4358 0.9400
15.2399 -1.0383 -2.4358 0.9400
15.2525 -0.8498 -2.4360 0.9400
15.2670 -0.5667 -2.4362 0.9400
15.2738 -0.3779 -2.4364 0.9400
15.2763 -0.2835 -2.4364 0.9400
15.2781 -0.1890 -2.4365 0.9400
15.2794 -0.0945 -2.4366 0.9400
15.2797 0.1890 -2.4367 0.9400
15.2786 0.2835 -2.4368 0.9400
