ply
format ascii 1.0
element vertex 1594
property float32 x
property float32 y
property float32 z
property float32 I
end_header
5.8151 4.4146 -2.4314 0.9697
5.7880 4.4507 -2.4315 0.9697
5.7054 4.5581 -2.4319 0.9697
5.6492 4.6289 -2.4322 0.9697
5.6208 4.6640 -2.4323 0.9697
5.5342 4.7682 -2.4327 0.9697
5.5049 4.8026 -2.4329 0.9697
5.4753 4.8368 -2.4330 0.9697
5.4456 4.8708 -2.4331 0.9697
5.4157 4.9047 -2.4332 0.9697
5.3855 4.9383 -2.4334 0.9697
5.3551 4.9718 -2.4335 0.9697
5.3246 5.0050 -2.4336 0.9697
5.2001 5.1362 -2.4341 0.9697
5.0725 5.2642 -2.4345 0.9696
5.0074 5.3270 -2.4348 0.9696
4.9416 5.3890 -2.4350 0.9696
4.8668 5.3738 -2.4145 0.9699
4.7870 5.3518 -2.3912 0.9702
4.7086 5.3302 -2.3685 0.9705
4.3740 5.2713 -2.2811 0.9715
4.3415 5.2984 -2.2812 0.9715
4.3088 5.3254 -2.2813 0.9715
4.2759 5.3521 -2.2814 0.9715
4.2429 5.3787 -2.2815 0.9715
4.1429 5.4571 -2.2817 0.9715
4.0753 5.5082 -2.2819 0.9715
3.9037 5.6325 -2.2822 0.9715
3.6570 5.7973 -2.2827 0.9715
3.5491 5.8646 -2.2829 0.9715
3.4765 5.9084 -2.2830 0.9715
3.3665 5.9722 -2.2831 0.9715
3.3296 5.9931 -2.2832 0.9715
3.2553 6.0341 -2.2833 0.9715
3.2180 6.0542 -2.2833 0.9715
3.1806 6.0741 -2.2834 0.9715
3.0675 6.1324 -2.2835 0.9715
2.9915 6.1701 -2.2836 0.9715
2.9534 6.1885 -2.2836 0.9715
2.9151 6.2068 -2.2836 0.9715
2.8767 6.2248 -2.2837 0.9715
2.8382 6.2425 -2.2837 0.9715
2.7996 6.2600 -2.2837 0.9715
2.7219 6.2943 -2.2838 0.9715
2.6830 6.3111 -2.2838 0.9715
2.6440 6.3277 -2.2838 0.9715
2.6048 6.3440 -2.2839 0.9715
2.4075 6.4217 -2.2840 0.9715
2.3678 6.4366 -2.2840 0.9715
2.3280 6.4511 -2.2840 0.9715
2.2880 6.4654 -2.2840 0.9715
2.2480 6.4795 -2.2840 0.9715
2.2079 6.4933 -2.2840 0.9715
2.1677 6.5068 -2.2840 0.9715
2.0467 6.5460 -2.2840 0.9715
2.0061 6.5585 -2.2840 0.9715
1.9655 6.5708 -2.2840 0.9715
1.9249 6.5828 -2.2840 0.9715
1.7614 6.6283 -2.2840 0.9715
1.7204 6.6391 -2.2840 0.9715
1.5969 6.6698 -2.2840 0.9715
1.4729 6.6981 -2.2839 0.9715
1.3483 6.7241 -2.2839 0.9715
1.2233 6.7478 -2.2838 0.9715
1.1398 6.7622 -2.2838 0.9715
1.0979 6.7691 -2.2837 0.9715
0.9301 6.7939 -2.2836 0.9715
0.8880 6.7994 -2.2836 0.9715
0.8460 6.8047 -2.2836 0.9715
0.7618 6.8144 -2.2835 0.9715
0.5929 6.8308 -2.2834 0.9715
0.5083 6.8373 -2.2833 0.9715
0.4660 6.8402 -2.2832 0.9715
0.4238 6.8428 -2.2832 0.9715
0.2967 6.8490 -2.2830 0.9715
0.2543 6.8506 -2.2830 0.9715
0.1696 6.8529 -2.2829 0.9715
-0.0000 6.8543 -2.2826 0.9715
-0.0848 6.8534 -2.2825 0.9715
-0.1271 6.8525 -2.2824 0.9715
-0.3389 6.8442 -2.2821 0.9715
-0.3812 6.8418 -2.2820 0.9715
-0.4235 6.8391 -2.2819 0.9715
-0.5080 6.8329 -2.2818 0.9715
-0.5502 6.8293 -2.2817 0.9715
-0.5924 6.8256 -2.2816 0.9715
-0.8030 6.8027 -2.2812 0.9715
-0.8870 6.7917 -2.2810 0.9715
-1.0127 6.7732 -2.2807 0.9715
-1.0963 6.7595 -2.2805 0.9715
-1.1380 6.7523 -2.2804 0.9715
-1.0448 5.9737 -2.0196 0.9748
-1.1816 6.5180 -2.2060 0.9725
-1.2190 6.4951 -2.2008 0.9725
-1.2430 6.0062 -2.0426 0.9745
-1.3743 6.2498 -2.1310 0.9734
-1.4662 6.2958 -2.1528 0.9731
-1.5482 6.2943 -2.1586 0.9730
-1.5852 6.2770 -2.1560 0.9731
-1.6252 6.2719 -2.1577 0.9731
-1.6652 6.2662 -2.1592 0.9730
-1.7016 6.2474 -2.1563 0.9731
-1.7377 6.2279 -2.1533 0.9731
-1.7926 6.2743 -2.1731 0.9729
-1.8813 6.2892 -2.1862 0.9727
-1.9222 6.2842 -2.1885 0.9727
-1.9578 6.2619 -2.1849 0.9727
-2.0343 6.1064 -2.1434 0.9732
-2.1225 6.1175 -2.1564 0.9731
-2.2672 6.2828 -2.2244 0.9722
-2.3832 6.3568 -2.2608 0.9718
-2.4392 6.3858 -2.2765 0.9716
-2.5177 6.3544 -2.2762 0.9716
-2.5568 6.3383 -2.2761 0.9716
-2.5303 6.1625 -2.2185 0.9723
-2.6347 6.3054 -2.2758 0.9716
-2.7121 6.2716 -2.2755 0.9716
-2.7507 6.2543 -2.2754 0.9716
-2.7695 6.1929 -2.2592 0.9718
-2.8657 6.2010 -2.2749 0.9716
-2.9038 6.1827 -2.2748 0.9716
-3.0550 6.1074 -2.2742 0.9716
-3.0925 6.0880 -2.2740 0.9716
-3.1671 6.0484 -2.2737 0.9716
-3.2042 6.0283 -2.2736 0.9716
-3.2412 6.0080 -2.2734 0.9716
-3.3148 5.9666 -2.2731 0.9716
-3.4242 5.9028 -2.2726 0.9716
-3.4965 5.8592 -2.2723 0.9716
-3.5324 5.8370 -2.2721 0.9716
-3.5682 5.8146 -2.2719 0.9716
-3.6038 5.7920 -2.2718 0.9716
-3.6392 5.7692 -2.2716 0.9717
-3.7098 5.7229 -2.2713 0.9717
-3.8490 5.6276 -2.2706 0.9717
-3.9518 5.5540 -2.2701 0.9717
-3.9858 5.5290 -2.2699 0.9717
-4.0196 5.5039 -2.2697 0.9717
-4.0532 5.4785 -2.2695 0.9717
-4.1200 5.4270 -2.2692 0.9717
-4.1862 5.3748 -2.2688 0.9717
-4.2190 5.3484 -2.2686 0.9717
-4.2841 5.2950 -2.2683 0.9717
-4.3486 5.2407 -2.2679 0.9717
-4.3806 5.2133 -2.2677 0.9717
-4.4124 5.1857 -2.2675 0.9717
-4.4440 5.1579 -2.2673 0.9717
-4.5378 5.0733 -2.2668 0.9717
-4.5687 5.0447 -2.2666 0.9717
-4.6603 4.9578 -2.2660 0.9717
-4.7205 4.8989 -2.2656 0.9717
-4.7502 4.8692 -2.2654 0.9717
-4.7893 4.8489 -2.2697 0.9717
-4.9099 4.8495 -2.2982 0.9713
-4.9760 4.8544 -2.3151 0.9711
-5.4088 4.8379 -2.4167 0.9699
-5.4381 4.8039 -2.4165 0.9699
-5.4672 4.7698 -2.4162 0.9699
-5.4961 4.7354 -2.4160 0.9699
-5.5248 4.7009 -2.4158 0.9699
-5.5533 4.6663 -2.4156 0.9699
-5.6374 4.5612 -2.4149 0.9699
-5.7464 4.4187 -2.4141 0.9699
-5.7995 4.3466 -2.4136 0.9699
-5.9031 4.2002 -2.4127 0.9699
-5.9284 4.1633 -2.4125 0.9699
-5.9535 4.1261 -2.4123 0.9699
-6.0273 4.0138 -2.4116 0.9699
-6.0515 3.9761 -2.4114 0.9699
-6.0753 3.9383 -2.4112 0.9699
-6.1456 3.8238 -2.4105 0.9699
-6.2579 3.6303 -2.4093 0.9700
-6.2797 3.5911 -2.4091 0.9700
-6.3224 3.5125 -2.4086 0.9700
-6.3847 3.3937 -2.4080 0.9700
-6.4249 3.3138 -2.4075 0.9700
-6.4447 3.2737 -2.4073 0.9700
-6.4834 3.1931 -2.4068 0.9700
-6.5024 3.1526 -2.4066 0.9700
-6.5579 3.0306 -2.4059 0.9700
-6.5936 2.9487 -2.4054 0.9700
-6.6283 2.8663 -2.4049 0.9700
-6.6619 2.7836 -2.4045 0.9700
-6.6783 2.7421 -2.4042 0.9700
-6.6945 2.7005 -2.4040 0.9700
-6.7104 2.6588 -2.4038 0.9700
-6.7261 2.6170 -2.4035 0.9700
-6.7415 2.5751 -2.4033 0.9700
-6.7861 2.4489 -2.4026 0.9700
-6.8284 2.3219 -2.4019 0.9701
-6.8420 2.2794 -2.4017 0.9701
-6.8553 2.2368 -2.4014 0.9701
-6.8811 2.1514 -2.4010 0.9701
-6.9409 1.9367 -2.3998 0.9701
-6.9521 1.8936 -2.3996 0.9701
-6.9941 1.7203 -2.3986 0.9701
-7.0135 1.6334 -2.3982 0.9701
-7.0227 1.5899 -2.3979 0.9701
-7.0405 1.5026 -2.3975 0.9701
-7.0572 1.4151 -2.3970 0.9701
-7.0802 1.2836 -2.3963 0.9701
-7.0941 1.1957 -2.3958 0.9701
-7.1130 1.0635 -2.3952 0.9701
-7.1188 1.0195 -2.3949 0.9701
-7.1243 0.9753 -2.3947 0.9701
-7.1295 0.9312 -2.3945 0.9701
-7.1344 0.8870 -2.3942 0.9701
-7.1435 0.7985 -2.3938 0.9702
-7.1583 0.6213 -2.3929 0.9702
-7.1688 0.4439 -2.3920 0.9702
-7.1724 0.3551 -2.3915 0.9702
-7.1757 0.2220 -2.3908 0.9702
-7.1766 0.0888 -2.3902 0.9702
-7.0027 0.0000 -2.3900 0.9708
-7.0019 -0.0433 -2.3898 0.9708
-7.0009 -0.0866 -2.3895 0.9708
-6.9980 -0.1732 -2.3891 0.9708
-6.9941 -0.2596 -2.3887 0.9709
-6.9917 -0.3028 -2.3885 0.9709
-6.9796 -0.4755 -2.3876 0.9709
-6.9677 -0.6048 -2.3870 0.9709
-6.9633 -0.6478 -2.3868 0.9709
-6.9369 -0.8624 -2.3857 0.9709
-6.9308 -0.9052 -2.3855 0.9709
-6.9179 -0.9907 -2.3851 0.9709
-6.9110 -1.0333 -2.3849 0.9709
-6.9040 -1.0760 -2.3847 0.9709
-6.8889 -1.1611 -2.3843 0.9709
-6.8810 -1.2036 -2.3841 0.9709
-6.8729 -1.2460 -2.3839 0.9709
-6.8558 -1.3307 -2.3835 0.9709
-6.8469 -1.3729 -2.3833 0.9709
-6.8377 -1.4151 -2.3831 0.9709
-6.8282 -1.4573 -2.3829 0.9709
-6.7983 -1.5833 -2.3823 0.9709
-6.7549 -1.7504 -2.3816 0.9709
-6.7434 -1.7920 -2.3814 0.9709
-6.7074 -1.9163 -2.3808 0.9709
-6.6559 -2.0810 -2.3800 0.9710
-6.6424 -2.1220 -2.3799 0.9710
-6.5711 -2.3254 -2.3789 0.9710
-6.4936 -2.5265 -2.3781 0.9710
-6.4608 -2.6062 -2.3777 0.9710
-6.2445 -3.0754 -2.3757 0.9710
-6.1236 -3.3037 -2.3747 0.9710
-6.0815 -3.3787 -2.3744 0.9710
-6.0384 -3.4532 -2.3741 0.9710
-5.9945 -3.5272 -2.3738 0.9710
-5.9722 -3.5639 -2.3736 0.9710
-5.9269 -3.6371 -2.3733 0.9710
-5.9039 -3.6734 -2.3732 0.9710
-5.8574 -3.7457 -2.3729 0.9710
-5.8337 -3.7816 -2.3727 0.9710
-5.8098 -3.8174 -2.3726 0.9710
-5.6622 -4.0289 -2.3718 0.9711
-5.6369 -4.0636 -2.3716 0.9711
-5.6113 -4.0981 -2.3715 0.9711
-5.5856 -4.1325 -2.3713 0.9711
-5.5596 -4.1667 -2.3712 0.9711
-5.5334 -4.2008 -2.3711 0.9711
-5.4536 -4.3020 -2.3707 0.9711
-5.3994 -4.3687 -2.3704 0.9711
-5.3444 -4.4347 -2.3702 0.9711
-5.3166 -4.4674 -2.3701 0.9711
-5.2034 -4.5966 -2.3696 0.9711
-5.1457 -4.6602 -2.3694 0.9711
-5.0872 -4.7230 -2.3691 0.9711
-4.9980 -4.8159 -2.3688 0.9711
-4.9679 -4.8465 -2.3687 0.9711
-4.8764 -4.9371 -2.3684 0.9711
-4.8456 -4.9670 -2.3683 0.9711
-4.8146 -4.9966 -2.3682 0.9711
-4.7834 -5.0261 -2.3681 0.9711
-4.7205 -5.0844 -2.3679 0.9711
-4.6568 -5.1420 -2.3677 0.9711
-4.5925 -5.1988 -2.3675 0.9711
-4.4948 -5.2825 -2.3672 0.9711
-4.4287 -5.3373 -2.3670 0.9711
-4.3955 -5.3644 -2.3669 0.9711
-4.3285 -5.4179 -2.3668 0.9711
-4.2948 -5.4444 -2.3667 0.9711
-4.1926 -5.5226 -2.3665 0.9711
-4.1237 -5.5737 -2.3663 0.9711
-4.0890 -5.5989 -2.3662 0.9711
-4.0542 -5.6239 -2.3662 0.9711
-4.0192 -5.6487 -2.3661 0.9711
-3.9134 -5.7218 -2.3659 0.9711
-3.8421 -5.7694 -2.3657 0.9711
-3.7341 -5.8392 -2.3655 0.9711
-3.6614 -5.8847 -2.3654 0.9711
-3.6249 -5.9071 -2.3654 0.9711
-3.5882 -5.9292 -2.3653 0.9711
-3.5514 -5.9512 -2.3653 0.9711
-3.5144 -5.9729 -2.3652 0.9711
-3.4773 -5.9944 -2.3652 0.9711
-3.4401 -6.0156 -2.3651 0.9711
-3.4028 -6.0367 -2.3651 0.9711
-3.3653 -6.0575 -2.3650 0.9711
-3.2522 -6.1185 -2.3649 0.9711
-3.1379 -6.1775 -2.3647 0.9711
-3.0612 -6.2156 -2.3647 0.9711
-2.9064 -6.2891 -2.3645 0.9711
-2.8283 -6.3244 -2.3645 0.9711
-2.7891 -6.3417 -2.3644 0.9711
-2.6709 -6.3921 -2.3644 0.9711
-2.5916 -6.4245 -2.3643 0.9711
-2.5518 -6.4404 -2.3643 0.9711
-2.3513 -6.5160 -2.3642 0.9711
-2.3110 -6.5304 -2.3642 0.9711
-2.2300 -6.5584 -2.3642 0.9711
-2.1487 -6.5854 -2.3642 0.9711
-2.0262 -6.6241 -2.3642 0.9711
-1.9852 -6.6365 -2.3642 0.9711
-1.9441 -6.6487 -2.3642 0.9711
-1.9029 -6.6606 -2.3642 0.9711
-1.8617 -6.6722 -2.3642 0.9711
-1.7376 -6.7057 -2.3642 0.9711
-1.5712 -6.7467 -2.3642 0.9711
-1.4877 -6.7657 -2.3643 0.9711
-1.4040 -6.7837 -2.3643 0.9711
-1.3620 -6.7923 -2.3643 0.9711
-1.3200 -6.8007 -2.3643 0.9711
-1.2779 -6.8088 -2.3644 0.9711
-1.2358 -6.8166 -2.3644 0.9711
-1.1936 -6.8242 -2.3644 0.9711
-1.0668 -6.8454 -2.3645 0.9711
-1.0245 -6.8520 -2.3645 0.9711
-0.9821 -6.8582 -2.3646 0.9711
-0.9397 -6.8643 -2.3646 0.9711
-0.8972 -6.8701 -2.3646 0.9711
-0.8122 -6.8808 -2.3647 0.9711
-0.7697 -6.8859 -2.3647 0.9711
-0.7271 -6.8906 -2.3648 0.9711
-0.6845 -6.8951 -2.3648 0.9711
-0.6418 -6.8993 -2.3649 0.9711
-0.5991 -6.9033 -2.3649 0.9711
-0.5565 -6.9070 -2.3650 0.9711
-0.4710 -6.9136 -2.3650 0.9711
-0.3855 -6.9192 -2.3651 0.9711
-0.3427 -6.9216 -2.3652 0.9711
-0.2142 -6.9273 -2.3654 0.9711
-0.1714 -6.9287 -2.3654 0.9711
-0.0857 -6.9306 -2.3655 0.9711
0.0000 -6.9315 -2.3657 0.9711
0.0429 -6.9315 -2.3657 0.9711
0.0858 -6.9313 -2.3658 0.9711
0.1286 -6.9308 -2.3659 0.9711
0.2143 -6.9291 -2.3660 0.9711
0.2572 -6.9279 -2.3661 0.9711
0.3000 -6.9264 -2.3661 0.9711
0.3429 -6.9246 -2.3662 0.9711
0.4285 -6.9203 -2.3664 0.9711
0.4714 -6.9177 -2.3664 0.9711
0.5569 -6.9118 -2.3666 0.9711
0.6851 -6.9010 -2.3668 0.9711
0.7278 -6.8969 -2.3669 0.9711
0.8131 -6.8879 -2.3671 0.9711
0.9408 -6.8724 -2.3674 0.9711
0.9833 -6.8667 -2.3675 0.9711
1.0683 -6.8545 -2.3677 0.9711
1.1531 -6.8414 -2.3678 0.9711
1.1954 -6.8344 -2.3679 0.9711
1.2800 -6.8197 -2.3681 0.9711
1.3222 -6.8119 -2.3682 0.9711
1.6581 -6.7406 -2.3691 0.9711
1.6998 -6.7306 -2.3692 0.9711
1.9075 -6.6764 -2.3698 0.9711
2.1136 -6.6160 -2.3704 0.9711
2.1545 -6.6032 -2.3705 0.9711
2.3177 -6.5493 -2.3711 0.9711
2.3583 -6.5352 -2.3712 0.9711
2.3988 -6.5208 -2.3713 0.9711
2.4795 -6.4914 -2.3716 0.9711
2.5198 -6.4763 -2.3717 0.9711
2.5600 -6.4610 -2.3719 0.9711
2.6000 -6.4454 -2.3720 0.9711
2.6400 -6.4296 -2.3721 0.9711
2.7196 -6.3972 -2.3724 0.9710
2.7593 -6.3806 -2.3726 0.9710
2.7989 -6.3638 -2.3727 0.9710
2.9170 -6.3120 -2.3732 0.9710
2.9561 -6.2942 -2.3733 0.9710
2.9952 -6.2762 -2.3734 0.9710
3.0341 -6.2580 -2.3736 0.9710
3.0730 -6.2395 -2.3737 0.9710
3.1117 -6.2208 -2.3739 0.9710
3.2273 -6.1632 -2.3744 0.9710
3.3036 -6.1236 -2.3747 0.9710
3.3796 -6.0831 -2.3750 0.9710
3.4925 -6.0205 -2.3755 0.9710
3.5300 -5.9992 -2.3756 0.9710
3.5672 -5.9777 -2.3758 0.9710
3.6044 -5.9560 -2.3760 0.9710
3.6414 -5.9340 -2.3761 0.9710
3.7150 -5.8893 -2.3765 0.9710
3.7517 -5.8666 -2.3766 0.9710
3.8245 -5.8206 -2.3770 0.9710
4.0041 -5.7017 -2.3778 0.9710
4.0749 -5.6525 -2.3782 0.9710
4.1101 -5.6276 -2.3784 0.9710
4.1451 -5.6025 -2.3786 0.9710
4.2147 -5.5517 -2.3789 0.9710
4.2493 -5.5259 -2.3791 0.9710
4.4198 -5.3940 -2.3800 0.9710
4.4534 -5.3670 -2.3802 0.9710
4.4869 -5.3398 -2.3804 0.9710
4.5533 -5.2847 -2.3808 0.9709
4.5863 -5.2569 -2.3810 0.9709
4.6190 -5.2288 -2.3811 0.9709
4.6517 -5.2006 -2.3813 0.9709
4.7485 -5.1146 -2.3819 0.9709
4.8122 -5.0563 -2.3823 0.9709
4.8438 -5.0269 -2.3825 0.9709
4.8751 -4.9973 -2.3827 0.9709
4.9063 -4.9674 -2.3829 0.9709
4.9374 -4.9374 -2.3831 0.9709
4.9989 -4.8768 -2.3835 0.9709
5.0597 -4.8154 -2.3839 0.9709
5.0898 -4.7844 -2.3841 0.9709
5.1197 -4.7532 -2.3843 0.9709
5.1790 -4.6903 -2.3847 0.9709
5.2083 -4.6586 -2.3849 0.9709
5.2375 -4.6267 -2.3851 0.9709
5.2665 -4.5946 -2.3853 0.9709
5.2953 -4.5624 -2.3855 0.9709
5.3238 -4.5299 -2.3857 0.9709
5.3522 -4.4973 -2.3859 0.9709
5.3804 -4.4645 -2.3861 0.9709
5.4911 -4.3316 -2.3870 0.9709
5.5183 -4.2979 -2.3872 0.9709
5.5452 -4.2641 -2.3874 0.9709
5.6769 -4.0924 -2.3884 0.9709
5.7281 -4.0226 -2.3889 0.9708
5.7534 -3.9875 -2.3891 0.9708
5.7785 -3.9522 -2.3893 0.9708
5.8033 -3.9167 -2.3895 0.9708
5.8280 -3.8811 -2.3897 0.9708
5.8524 -3.8453 -2.3899 0.9708
5.9479 -3.7007 -2.3908 0.9708
5.9942 -3.6275 -2.3913 0.9708
6.0398 -3.5538 -2.3917 0.9708
6.1063 -3.4421 -2.3924 0.9708
6.1281 -3.4046 -2.3926 0.9708
6.1496 -3.3669 -2.3928 0.9708
6.1709 -3.3291 -2.3930 0.9708
6.2333 -3.2150 -2.3937 0.9708
6.2537 -3.1767 -2.3939 0.9708
6.3708 -2.9441 -2.3953 0.9708
6.3895 -2.9049 -2.3955 0.9708
6.4261 -2.8262 -2.3959 0.9708
6.4441 -2.7867 -2.3962 0.9708
6.4793 -2.7073 -2.3966 0.9708
6.5135 -2.6275 -2.3971 0.9708
6.5302 -2.5874 -2.3973 0.9707
6.5467 -2.5472 -2.3975 0.9707
6.5947 -2.4260 -2.3982 0.9707
6.6697 -2.2220 -2.3993 0.9707
6.6840 -2.1809 -2.3996 0.9707
6.7117 -2.0984 -2.4000 0.9707
6.7384 -2.0157 -2.4005 0.9707
6.7514 -1.9741 -2.4007 0.9707
6.7642 -1.9325 -2.4009 0.9707
6.8008 -1.8072 -2.4016 0.9707
6.8351 -1.6812 -2.4023 0.9707
6.8459 -1.6391 -2.4025 0.9707
6.8567 -1.5969 -2.4027 0.9707
6.8670 -1.5546 -2.4030 0.9707
6.8772 -1.5122 -2.4032 0.9707
6.8871 -1.4698 -2.4034 0.9707
6.8967 -1.4273 -2.4037 0.9707
6.9325 -1.2568 -2.4046 0.9707
6.9641 -1.0854 -2.4055 0.9706
6.9713 -1.0423 -2.4057 0.9706
6.9783 -0.9993 -2.4059 0.9706
6.9850 -0.9562 -2.4062 0.9706
6.9914 -0.9131 -2.4064 0.9706
6.9976 -0.8699 -2.4066 0.9706
7.0035 -0.8267 -2.4068 0.9706
7.0244 -0.6534 -2.4077 0.9706
7.0290 -0.6101 -2.4080 0.9706
7.0333 -0.5667 -2.4082 0.9706
7.0373 -0.5232 -2.4084 0.9706
7.0411 -0.4797 -2.4086 0.9706
7.0478 -0.3927 -2.4091 0.9706
7.0507 -0.3491 -2.4093 0.9706
7.0534 -0.3055 -2.4095 0.9706
7.0614 -0.1310 -2.4104 0.9706
7.0651 0.0437 -2.4113 0.9706
7.0635 0.2622 -2.4124 0.9706
7.0574 0.4370 -2.4133 0.9706
7.0500 0.5680 -2.4139 0.9705
7.0470 0.6117 -2.4141 0.9705
7.0437 0.6553 -2.4143 0.9705
7.0363 0.7425 -2.4148 0.9705
7.0322 0.7861 -2.4150 0.9705
7.0182 0.9166 -2.4156 0.9705
7.0131 0.9600 -2.4158 0.9705
7.0075 1.0036 -2.4160 0.9705
7.0019 1.0469 -2.4162 0.9705
6.9958 1.0903 -2.4165 0.9705
6.9830 1.1769 -2.4169 0.9705
6.9762 1.2202 -2.4171 0.9705
6.9618 1.3066 -2.4175 0.9705
6.9542 1.3498 -2.4177 0.9705
6.9463 1.3929 -2.4179 0.9705
6.9297 1.4789 -2.4183 0.9705
6.9209 1.5219 -2.4185 0.9705
6.8933 1.6504 -2.4191 0.9705
6.8835 1.6932 -2.4193 0.9705
6.8734 1.7358 -2.4195 0.9705
6.8631 1.7784 -2.4197 0.9705
6.8307 1.9059 -2.4203 0.9705
6.8193 1.9483 -2.4205 0.9705
6.7958 2.0328 -2.4209 0.9705
6.7836 2.0750 -2.4211 0.9705
6.7455 2.2010 -2.4217 0.9705
6.6911 2.3679 -2.4224 0.9704
6.6624 2.4508 -2.4228 0.9704
6.6173 2.5746 -2.4233 0.9704
6.5699 2.6975 -2.4239 0.9704
6.5535 2.7383 -2.4241 0.9704
6.5031 2.8600 -2.4246 0.9704
6.4857 2.9004 -2.4248 0.9704
6.4322 3.0209 -2.4253 0.9704
6.4138 3.0608 -2.4255 0.9704
6.3952 3.1007 -2.4257 0.9704
6.3183 3.2588 -2.4263 0.9704
6.2784 3.3372 -2.4267 0.9704
6.2167 3.4538 -2.4272 0.9704
6.1956 3.4924 -2.4273 0.9704
6.1743 3.5309 -2.4275 0.9704
5.9481 3.9082 -2.4290 0.9704
5.9000 3.9820 -2.4293 0.9704
5.8262 4.0915 -2.4298 0.9704
5.7503 4.1996 -2.4302 0.9704
5.7246 4.2353 -2.4303 0.9704
5.6986 4.2709 -2.4305 0.9703
5.6193 4.3766 -2.4309 0.9703
5.5106 4.5153 -2.4314 0.9703
5.4828 4.5495 -2.4316 0.9703
5.4549 4.5836 -2.4317 0.9703
5.4267 4.6175 -2.4318 0.9703
5.3983 4.6512 -2.4319 0.9703
5.3697 4.6847 -2.4321 0.9703
5.3119 4.7512 -2.4323 0.9703
5.2827 4.7843 -2.4324 0.9703
5.2533 4.8171 -2.4326 0.9703
5.1938 4.8821 -2.4328 0.9703
5.1638 4.9144 -2.4329 0.9703
5.0416 5.0416 -2.4334 0.9703
4.8524 5.2265 -2.4340 0.9703
4.7878 5.2866 -2.4342 0.9703
4.7552 5.3163 -2.4343 0.9703
4.6955 5.3154 -2.4206 0.9705
4.6190 5.2944 -2.3980 0.9707
4.5438 5.2737 -2.3758 0.9710
4.3339 5.2230 -2.3163 0.9717
4.1386 5.2465 -2.2806 0.9722
4.1063 5.2722 -2.2807 0.9722
4.0410 5.3229 -2.2809 0.9721
4.0082 5.3480 -2.2810 0.9721
3.9752 5.3728 -2.2810 0.9721
3.9420 5.3975 -2.2811 0.9721
3.9087 5.4220 -2.2812 0.9721
3.8751 5.4462 -2.2813 0.9721
3.8415 5.4702 -2.2813 0.9721
3.8077 5.4940 -2.2814 0.9721
3.7055 5.5642 -2.2816 0.9721
3.5671 5.6548 -2.2818 0.9721
3.4618 5.7204 -2.2820 0.9721
3.3196 5.8048 -2.2822 0.9721
3.2837 5.8254 -2.2823 0.9721
3.1752 5.8857 -2.2824 0.9721
3.1389 5.9053 -2.2825 0.9721
3.1024 5.9247 -2.2825 0.9721
3.0289 5.9628 -2.2826 0.9721
2.9179 6.0183 -2.2827 0.9721
2.8434 6.0541 -2.2828 0.9721
2.7307 6.1061 -2.2828 0.9721
2.6170 6.1559 -2.2829 0.9721
2.5789 6.1720 -2.2830 0.9721
2.5025 6.2035 -2.2830 0.9721
2.4641 6.2190 -2.2830 0.9721
2.3870 6.2491 -2.2831 0.9721
2.3095 6.2782 -2.2831 0.9721
2.1927 6.3200 -2.2831 0.9721
2.1536 6.3335 -2.2831 0.9721
2.1144 6.3467 -2.2831 0.9721
2.0357 6.3724 -2.2831 0.9721
1.9963 6.3849 -2.2831 0.9721
1.9172 6.4091 -2.2832 0.9721
1.8377 6.4323 -2.2831 0.9721
1.7979 6.4436 -2.2831 0.9721
1.7580 6.4545 -2.2831 0.9721
1.7181 6.4653 -2.2831 0.9721
1.6380 6.4860 -2.2831 0.9721
1.5978 6.4960 -2.2831 0.9721
1.5576 6.5057 -2.2831 0.9721
1.5174 6.5151 -2.2831 0.9721
1.4771 6.5244 -2.2831 0.9721
1.3962 6.5420 -2.2830 0.9721
1.3557 6.5505 -2.2830 0.9721
1.2746 6.5666 -2.2830 0.9721
0.9482 6.6210 -2.2828 0.9721
0.9072 6.6267 -2.2827 0.9721
0.7841 6.6420 -2.2826 0.9721
0.7018 6.6510 -2.2825 0.9721
0.6195 6.6589 -2.2825 0.9721
0.5783 6.6625 -2.2824 0.9721
0.4958 6.6689 -2.2823 0.9721
0.4133 6.6742 -2.2822 0.9721
0.3720 6.6765 -2.2822 0.9721
0.3307 6.6785 -2.2821 0.9721
0.2894 6.6803 -2.2821 0.9721
0.2481 6.6818 -2.2820 0.9721
0.1240 6.6848 -2.2819 0.9721
-0.0413 6.6851 -2.2816 0.9721
-0.0827 6.6845 -2.2816 0.9721
-0.1240 6.6837 -2.2815 0.9721
-0.1653 6.6826 -2.2814 0.9721
-0.2067 6.6812 -2.2814 0.9721
-0.2479 6.6796 -2.2813 0.9721
-0.2892 6.6778 -2.2812 0.9721
-0.3305 6.6756 -2.2811 0.9721
-0.4131 6.6706 -2.2810 0.9721
-0.7832 6.6351 -2.2802 0.9722
-0.8242 6.6299 -2.2801 0.9722
-0.9061 6.6186 -2.2800 0.9722
-0.9878 6.6064 -2.2798 0.9722
-1.1100 6.5861 -2.2795 0.9722
-1.0448 5.9734 -2.0696 0.9747
-1.1259 5.9989 -2.0832 0.9745
-1.3050 6.3053 -2.1975 0.9732
-1.3438 6.2964 -2.1973 0.9732
-1.3874 6.3094 -2.2048 0.9731
-1.5024 6.2750 -2.2021 0.9731
-1.5438 6.2763 -2.2059 0.9731
-1.5825 6.2661 -2.2057 0.9731
-1.6082 6.0519 -2.1372 0.9739
-1.6498 6.0572 -2.1426 0.9738
-1.6916 6.0625 -2.1481 0.9737
-1.7336 6.0679 -2.1538 0.9737
-1.8916 6.3238 -2.2527 0.9725
-2.0507 6.2851 -2.2564 0.9724
-2.1474 6.3153 -2.2766 0.9722
-2.2638 6.2734 -2.2762 0.9722
-2.3410 6.2442 -2.2759 0.9722
-2.4177 6.2140 -2.2757 0.9722
-2.4559 6.1986 -2.2755 0.9722
-2.4941 6.1829 -2.2754 0.9722
-2.6079 6.1345 -2.2750 0.9722
-2.6832 6.1010 -2.2747 0.9722
-2.7208 6.0839 -2.2746 0.9722
-2.7954 6.0490 -2.2743 0.9722
-2.8326 6.0312 -2.2741 0.9722
-3.0167 5.9388 -2.2734 0.9722
-3.2336 5.8205 -2.2725 0.9723
-3.2693 5.8000 -2.2723 0.9723
-3.4108 5.7157 -2.2717 0.9723
-3.4808 5.6723 -2.2714 0.9723
-3.5501 5.6280 -2.2710 0.9723
-3.6872 5.5368 -2.2704 0.9723
-3.7211 5.5135 -2.2702 0.9723
-3.7884 5.4662 -2.2699 0.9723
-3.8219 5.4423 -2.2697 0.9723
-3.8883 5.3938 -2.2693 0.9723
-4.0193 5.2944 -2.2686 0.9723
-4.0839 5.2434 -2.2683 0.9723
-4.1159 5.2176 -2.2681 0.9723
-4.1478 5.1917 -2.2679 0.9723
-4.1795 5.1655 -2.2678 0.9723
-4.2110 5.1392 -2.2676 0.9723
-4.2423 5.1126 -2.2674 0.9723
-4.2735 5.0859 -2.2672 0.9723
-4.3046 5.0590 -2.2670 0.9723
-4.3354 5.0319 -2.2669 0.9723
-4.3661 5.0045 -2.2667 0.9723
-4.3966 4.9771 -2.2665 0.9723
-4.4871 4.8934 -2.2659 0.9723
-4.5892 4.8221 -2.2719 0.9723
-4.7061 4.8240 -2.3001 0.9719
-4.8334 4.8334 -2.3329 0.9715
-4.9643 4.8430 -2.3670 0.9711
-5.0991 4.8529 -2.4025 0.9707
-5.1602 4.8506 -2.4171 0.9705
-5.1898 4.8182 -2.4169 0.9705
-5.2190 4.7856 -2.4167 0.9705
-5.3055 4.6868 -2.4161 0.9705
-5.3339 4.6535 -2.4159 0.9705
-5.3621 4.6200 -2.4156 0.9705
-5.3901 4.5863 -2.4154 0.9705
-5.4179 4.5525 -2.4152 0.9705
-5.4455 4.5185 -2.4150 0.9705
-5.5801 4.3461 -2.4139 0.9705
-5.6064 4.3111 -2.4137 0.9706
-5.6324 4.2760 -2.4135 0.9706
-5.6582 4.2407 -2.4133 0.9706
-5.6839 4.2053 -2.4131 0.9706
-5.7092 4.1696 -2.4129 0.9706
-5.7344 4.1339 -2.4126 0.9706
-5.7594 4.0980 -2.4124 0.9706
-5.8328 3.9893 -2.4118 0.9706
-5.8568 3.9528 -2.4116 0.9706
-5.8806 3.9162 -2.4113 0.9706
-5.9506 3.8054 -2.4107 0.9706
-5.9735 3.7681 -2.4104 0.9706
-5.9961 3.7308 -2.4102 0.9706
-6.0185 3.6933 -2.4100 0.9706
-6.0407 3.6557 -2.4098 0.9706
-6.0626 3.6179 -2.4096 0.9706
-6.0843 3.5800 -2.4093 0.9706
-6.1270 3.5038 -2.4089 0.9706
-6.1687 3.4271 -2.4084 0.9706
-6.1892 3.3886 -2.4082 0.9706
-6.2095 3.3500 -2.4080 0.9706
-6.2295 3.3112 -2.4078 0.9706
-6.2688 3.2333 -2.4073 0.9706
-6.3071 3.1549 -2.4069 0.9706
-6.3259 3.1156 -2.4066 0.9706
-6.3445 3.0761 -2.4064 0.9706
-6.3628 3.0365 -2.4062 0.9706
-6.3808 2.9968 -2.4060 0.9706
-6.3986 2.9570 -2.4057 0.9706
-6.4335 2.8771 -2.4053 0.9707
-6.4506 2.8370 -2.4051 0.9707
-6.4839 2.7565 -2.4046 0.9707
-6.5002 2.7161 -2.4044 0.9707
-6.5630 2.5535 -2.4035 0.9707
-6.6073 2.4306 -2.4028 0.9707
-6.6216 2.3895 -2.4026 0.9707
-6.6356 2.3483 -2.4023 0.9707
-6.6761 2.2241 -2.4016 0.9707
-6.7018 2.1410 -2.4012 0.9707
-6.7143 2.0993 -2.4010 0.9707
-6.7266 2.0575 -2.4007 0.9707
-6.7502 1.9738 -2.4003 0.9707
-6.7616 1.9318 -2.4000 0.9707
-6.7944 1.8055 -2.3994 0.9707
-6.8048 1.7633 -2.3991 0.9707
-6.8344 1.6363 -2.3984 0.9707
-6.8437 1.5939 -2.3982 0.9707
-6.8702 1.4662 -2.3975 0.9707
-6.8864 1.3809 -2.3971 0.9708
-6.9089 1.2525 -2.3964 0.9708
-6.9352 1.0808 -2.3955 0.9708
-6.9411 1.0379 -2.3953 0.9708
-6.9467 0.9948 -2.3951 0.9708
-6.9521 0.9517 -2.3948 0.9708
-6.9572 0.9087 -2.3946 0.9708
-6.9620 0.8655 -2.3944 0.9708
-6.9709 0.7792 -2.3939 0.9708
-6.9749 0.7360 -2.3937 0.9708
-6.9822 0.6496 -2.3933 0.9708
-6.9854 0.6063 -2.3930 0.9708
-6.9911 0.5198 -2.3926 0.9708
-6.9935 0.4765 -2.3924 0.9708
-6.9957 0.4332 -2.3922 0.9708
-7.0017 0.2599 -2.3913 0.9708
-7.0025 0.2166 -2.3911 0.9708
-7.0034 0.1299 -2.3906 0.9708
-7.0034 0.0866 -2.3904 0.9708
-6.8370 -0.0000 -2.3902 0.9714
-6.8362 -0.0423 -2.3900 0.9714
-6.8352 -0.0846 -2.3898 0.9714
-6.8307 -0.2113 -2.3892 0.9715
-6.8263 -0.2957 -2.3888 0.9715
-6.8238 -0.3379 -2.3885 0.9715
-6.8179 -0.4222 -2.3881 0.9715
-6.8146 -0.4643 -2.3879 0.9715
-6.8110 -0.5064 -2.3877 0.9715
-6.8030 -0.5905 -2.3873 0.9715
-6.7891 -0.7164 -2.3867 0.9715
-6.7840 -0.7583 -2.3865 0.9715
-6.7787 -0.8002 -2.3863 0.9715
-6.7730 -0.8420 -2.3861 0.9715
-6.7609 -0.9256 -2.3857 0.9715
-6.7186 -1.1751 -2.3845 0.9715
-6.7106 -1.2166 -2.3843 0.9715
-6.6940 -1.2993 -2.3839 0.9715
-6.6576 -1.4640 -2.3831 0.9715
-6.6065 -1.6684 -2.3822 0.9715
-6.5612 -1.8308 -2.3814 0.9715
-6.5370 -1.9115 -2.3811 0.9716
-6.5246 -1.9517 -2.3809 0.9716
-6.5119 -1.9918 -2.3807 0.9716
-6.4990 -2.0319 -2.3805 0.9716
-6.4858 -2.0719 -2.3803 0.9716
-6.4724 -2.1118 -2.3802 0.9716
-6.4306 -2.2311 -2.3796 0.9716
-6.4162 -2.2706 -2.3795 0.9716
-6.4016 -2.3101 -2.3793 0.9716
-6.3562 -2.4279 -2.3788 0.9716
-6.3087 -2.5449 -2.3782 0.9716
-6.2591 -2.6609 -2.3777 0.9716
-6.2421 -2.6994 -2.3776 0.9716
-6.2248 -2.7377 -2.3774 0.9716
-6.2073 -2.7759 -2.3772 0.9716
-6.1717 -2.8521 -2.3769 0.9716
-6.1535 -2.8900 -2.3767 0.9716
-6.1350 -2.9278 -2.3766 0.9716
-6.0976 -3.0031 -2.3763 0.9716
-6.0396 -3.1151 -2.3758 0.9716
-6.0198 -3.1521 -2.3756 0.9716
-5.9998 -3.1891 -2.3755 0.9716
-5.9796 -3.2259 -2.3753 0.9716
-5.9591 -3.2626 -2.3752 0.9716
-5.8964 -3.3720 -2.3747 0.9716
-5.8098 -3.5159 -2.3741 0.9716
-5.7875 -3.5516 -2.3740 0.9716
-5.7651 -3.5871 -2.3738 0.9716
-5.6966 -3.6927 -2.3734 0.9716
-5.6733 -3.7277 -2.3732 0.9716
-5.6498 -3.7625 -2.3731 0.9716
-5.6261 -3.7971 -2.3730 0.9716
-5.6022 -3.8316 -2.3728 0.9716
-5.5781 -3.8660 -2.3727 0.9717
-5.5537 -3.9002 -2.3726 0.9717
-5.5044 -3.9681 -2.3723 0.9717
-5.4290 -4.0689 -2.3719 0.9717
-5.4034 -4.1021 -2.3718 0.9717
-5.3777 -4.1353 -2.3716 0.9717
-5.3517 -4.1682 -2.3715 0.9717
-5.3256 -4.2010 -2.3714 0.9717
-5.2189 -4.3305 -2.3709 0.9717
-5.1645 -4.3943 -2.3707 0.9717
-5.1369 -4.4259 -2.3705 0.9717
-5.1092 -4.4574 -2.3704 0.9717
-5.0813 -4.4887 -2.3703 0.9717
-5.0532 -4.5198 -2.3702 0.9717
-5.0249 -4.5508 -2.3701 0.9717
-4.9964 -4.5816 -2.3700 0.9717
-4.9678 -4.6122 -2.3699 0.9717
-4.9099 -4.6728 -2.3696 0.9717
-4.8807 -4.7029 -2.3695 0.9717
-4.7620 -4.8213 -2.3691 0.9717
-4.7319 -4.8505 -2.3690 0.9717
-4.6405 -4.9368 -2.3687 0.9717
-4.6097 -4.9652 -2.3686 0.9717
-4.5787 -4.9934 -2.3685 0.9717
-4.5163 -5.0493 -2.3683 0.9717
-4.4848 -5.0769 -2.3683 0.9717
-4.4213 -5.1316 -2.3681 0.9717
-4.3893 -5.1586 -2.3680 0.9717
-4.3249 -5.2121 -2.3678 0.9717
-4.2598 -5.2649 -2.3676 0.9717
-4.2270 -5.2909 -2.3676 0.9717
-4.1941 -5.3168 -2.3675 0.9717
-4.1277 -5.3679 -2.3673 0.9717
-3.9592 -5.4921 -2.3670 0.9717
-3.9250 -5.5163 -2.3669 0.9717
-3.8907 -5.5403 -2.3668 0.9717
-3.8563 -5.5641 -2.3667 0.9717
-3.8217 -5.5877 -2.3667 0.9717
-3.7869 -5.6110 -2.3666 0.9717
-3.7520 -5.6342 -2.3666 0.9717
-3.6819 -5.6799 -2.3664 0.9717
-3.5399 -5.7687 -2.3662 0.9717
-3.4682 -5.8117 -2.3661 0.9717
-3.3959 -5.8539 -2.3660 0.9717
-3.3231 -5.8952 -2.3659 0.9717
-3.2865 -5.9156 -2.3658 0.9717
-3.1389 -5.9946 -2.3657 0.9717
-3.1017 -6.0138 -2.3656 0.9717
-3.0270 -6.0515 -2.3655 0.9717
-2.9895 -6.0700 -2.3655 0.9717
-2.9518 -6.0883 -2.3655 0.9717
-2.9141 -6.1063 -2.3654 0.9717
-2.8763 -6.1241 -2.3654 0.9717
-2.8383 -6.1417 -2.3654 0.9717
-2.7238 -6.1931 -2.3653 0.9717
-2.6854 -6.2098 -2.3653 0.9717
-2.6469 -6.2262 -2.3652 0.9717
-2.6083 -6.2424 -2.3652 0.9717
-2.5696 -6.2583 -2.3652 0.9717
-2.5308 -6.2741 -2.3652 0.9717
-2.4920 -6.2895 -2.3651 0.9717
-2.4530 -6.3048 -2.3651 0.9717
-2.4140 -6.3198 -2.3651 0.9717
-2.3748 -6.3345 -2.3651 0.9717
-2.3356 -6.3491 -2.3651 0.9717
-2.2962 -6.3633 -2.3651 0.9717
-2.1778 -6.4048 -2.3650 0.9717
-2.0187 -6.4566 -2.3650 0.9717
-1.9787 -6.4690 -2.3650 0.9717
-1.8584 -6.5046 -2.3650 0.9717
-1.8181 -6.5160 -2.3650 0.9717
-1.7778 -6.5271 -2.3650 0.9717
-1.6158 -6.5692 -2.3651 0.9717
-1.5345 -6.5887 -2.3651 0.9717
-1.4937 -6.5981 -2.3651 0.9717
-1.4529 -6.6073 -2.3651 0.9717
-1.4120 -6.6162 -2.3651 0.9717
-1.3301 -6.6332 -2.3652 0.9717
-1.2479 -6.6493 -2.3652 0.9717
-1.1244 -6.6715 -2.3653 0.9717
-1.0832 -6.6784 -2.3653 0.9717
-0.9591 -6.6976 -2.3654 0.9717
-0.8762 -6.7092 -2.3655 0.9717
-0.7516 -6.7246 -2.3656 0.9717
-0.7101 -6.7292 -2.3656 0.9717
-0.6268 -6.7377 -2.3657 0.9717
-0.5851 -6.7416 -2.3657 0.9717
-0.5017 -6.7485 -2.3658 0.9717
-0.4182 -6.7545 -2.3659 0.9717
-0.2928 -6.7615 -2.3661 0.9717
-0.1674 -6.7663 -2.3662 0.9717
-0.1255 -6.7673 -2.3663 0.9717
-0.0837 -6.7682 -2.3664 0.9717
0.0000 -6.7690 -2.3665 0.9717
0.0837 -6.7689 -2.3666 0.9717
0.1256 -6.7684 -2.3667 0.9717
0.3767 -6.7603 -2.3671 0.9717
0.4185 -6.7580 -2.3672 0.9717
0.4603 -6.7555 -2.3672 0.9717
0.5438 -6.7498 -2.3674 0.9717
0.8772 -6.7165 -2.3681 0.9717
0.9188 -6.7112 -2.3681 0.9717
1.0018 -6.6998 -2.3683 0.9717
1.0432 -6.6938 -2.3684 0.9717
1.0847 -6.6875 -2.3685 0.9717
1.1260 -6.6809 -2.3686 0.9717
1.2087 -6.6670 -2.3688 0.9717
1.2499 -6.6597 -2.3689 0.9717
1.3323 -6.6442 -2.3691 0.9717
1.3735 -6.6362 -2.3692 0.9717
1.4145 -6.6279 -2.3693 0.9717
1.4555 -6.6193 -2.3694 0.9717
1.4965 -6.6104 -2.3695 0.9717
1.5783 -6.5920 -2.3697 0.9717
1.6599 -6.5726 -2.3700 0.9717
1.7412 -6.5522 -2.3702 0.9717
1.7818 -6.5416 -2.3703 0.9717
1.8223 -6.5308 -2.3704 0.9717
1.9031 -6.5084 -2.3706 0.9717
2.0639 -6.4607 -2.3711 0.9717
2.1439 -6.4353 -2.3714 0.9717
2.4213 -6.3389 -2.3723 0.9717
2.4998 -6.3092 -2.3725 0.9717
2.5389 -6.2940 -2.3727 0.9717
2.6168 -6.2628 -2.3729 0.9716
2.7331 -6.2143 -2.3734 0.9716
2.8867 -6.1462 -2.3739 0.9716
2.9628 -6.1108 -2.3742 0.9716
3.0007 -6.0928 -2.3744 0.9716
3.0386 -6.0745 -2.3745 0.9716
3.1513 -6.0182 -2.3750 0.9716
3.3001 -5.9399 -2.3756 0.9716
3.3369 -5.9198 -2.3758 0.9716
3.3737 -5.8995 -2.3759 0.9716
3.5195 -5.8158 -2.3765 0.9716
3.5557 -5.7943 -2.3767 0.9716
3.5917 -5.7726 -2.3769 0.9716
3.6276 -5.7507 -2.3770 0.9716
3.6634 -5.7285 -2.3772 0.9716
3.7344 -5.6836 -2.3775 0.9716
3.8050 -5.6377 -2.3779 0.9716
3.8401 -5.6145 -2.3780 0.9716
3.9444 -5.5435 -2.3786 0.9716
4.0475 -5.4706 -2.3791 0.9716
4.0815 -5.4458 -2.3792 0.9716
4.1154 -5.4209 -2.3794 0.9716
4.2162 -5.3448 -2.3800 0.9716
4.2495 -5.3190 -2.3801 0.9716
4.3156 -5.2669 -2.3805 0.9716
4.3484 -5.2405 -2.3807 0.9716
4.3811 -5.2139 -2.3809 0.9716
4.4136 -5.1871 -2.3810 0.9716
4.4781 -5.1329 -2.3814 0.9715
4.5101 -5.1055 -2.3816 0.9715
4.5420 -5.0779 -2.3818 0.9715
4.5737 -5.0501 -2.3820 0.9715
4.6051 -5.0221 -2.3822 0.9715
4.6676 -4.9656 -2.3825 0.9715
4.6986 -4.9370 -2.3827 0.9715
4.7294 -4.9083 -2.3829 0.9715
4.7601 -4.8793 -2.3831 0.9715
4.8510 -4.7913 -2.3837 0.9715
4.9402 -4.7017 -2.3843 0.9715
4.9696 -4.6714 -2.3845 0.9715
5.0279 -4.6104 -2.3849 0.9715
5.0567 -4.5796 -2.3851 0.9715
5.0853 -4.5486 -2.3853 0.9715
5.1138 -4.5174 -2.3855 0.9715
5.2257 -4.3910 -2.3863 0.9715
5.2805 -4.3268 -2.3867 0.9715
5.3076 -4.2944 -2.3869 0.9715
5.3346 -4.2618 -2.3871 0.9715
5.3613 -4.2292 -2.3873 0.9715
5.3878 -4.1963 -2.3875 0.9715
5.4402 -4.1300 -2.3879 0.9715
5.4918 -4.0631 -2.3883 0.9715
5.5677 -3.9616 -2.3889 0.9715
5.5926 -3.9274 -2.3891 0.9715
5.6173 -3.8931 -2.3894 0.9715
5.7374 -3.7192 -2.3904 0.9714
5.7841 -3.6486 -2.3908 0.9714
5.8967 -3.4696 -2.3919 0.9714
5.9186 -3.4334 -2.3921 0.9714
5.9402 -3.3970 -2.3923 0.9714
5.9617 -3.3605 -2.3925 0.9714
6.0039 -3.2871 -2.3930 0.9714
6.0247 -3.2502 -2.3932 0.9714
6.0451 -3.2132 -2.3934 0.9714
6.0655 -3.1760 -2.3936 0.9714
6.1250 -3.0638 -2.3943 0.9714
6.1444 -3.0262 -2.3945 0.9714
6.1636 -2.9883 -2.3947 0.9714
6.2012 -2.9124 -2.3952 0.9714
6.2379 -2.8360 -2.3956 0.9714
6.2559 -2.7977 -2.3958 0.9714
6.2736 -2.7592 -2.3960 0.9714
6.2912 -2.7206 -2.3963 0.9714
6.3589 -2.5651 -2.3971 0.9714
6.4071 -2.4473 -2.3978 0.9714
6.4971 -2.2092 -2.3991 0.9713
6.5388 -2.0889 -2.3998 0.9713
6.5522 -2.0486 -2.4000 0.9713
6.5653 -2.0082 -2.4002 0.9713
6.5783 -1.9677 -2.4005 0.9713
6.6033 -1.8866 -2.4009 0.9713
6.6155 -1.8459 -2.4011 0.9713
6.6274 -1.8051 -2.4014 0.9713
6.6390 -1.7642 -2.4016 0.9713
6.6504 -1.7233 -2.4018 0.9713
6.6616 -1.6823 -2.4020 0.9713
6.6831 -1.6001 -2.4025 0.9713
6.7135 -1.4762 -2.4031 0.9713
6.7231 -1.4348 -2.4034 0.9713
6.7325 -1.3933 -2.4036 0.9713
6.7416 -1.3518 -2.4038 0.9713
6.7505 -1.3102 -2.4040 0.9713
6.7674 -1.2269 -2.4045 0.9713
6.7755 -1.1851 -2.4047 0.9713
6.7833 -1.1433 -2.4049 0.9713
6.7982 -1.0595 -2.4054 0.9713
6.8120 -0.9755 -2.4058 0.9713
6.8186 -0.9334 -2.4060 0.9713
6.8308 -0.8492 -2.4065 0.9713
6.8366 -0.8070 -2.4067 0.9713
6.8473 -0.7225 -2.4071 0.9712
6.8522 -0.6802 -2.4073 0.9712
6.8570 -0.6379 -2.4076 0.9712
6.8656 -0.5531 -2.4080 0.9712
6.8695 -0.5107 -2.4082 0.9712
6.8765 -0.4258 -2.4087 0.9712
6.8797 -0.3833 -2.4089 0.9712
6.8951 -0.0426 -2.4106 0.9712
6.8959 0.0000 -2.4108 0.9712
6.8964 0.0427 -2.4110 0.9712
6.8962 0.1706 -2.4117 0.9712
6.8957 0.2133 -2.4119 0.9712
6.8948 0.2559 -2.4121 0.9712
6.8937 0.2986 -2.4123 0.9712
6.8924 0.3413 -2.4125 0.9712
6.8907 0.3839 -2.4127 0.9712
6.8815 0.5545 -2.4136 0.9712
6.8681 0.7247 -2.4144 0.9712
6.8640 0.7673 -2.4146 0.9712
6.8597 0.8098 -2.4148 0.9712
6.8504 0.8947 -2.4153 0.9712
6.8453 0.9371 -2.4155 0.9711
6.8399 0.9795 -2.4157 0.9711
6.8344 1.0219 -2.4159 0.9711
6.8223 1.1065 -2.4163 0.9711
6.8159 1.1488 -2.4165 0.9711
6.8093 1.1910 -2.4167 0.9711
6.8024 1.2332 -2.4169 0.9711
6.7951 1.2754 -2.4171 0.9711
6.7877 1.3175 -2.4173 0.9711
6.7800 1.3595 -2.4175 0.9711
6.7720 1.4016 -2.4177 0.9711
6.7637 1.4435 -2.4179 0.9711
6.7552 1.4855 -2.4181 0.9711
6.7186 1.6526 -2.4189 0.9711
6.7088 1.6942 -2.4191 0.9711
6.6884 1.7774 -2.4194 0.9711
6.6778 1.8188 -2.4196 0.9711
6.6670 1.8602 -2.4198 0.9711
6.6445 1.9429 -2.4202 0.9711
6.5839 2.1482 -2.4212 0.9711
6.5577 2.2298 -2.4215 0.9711
6.5443 2.2705 -2.4217 0.9711
6.5307 2.3111 -2.4219 0.9711
6.5025 2.3921 -2.4223 0.9711
6.4881 2.4325 -2.4224 0.9711
6.4585 2.5129 -2.4228 0.9711
6.4433 2.5529 -2.4230 0.9711
6.4279 2.5930 -2.4232 0.9711
6.3800 2.7123 -2.4237 0.9711
6.3636 2.7519 -2.4239 0.9710
6.2598 2.9873 -2.4249 0.9710
6.2417 3.0262 -2.4250 0.9710
6.2232 3.0650 -2.4252 0.9710
6.2046 3.1036 -2.4254 0.9710
6.1857 3.1421 -2.4255 0.9710
6.1666 3.1806 -2.4257 0.9710
6.1276 3.2570 -2.4260 0.9710
6.0876 3.3330 -2.4264 0.9710
6.0673 3.3708 -2.4265 0.9710
6.0259 3.4460 -2.4268 0.9710
5.9184 3.6319 -2.4276 0.9710
5.8737 3.7052 -2.4279 0.9710
5.8282 3.7780 -2.4282 0.9710
5.8050 3.8142 -2.4284 0.9710
5.7581 3.8862 -2.4286 0.9710
5.7343 3.9220 -2.4288 0.9710
5.7103 3.9576 -2.4289 0.9710
5.6616 4.0284 -2.4292 0.9710
5.6369 4.0636 -2.4294 0.9710
5.5868 4.1334 -2.4296 0.9710
5.5615 4.1681 -2.4298 0.9710
5.4579 4.3054 -2.4303 0.9710
5.3779 4.4066 -2.4307 0.9710
5.3508 4.4400 -2.4308 0.9710
5.2960 4.5063 -2.4311 0.9710
5.2405 4.5719 -2.4313 0.9710
5.1840 4.6368 -2.4316 0.9710
5.1555 4.6690 -2.4317 0.9710
5.1268 4.7011 -2.4318 0.9710
5.0979 4.7329 -2.4319 0.9710
5.0687 4.7646 -2.4320 0.9710
5.0394 4.7961 -2.4321 0.9710
4.9802 4.8584 -2.4324 0.9709
4.9201 4.9201 -2.4326 0.9709
4.8898 4.9507 -2.4327 0.9709
4.8593 4.9810 -2.4328 0.9709
4.7978 5.0412 -2.4330 0.9709
4.7355 5.1006 -2.4332 0.9709
4.6724 5.1592 -2.4334 0.9709
4.6086 5.2170 -2.4336 0.9709
4.5318 5.2598 -2.4273 0.9710
4.4603 5.2420 -2.4063 0.9713
4.3900 5.2245 -2.3857 0.9715
4.3211 5.2075 -2.3657 0.9717
4.2546 5.1924 -2.3469 0.9720
4.1892 5.1775 -2.3284 0.9722
4.1247 5.1628 -2.3102 0.9724
4.0089 5.1473 -2.2809 0.9727
3.9755 5.1699 -2.2800 0.9727
3.8469 5.2674 -2.2803 0.9727
3.7817 5.3149 -2.2805 0.9727
3.7489 5.3383 -2.2805 0.9727
3.6827 5.3846 -2.2807 0.9727
3.6495 5.4074 -2.2807 0.9727
3.6161 5.4300 -2.2808 0.9727
3.5489 5.4746 -2.2809 0.9727
3.5150 5.4966 -2.2810 0.9727
3.4469 5.5400 -2.2811 0.9727
3.4127 5.5613 -2.2811 0.9727
3.3438 5.6033 -2.2812 0.9727
3.3092 5.6240 -2.2813 0.9727
3.2744 5.6445 -2.2813 0.9727
3.2045 5.6848 -2.2814 0.9727
3.1340 5.7243 -2.2815 0.9727
3.0275 5.7817 -2.2817 0.9727
2.9917 5.8005 -2.2817 0.9727
2.9199 5.8372 -2.2818 0.9727
2.7748 5.9080 -2.2819 0.9727
2.7015 5.9420 -2.2820 0.9727
2.6279 5.9751 -2.2820 0.9727
2.5909 5.9913 -2.2821 0.9727
2.5539 6.0073 -2.2821 0.9727
2.4421 6.0538 -2.2822 0.9727
2.4046 6.0689 -2.2822 0.9727
2.3670 6.0837 -2.2822 0.9727
2.3294 6.0983 -2.2822 0.9727
2.2916 6.1126 -2.2822 0.9727
2.2538 6.1267 -2.2822 0.9727
2.1779 6.1541 -2.2823 0.9727
2.1398 6.1675 -2.2823 0.9727
2.1016 6.1807 -2.2823 0.9727
1.9481 6.2308 -2.2823 0.9727
1.9096 6.2427 -2.2823 0.9727
1.8709 6.2545 -2.2823 0.9727
1.7546 6.2880 -2.2823 0.9727
1.7156 6.2987 -2.2823 0.9727
1.6767 6.3092 -2.2823 0.9727
1.6376 6.3195 -2.2823 0.9727
1.5593 6.3392 -2.2823 0.9727
1.4807 6.3579 -2.2822 0.9727
1.4414 6.3669 -2.2822 0.9727
1.3230 6.3924 -2.2822 0.9727
1.1644 6.4229 -2.2821 0.9727
1.1247 6.4300 -2.2821 0.9727
1.0849 6.4367 -2.2820 0.9727
1.0450 6.4432 -2.2820 0.9727
1.0052 6.4495 -2.2820 0.9727
0.9652 6.4555 -2.2820 0.9727
0.9253 6.4612 -2.2819 0.9727
0.8853 6.4668 -2.2819 0.9727
0.8453 6.4720 -2.2819 0.9727
0.8052 6.4770 -2.2818 0.9727
0.7651 6.4818 -2.2818 0.9727
0.6448 6.4945 -2.2817 0.9727
0.5644 6.5018 -2.2816 0.9727
0.5241 6.5050 -2.2815 0.9727
0.3630 6.5154 -2.2814 0.9727
0.2421 6.5206 -2.2812 0.9727
0.2017 6.5218 -2.2811 0.9727
0.1614 6.5228 -2.2811 0.9727
0.0403 6.5242 -2.2809 0.9727
-0.0807 6.5233 -2.2807 0.9727
-0.1210 6.5224 -2.2807 0.9727
-0.1613 6.5214 -2.2806 0.9727
-0.2017 6.5201 -2.2805 0.9727
-0.2420 6.5185 -2.2805 0.9727
-0.4433 6.5069 -2.2801 0.9727
-0.5237 6.5004 -2.2799 0.9727
-0.5639 6.4968 -2.2799 0.9727
-0.6041 6.4930 -2.2798 0.9727
-0.6442 6.4889 -2.2797 0.9727
-0.8044 6.4701 -2.2794 0.9728
-0.8443 6.4647 -2.2793 0.9728
-0.8842 6.4591 -2.2792 0.9728
-0.9241 6.4533 -2.2791 0.9728
-1.0833 6.4274 -2.2787 0.9728
-1.0851 5.9856 -2.1267 0.9746
-1.2031 6.0001 -2.1394 0.9744
-1.2428 6.0052 -2.1439 0.9743
-1.4033 6.0256 -2.1630 0.9741
-1.5036 6.2802 -2.2576 0.9730
-1.5456 6.2837 -2.2623 0.9730
-1.5866 6.2826 -2.2654 0.9729
-1.6268 6.2778 -2.2672 0.9729
-1.6639 6.2613 -2.2650 0.9729
-1.7082 6.2715 -2.2724 0.9728
-1.7891 6.2621 -2.2769 0.9728
-1.8277 6.2506 -2.2767 0.9728
-1.8662 6.2388 -2.2766 0.9728
-1.9046 6.2269 -2.2765 0.9728
-1.9813 6.2022 -2.2763 0.9728
-2.0957 6.1634 -2.2759 0.9728
-2.1337 6.1500 -2.2758 0.9728
-2.1715 6.1363 -2.2756 0.9728
-2.2093 6.1224 -2.2755 0.9728
-2.2846 6.0939 -2.2753 0.9728
-2.3221 6.0793 -2.2751 0.9728
-2.3596 6.0645 -2.2750 0.9728
-2.3969 6.0495 -2.2749 0.9728
-2.4341 6.0342 -2.2747 0.9728
-2.4712 6.0186 -2.2746 0.9728
-2.5083 6.0029 -2.2745 0.9728
-2.5452 5.9869 -2.2743 0.9728
-2.6187 5.9543 -2.2741 0.9728
-2.6918 5.9207 -2.2738 0.9728
-2.7282 5.9036 -2.2736 0.9728
-2.8007 5.8687 -2.2734 0.9728
-2.8367 5.8508 -2.2732 0.9728
-2.8727 5.8328 -2.2731 0.9728
-3.0507 5.7394 -2.2723 0.9728
-3.0859 5.7200 -2.2722 0.9728
-3.1210 5.7004 -2.2720 0.9728
-3.3972 5.5361 -2.2708 0.9729
-3.4650 5.4929 -2.2705 0.9729
-3.4986 5.4709 -2.2703 0.9729
-3.5321 5.4488 -2.2702 0.9729
-3.5655 5.4265 -2.2700 0.9729
-3.5987 5.4039 -2.2698 0.9729
-3.6318 5.3812 -2.2697 0.9729
-3.6648 5.3582 -2.2695 0.9729
-3.7302 5.3117 -2.2692 0.9729
-3.8272 5.2404 -2.2687 0.9729
-3.8912 5.1919 -2.2683 0.9729
-3.9545 5.1426 -2.2680 0.9729
-4.0172 5.0926 -2.2676 0.9729
-4.0483 5.0672 -2.2675 0.9729
-4.0793 5.0417 -2.2673 0.9729
-4.1100 5.0160 -2.2671 0.9729
-4.1711 4.9640 -2.2668 0.9729
-4.2014 4.9377 -2.2666 0.9729
-4.3209 4.8308 -2.2659 0.9729
-4.4517 4.7950 -2.2874 0.9727
-4.5114 4.7994 -2.3028 0.9725
-4.6332 4.8084 -2.3344 0.9721
-4.7583 4.8175 -2.3673 0.9717
-4.8869 4.8269 -2.4014 0.9713
-4.9787 4.7973 -2.4171 0.9711
-5.0078 4.7660 -2.4169 0.9711
-5.1224 4.6391 -2.4161 0.9711
-5.1786 4.5747 -2.4157 0.9711
-5.2883 4.4436 -2.4149 0.9712
-5.3153 4.4105 -2.4147 0.9712
-5.3420 4.3772 -2.4145 0.9712
-5.3948 4.3100 -2.4140 0.9712
-5.4467 4.2422 -2.4136 0.9712
-5.4724 4.2081 -2.4134 0.9712
-5.4978 4.1738 -2.4132 0.9712
-5.5231 4.1394 -2.4130 0.9712
-5.5481 4.1048 -2.4128 0.9712
-5.5974 4.0351 -2.4124 0.9712
-5.6218 4.0001 -2.4121 0.9712
-5.7170 3.8584 -2.4113 0.9712
-5.7632 3.7868 -2.4109 0.9712
-5.8086 3.7145 -2.4104 0.9712
-5.8309 3.6782 -2.4102 0.9712
-5.8966 3.5684 -2.4096 0.9712
-5.9180 3.5316 -2.4093 0.9712
-5.9392 3.4946 -2.4091 0.9712
-5.9809 3.4203 -2.4087 0.9712
-6.0013 3.3829 -2.4085 0.9712
-6.0216 3.3454 -2.4083 0.9712
-6.0614 3.2701 -2.4078 0.9712
-6.0809 3.2322 -2.4076 0.9712
-6.1003 3.1943 -2.4074 0.9712
-6.1193 3.1562 -2.4072 0.9712
-6.1382 3.1180 -2.4069 0.9712
-6.1752 3.0413 -2.4065 0.9713
-6.1933 3.0028 -2.4063 0.9713
-6.2112 2.9642 -2.4061 0.9713
-6.2288 2.9254 -2.4058 0.9713
-6.2633 2.8476 -2.4054 0.9713
-6.2803 2.8086 -2.4052 0.9713
-6.3296 2.6909 -2.4045 0.9713
-6.3612 2.6119 -2.4041 0.9713
-6.3918 2.5325 -2.4036 0.9713
-6.4215 2.4528 -2.4032 0.9713
-6.4912 2.2521 -2.4021 0.9713
-6.5044 2.2117 -2.4018 0.9713
-6.5301 2.1307 -2.4014 0.9713
-6.5425 2.0901 -2.4012 0.9713
-6.5547 2.0494 -2.4009 0.9713
-6.5898 1.9269 -2.4003 0.9713
-6.6118 1.8449 -2.3998 0.9713
-6.6225 1.8038 -2.3996 0.9713
-6.6431 1.7214 -2.3992 0.9713
-6.6720 1.5975 -2.3985 0.9713
-6.6901 1.5145 -2.3981 0.9714
-6.6987 1.4730 -2.3978 0.9714
-6.7151 1.3898 -2.3974 0.9714
-6.7230 1.3481 -2.3972 0.9714
-6.7379 1.2646 -2.3967 0.9714
-6.7450 1.2228 -2.3965 0.9714
-6.7518 1.1810 -2.3963 0.9714
-6.7583 1.1391 -2.3961 0.9714
-6.7820 0.9712 -2.3952 0.9714
-6.7922 0.8871 -2.3947 0.9714
-6.7969 0.8450 -2.3945 0.9714
-6.8014 0.8029 -2.3943 0.9714
-6.8096 0.7186 -2.3939 0.9714
-6.8133 0.6764 -2.3937 0.9714
-6.8167 0.6342 -2.3934 0.9714
-6.8199 0.5919 -2.3932 0.9714
-6.8228 0.5497 -2.3930 0.9714
-6.8278 0.4652 -2.3926 0.9714
-6.8335 0.3383 -2.3919 0.9714
-6.8359 0.2537 -2.3915 0.9714
-6.8367 0.2115 -2.3913 0.9714
-6.8376 0.1269 -2.3909 0.9714
-6.8376 0.0846 -2.3907 0.9714
-6.6780 0.0000 -2.3905 0.9720
-6.6764 -0.0826 -2.3901 0.9720
-6.6752 -0.1239 -2.3898 0.9720
-6.6678 -0.2888 -2.3890 0.9720
-6.6626 -0.3712 -2.3886 0.9720
-6.6596 -0.4124 -2.3884 0.9721
-6.6564 -0.4535 -2.3882 0.9721
-6.6528 -0.4946 -2.3880 0.9721
-6.6491 -0.5357 -2.3878 0.9721
-6.6451 -0.5768 -2.3876 0.9721
-6.6408 -0.6178 -2.3874 0.9721
-6.6363 -0.6588 -2.3872 0.9721
-6.6316 -0.6998 -2.3870 0.9721
-6.6266 -0.7407 -2.3868 0.9721
-6.5913 -0.9855 -2.3856 0.9721
-6.5846 -1.0262 -2.3854 0.9721
-6.5775 -1.0668 -2.3853 0.9721
-6.5388 -1.2692 -2.3843 0.9721
-6.5216 -1.3497 -2.3839 0.9721
-6.4939 -1.4701 -2.3834 0.9721
-6.4742 -1.5501 -2.3830 0.9721
-6.4640 -1.5900 -2.3828 0.9721
-6.4207 -1.7488 -2.3821 0.9721
-6.3976 -1.8278 -2.3817 0.9721
-6.3356 -2.0240 -2.3808 0.9721
-6.3225 -2.0630 -2.3806 0.9721
-6.2956 -2.1407 -2.3803 0.9721
-6.2818 -2.1794 -2.3801 0.9721
-6.2242 -2.3335 -2.3794 0.9722
-6.2092 -2.3718 -2.3793 0.9722
-6.1940 -2.4099 -2.3791 0.9722
-6.1785 -2.4480 -2.3789 0.9722
-6.1628 -2.4860 -2.3787 0.9722
-6.1307 -2.5617 -2.3784 0.9722
-6.0290 -2.7862 -2.3774 0.9722
-5.9751 -2.8970 -2.3770 0.9722
-5.9567 -2.9337 -2.3768 0.9722
-5.9001 -3.0431 -2.3763 0.9722
-5.8612 -3.1154 -2.3760 0.9722
-5.8414 -3.1514 -2.3759 0.9722
-5.8215 -3.1873 -2.3757 0.9722
-5.8013 -3.2230 -2.3756 0.9722
-5.7394 -3.3295 -2.3751 0.9722
-5.7184 -3.3647 -2.3750 0.9722
-5.6971 -3.3998 -2.3749 0.9722
-5.6539 -3.4696 -2.3746 0.9722
-5.6100 -3.5388 -2.3743 0.9722
-5.5651 -3.6075 -2.3740 0.9722
-5.5424 -3.6417 -2.3739 0.9722
-5.4729 -3.7432 -2.3735 0.9722
-5.4016 -3.8434 -2.3731 0.9722
-5.3775 -3.8766 -2.3729 0.9722
-5.3531 -3.9095 -2.3728 0.9722
-5.3285 -3.9424 -2.3727 0.9722
-5.2028 -4.1041 -2.3721 0.9722
-5.0986 -4.2307 -2.3716 0.9722
-4.9914 -4.3547 -2.3711 0.9722
-4.9367 -4.4157 -2.3709 0.9723
-4.8813 -4.4760 -2.3707 0.9723
-4.7682 -4.5945 -2.3702 0.9723
-4.5933 -4.7670 -2.3696 0.9723
-4.5636 -4.7951 -2.3695 0.9723
-4.5035 -4.8508 -2.3694 0.9723
-4.4733 -4.8784 -2.3693 0.9723
-4.4122 -4.9330 -2.3691 0.9723
-4.2569 -5.0661 -2.3686 0.9723
-4.2253 -5.0921 -2.3686 0.9723
-4.1297 -5.1691 -2.3683 0.9723
-4.0975 -5.1944 -2.3682 0.9723
-4.0652 -5.2194 -2.3682 0.9723
-4.0327 -5.2443 -2.3681 0.9723
-3.9013 -5.3418 -2.3678 0.9723
-3.8680 -5.3657 -2.3677 0.9723
-3.8346 -5.3893 -2.3677 0.9723
-3.8011 -5.4128 -2.3676 0.9723
-3.6998 -5.4819 -2.3674 0.9723
-3.6657 -5.5045 -2.3673 0.9723
-3.6315 -5.5270 -2.3673 0.9723
-3.5627 -5.5712 -2.3672 0.9723
-3.4235 -5.6571 -2.3669 0.9723
-3.3531 -5.6987 -2.3668 0.9723
-3.3177 -5.7192 -2.3668 0.9723
-3.2822 -5.7395 -2.3667 0.9723
-3.2466 -5.7596 -2.3667 0.9723
-3.0304 -5.8754 -2.3664 0.9723
-2.9574 -5.9123 -2.3663 0.9723
-2.9207 -5.9304 -2.3663 0.9723
-2.8101 -5.9833 -2.3662 0.9723
-2.7730 -6.0004 -2.3662 0.9723
-2.7358 -6.0174 -2.3662 0.9723
-2.6985 -6.0342 -2.3661 0.9723
-2.6611 -6.0506 -2.3661 0.9723
-2.6236 -6.0669 -2.3661 0.9723
-2.5860 -6.0830 -2.3660 0.9723
-2.5483 -6.0988 -2.3660 0.9723
-2.4347 -6.1449 -2.3660 0.9723
-2.3966 -6.1597 -2.3659 0.9723
-2.3585 -6.1744 -2.3659 0.9723
-2.3202 -6.1888 -2.3659 0.9723
-2.2818 -6.2030 -2.3659 0.9723
-2.2435 -6.2170 -2.3659 0.9723
-2.0890 -6.2705 -2.3659 0.9723
-2.0501 -6.2833 -2.3658 0.9723
-2.0112 -6.2958 -2.3658 0.9723
-1.7763 -6.3661 -2.3658 0.9723
-1.6579 -6.3980 -2.3659 0.9723
-1.3795 -6.4640 -2.3659 0.9723
-1.2594 -6.4886 -2.3660 0.9723
-1.2193 -6.4963 -2.3660 0.9723
-1.1791 -6.5038 -2.3660 0.9723
-1.0986 -6.5181 -2.3661 0.9723
-1.0582 -6.5248 -2.3661 0.9723
-1.0179 -6.5313 -2.3661 0.9723
-0.9775 -6.5375 -2.3662 0.9723
-0.9371 -6.5435 -2.3662 0.9723
-0.8966 -6.5493 -2.3662 0.9723
-0.8155 -6.5601 -2.3663 0.9723
-0.7343 -6.5699 -2.3664 0.9723
-0.6937 -6.5744 -2.3664 0.9723
-0.5717 -6.5865 -2.3665 0.9723
-0.4902 -6.5933 -2.3666 0.9723
-0.4086 -6.5991 -2.3667 0.9723
-0.1635 -6.6106 -2.3670 0.9723
0.0000 -6.6132 -2.3673 0.9723
0.0818 -6.6131 -2.3674 0.9723
0.1227 -6.6126 -2.3674 0.9723
0.1636 -6.6119 -2.3675 0.9723
0.2045 -6.6110 -2.3676 0.9723
0.2454 -6.6098 -2.3676 0.9723
0.3271 -6.6066 -2.3678 0.9723
0.3680 -6.6047 -2.3679 0.9723
0.4088 -6.6025 -2.3679 0.9723
0.4497 -6.6000 -2.3680 0.9723
0.4905 -6.5973 -2.3681 0.9723
0.5313 -6.5944 -2.3682 0.9723
0.5721 -6.5912 -2.3682 0.9723
0.6536 -6.5840 -2.3684 0.9723
0.6944 -6.5801 -2.3685 0.9723
0.7758 -6.5715 -2.3686 0.9723
0.8976 -6.5566 -2.3689 0.9723
0.9787 -6.5455 -2.3691 0.9723
1.0192 -6.5396 -2.3692 0.9723
1.0597 -6.5334 -2.3693 0.9723
1.1405 -6.5203 -2.3694 0.9723
1.2211 -6.5062 -2.3696 0.9723
1.2614 -6.4988 -2.3697 0.9723
1.3016 -6.4912 -2.3698 0.9723
1.3418 -6.4833 -2.3699 0.9723
1.3819 -6.4752 -2.3700 0.9723
1.4220 -6.4668 -2.3701 0.9723
1.5020 -6.4492 -2.3703 0.9723
1.5420 -6.4401 -2.3704 0.9723
1.5818 -6.4307 -2.3706 0.9723
1.6216 -6.4211 -2.3707 0.9723
1.6613 -6.4113 -2.3708 0.9723
1.7803 -6.3802 -2.3711 0.9723
1.8198 -6.3694 -2.3712 0.9722
1.8986 -6.3470 -2.3714 0.9722
2.0163 -6.3117 -2.3718 0.9722
2.0555 -6.2994 -2.3719 0.9722
2.0945 -6.2869 -2.3720 0.9722
2.1723 -6.2612 -2.3723 0.9722
2.2498 -6.2345 -2.3725 0.9722
2.3270 -6.2068 -2.3728 0.9722
2.3654 -6.1927 -2.3729 0.9722
2.4038 -6.1783 -2.3731 0.9722
2.4421 -6.1636 -2.3732 0.9722
2.5184 -6.1336 -2.3734 0.9722
2.5565 -6.1183 -2.3736 0.9722
2.6323 -6.0869 -2.3739 0.9722
2.6700 -6.0708 -2.3740 0.9722
2.7076 -6.0546 -2.3741 0.9722
2.7452 -6.0380 -2.3743 0.9722
2.7827 -6.0213 -2.3744 0.9722
2.8200 -6.0044 -2.3746 0.9722
2.8944 -5.9697 -2.3748 0.9722
2.9314 -5.9521 -2.3750 0.9722
3.0785 -5.8792 -2.3756 0.9722
3.1150 -5.8604 -2.3757 0.9722
3.1877 -5.8222 -2.3760 0.9722
3.2958 -5.7632 -2.3765 0.9722
3.3316 -5.7430 -2.3766 0.9722
3.3673 -5.7227 -2.3768 0.9722
3.4028 -5.7021 -2.3769 0.9722
3.4382 -5.6814 -2.3771 0.9722
3.4735 -5.6604 -2.3773 0.9722
3.5087 -5.6392 -2.3774 0.9722
3.6134 -5.5742 -2.3779 0.9722
3.6481 -5.5522 -2.3781 0.9722
3.6826 -5.5299 -2.3782 0.9722
3.7513 -5.4847 -2.3786 0.9722
3.7853 -5.4617 -2.3787 0.9722
3.8532 -5.4153 -2.3791 0.9722
3.9538 -5.3440 -2.3796 0.9722
3.9870 -5.3198 -2.3797 0.9722
4.0202 -5.2955 -2.3799 0.9721
4.0859 -5.2461 -2.3803 0.9721
4.1511 -5.1959 -2.3806 0.9721
4.2157 -5.1449 -2.3810 0.9721
4.2478 -5.1192 -2.3811 0.9721
4.2797 -5.0932 -2.3813 0.9721
4.3430 -5.0406 -2.3817 0.9721
4.3744 -5.0140 -2.3819 0.9721
4.4677 -4.9332 -2.3824 0.9721
4.4984 -4.9058 -2.3826 0.9721
4.5291 -4.8783 -2.3828 0.9721
4.5595 -4.8505 -2.3830 0.9721
4.6199 -4.7945 -2.3833 0.9721
4.6498 -4.7663 -2.3835 0.9721
4.6796 -4.7378 -2.3837 0.9721
4.7385 -4.6803 -2.3841 0.9721
4.7678 -4.6512 -2.3843 0.9721
4.7968 -4.6220 -2.3845 0.9721
4.8257 -4.5926 -2.3847 0.9721
4.8544 -4.5631 -2.3848 0.9721
4.8829 -4.5334 -2.3850 0.9721
4.9113 -4.5034 -2.3852 0.9721
4.9674 -4.4431 -2.3856 0.9721
4.9951 -4.4126 -2.3858 0.9721
5.0228 -4.3820 -2.3860 0.9721
5.0502 -4.3512 -2.3862 0.9721
5.1313 -4.2578 -2.3868 0.9721
5.2884 -4.0666 -2.3880 0.9721
5.3139 -4.0341 -2.3882 0.9721
5.3892 -3.9359 -2.3888 0.9720
5.4139 -3.9028 -2.3890 0.9720
5.4384 -3.8696 -2.3892 0.9720
5.4627 -3.8362 -2.3894 0.9720
5.5106 -3.7690 -2.3898 0.9720
5.5810 -3.6670 -2.3904 0.9720
5.6041 -3.6328 -2.3906 0.9720
5.6270 -3.5984 -2.3908 0.9720
5.6496 -3.5638 -2.3911 0.9720
5.6720 -3.5291 -2.3913 0.9720
5.7163 -3.4593 -2.3917 0.9720
5.7380 -3.4242 -2.3919 0.9720
5.7810 -3.3535 -2.3923 0.9720
5.8021 -3.3180 -2.3925 0.9720
5.8230 -3.2823 -2.3927 0.9720
5.8437 -3.2465 -2.3929 0.9720
5.8642 -3.2106 -2.3932 0.9720
5.8844 -3.1746 -2.3934 0.9720
5.9045 -3.1384 -2.3936 0.9720
5.9439 -3.0657 -2.3940 0.9720
6.0568 -2.8446 -2.3953 0.9720
