ply
format ascii 1.0
element vertex 1533
property float32 x
property float32 y
property float32 z
property float32 I
end_header
-13.0925 -17.0262 -2.1276 0.9173
-12.6913 -17.1538 -2.1137 0.9178
-12.5571 -17.1937 -2.1090 0.9180
-12.2906 -17.2734 -2.1000 0.9183
-12.1598 -17.3153 -2.0959 0.9185
-11.8996 -17.3985 -2.0880 0.9188
-11.5450 -17.5708 -2.0826 0.9190
-11.0937 -17.8300 -2.0802 0.9191
-10.9801 -17.8931 -2.0796 0.9191
-10.6373 -18.0785 -2.0778 0.9191
-10.4072 -18.1987 -2.0767 0.9192
-10.2917 -18.2578 -2.0761 0.9192
-10.0597 -18.3739 -2.0750 0.9192
-9.9433 -18.4310 -2.0745 0.9193
-9.5924 -18.5980 -2.0729 0.9193
-9.4748 -18.6524 -2.0724 0.9193
-9.3570 -18.7060 -2.0719 0.9194
-9.0019 -18.8629 -2.0704 0.9194
-8.8830 -18.9138 -2.0699 0.9194
-8.7638 -18.9639 -2.0694 0.9195
-8.6444 -19.0135 -2.0690 0.9195
-8.5248 -19.0623 -2.0685 0.9195
-8.4049 -19.1104 -2.0680 0.9195
-8.1643 -19.2046 -2.0671 0.9195
-7.8018 -19.3407 -2.0659 0.9196
-7.6805 -19.3847 -2.0654 0.9196
-7.1930 -19.5535 -2.0638 0.9197
-6.9481 -19.6337 -2.0631 0.9197
-6.7023 -19.7112 -2.0623 0.9197
-6.3323 -19.8220 -2.0613 0.9198
-6.2086 -19.8575 -2.0609 0.9198
-6.0846 -19.8923 -2.0606 0.9198
-5.9606 -19.9264 -2.0603 0.9198
-5.8363 -19.9598 -2.0600 0.9198
-5.7119 -19.9926 -2.0597 0.9198
-5.0875 -20.1454 -2.0582 0.9199
-4.9622 -20.1737 -2.0579 0.9199
-4.8367 -20.2014 -2.0577 0.9199
-4.5854 -20.2547 -2.0572 0.9199
-4.4595 -20.2803 -2.0569 0.9199
-4.0811 -20.3527 -2.0562 0.9199
-3.9547 -20.3754 -2.0560 0.9200
-3.8283 -20.3974 -2.0558 0.9200
-3.7017 -20.4187 -2.0556 0.9200
-3.4482 -20.4590 -2.0552 0.9200
-3.3213 -20.4782 -2.0550 0.9200
-2.9401 -20.5312 -2.0545 0.9200
-2.8129 -20.5474 -2.0544 0.9200
-2.5582 -20.5777 -2.0541 0.9200
-2.4307 -20.5918 -2.0539 0.9200
-2.1756 -20.6178 -2.0537 0.9200
-2.0479 -20.6297 -2.0536 0.9200
-1.7925 -20.6513 -2.0534 0.9201
-1.5367 -20.6700 -2.0532 0.9201
-1.4088 -20.6783 -2.0531 0.9201
-1.0249 -20.6989 -2.0529 0.9201
-0.8968 -20.7043 -2.0528 0.9201
-0.7688 -20.7090 -2.0528 0.9201
-0.6406 -20.7129 -2.0528 0.9201
-0.3695 -19.9140 -1.9730 0.9231
-0.2552 -20.6285 -2.0436 0.9204
-0.1282 -20.7214 -2.0527 0.9201
0.2563 -20.7204 -2.0527 0.9201
0.3845 -20.7185 -2.0527 0.9201
1.4089 -20.6778 -2.0530 0.9201
1.5367 -20.6694 -2.0531 0.9201
1.7924 -20.6505 -2.0533 0.9201
1.9202 -20.6401 -2.0534 0.9201
2.1755 -20.6169 -2.0536 0.9200
2.3031 -20.6042 -2.0537 0.9200
2.9400 -20.5300 -2.0544 0.9200
3.0671 -20.5130 -2.0546 0.9200
3.1942 -20.4953 -2.0547 0.9200
3.4480 -20.4577 -2.0551 0.9200
3.5748 -20.4378 -2.0553 0.9200
3.7014 -20.4172 -2.0554 0.9200
3.9545 -20.3738 -2.0559 0.9200
4.0808 -20.3511 -2.0561 0.9200
4.5850 -20.2529 -2.0570 0.9199
4.7107 -20.2266 -2.0572 0.9199
4.8363 -20.1996 -2.0575 0.9199
5.9599 -19.9242 -2.0600 0.9198
6.3315 -19.8195 -2.0610 0.9198
6.4550 -19.7832 -2.0614 0.9198
6.5784 -19.7463 -2.0617 0.9197
6.7015 -19.7086 -2.0621 0.9197
6.8245 -19.6702 -2.0624 0.9197
6.9472 -19.6311 -2.0628 0.9197
7.1921 -19.5508 -2.0635 0.9197
7.3142 -19.5096 -2.0639 0.9197
7.6793 -19.3818 -2.0651 0.9196
8.1631 -19.2016 -2.0668 0.9196
8.5234 -19.0592 -2.0681 0.9195
8.8815 -18.9105 -2.0695 0.9195
9.0003 -18.8596 -2.0700 0.9194
9.1189 -18.8080 -2.0705 0.9194
9.2372 -18.7556 -2.0710 0.9194
9.4731 -18.6490 -2.0720 0.9194
9.5906 -18.5946 -2.0725 0.9193
10.0578 -18.3704 -2.0746 0.9193
10.2896 -18.2541 -2.0757 0.9192
10.4051 -18.1950 -2.0763 0.9192
10.5203 -18.1352 -2.0768 0.9192
10.9778 -17.8893 -2.0791 0.9191
11.2046 -17.7624 -2.0803 0.9190
11.4301 -17.6327 -2.0815 0.9190
11.5424 -17.5669 -2.0822 0.9190
11.7659 -17.4333 -2.0834 0.9189
11.9880 -17.2971 -2.0847 0.9189
12.0985 -17.2280 -2.0853 0.9189
12.2086 -17.1582 -2.0860 0.9188
12.3184 -17.0878 -2.0867 0.9188
12.4278 -17.0168 -2.0873 0.9188
12.5369 -16.9450 -2.0880 0.9188
12.7538 -16.7996 -2.0894 0.9187
13.0846 -16.5872 -2.0928 0.9186
13.1831 -16.5012 -2.0922 0.9186
13.6276 -16.2181 -2.0984 0.9184
13.7548 -16.1654 -2.1025 0.9182
13.8825 -16.1126 -2.1068 0.9181
15.0550 -15.6243 -2.1493 0.9165
15.1857 -15.5661 -2.1542 0.9163
15.3169 -15.5076 -2.1591 0.9161
15.4488 -15.4488 -2.1642 0.9159
15.5813 -15.3897 -2.1694 0.9157
15.7144 -15.3304 -2.1747 0.9155
16.1130 -15.1462 -2.1906 0.9149
16.6488 -14.8915 -2.2126 0.9141
16.7842 -14.8269 -2.2184 0.9139
16.9177 -14.7594 -2.2239 0.9137
17.3219 -14.5552 -2.2412 0.9131
17.4581 -14.4863 -2.2472 0.9128
17.5950 -14.4171 -2.2533 0.9126
17.7308 -14.3460 -2.2593 0.9124
17.8660 -14.2735 -2.2652 0.9122
17.9637 -14.1705 -2.2664 0.9121
18.3410 -13.7460 -2.2704 0.9120
18.5261 -13.5302 -2.2725 0.9119
18.6179 -13.4214 -2.2735 0.9119
18.7090 -13.3121 -2.2745 0.9118
18.7995 -13.2021 -2.2756 0.9118
18.9787 -12.9804 -2.2776 0.9117
19.0674 -12.8688 -2.2787 0.9117
19.3299 -12.5304 -2.2819 0.9116
19.4161 -12.4164 -2.2830 0.9115
19.5017 -12.3019 -2.2840 0.9115
19.5867 -12.1868 -2.2851 0.9114
19.7548 -11.9550 -2.2873 0.9114
20.2435 -11.2467 -2.2940 0.9111
20.4790 -10.8853 -2.2974 0.9110
20.5562 -10.7638 -2.2985 0.9109
20.6326 -10.6418 -2.2997 0.9109
20.9317 -10.1487 -2.3043 0.9107
21.0048 -10.0241 -2.3055 0.9107
21.1488 -9.7735 -2.3078 0.9106
21.2197 -9.6475 -2.3090 0.9106
21.2899 -9.5210 -2.3102 0.9105
21.3595 -9.3940 -2.3114 0.9105
21.4283 -9.2666 -2.3126 0.9104
21.5638 -9.0103 -2.3150 0.9103
21.6963 -8.7521 -2.3175 0.9102
21.7615 -8.6222 -2.3187 0.9102
21.8259 -8.4920 -2.3199 0.9102
21.8896 -8.3613 -2.3211 0.9101
22.2562 -7.5678 -2.3286 0.9098
22.4853 -7.0302 -2.3337 0.9096
22.5407 -6.8948 -2.3350 0.9096
22.7021 -6.4861 -2.3388 0.9095
22.7543 -6.3491 -2.3401 0.9094
23.0510 -5.5190 -2.3479 0.9091
23.0976 -5.3794 -2.3492 0.9091
23.2326 -4.9583 -2.3532 0.9089
23.4411 -4.2497 -2.3599 0.9087
23.5187 -3.9640 -2.3626 0.9086
23.5563 -3.8207 -2.3639 0.9085
23.5929 -3.6770 -2.3653 0.9085
23.7311 -3.0994 -2.3707 0.9083
23.7636 -2.9543 -2.3721 0.9082
23.8258 -2.6632 -2.3748 0.9081
23.8556 -2.5173 -2.3762 0.9081
23.8846 -2.3711 -2.3776 0.9080
23.9126 -2.2246 -2.3790 0.9080
23.9398 -2.0779 -2.3803 0.9079
23.9662 -1.9309 -2.3817 0.9079
23.9916 -1.7838 -2.3831 0.9078
24.0399 -1.4886 -2.3859 0.9077
24.0627 -1.3407 -2.3873 0.9077
24.1257 -0.8956 -2.3915 0.9075
24.1807 -0.4487 -2.3957 0.9074
24.2129 -0.1498 -2.3985 0.9073
24.2414 0.1499 -2.4013 0.9072
24.2543 0.3000 -2.4028 0.9071
24.2773 0.6006 -2.4056 0.9070
24.2967 0.9019 -2.4084 0.9069
24.3050 1.0528 -2.4099 0.9068
24.3244 1.5062 -2.4141 0.9067
24.3380 2.2642 -2.4213 0.9064
24.3379 2.4161 -2.4227 0.9064
24.3369 2.5680 -2.4241 0.9063
24.3350 2.7201 -2.4256 0.9063
24.3282 3.0244 -2.4284 0.9062
24.3177 3.3291 -2.4313 0.9061
24.3110 3.4814 -2.4328 0.9060
24.2947 3.7863 -2.4356 0.9059
24.2231 4.7015 -2.4443 0.9056
23.9758 6.5303 -2.4615 0.9049
23.9490 6.6824 -2.4629 0.9049
23.8624 7.1380 -2.4672 0.9047
23.6264 8.1970 -2.4772 0.9044
23.5503 8.4983 -2.4801 0.9043
23.5107 8.6488 -2.4815 0.9042
23.4702 8.7990 -2.4829 0.9042
23.3427 9.2487 -2.4872 0.9040
23.2983 9.3982 -2.4886 0.9039
23.1591 9.8454 -2.4928 0.9038
23.1108 9.9941 -2.4942 0.9037
22.8546 10.7338 -2.5012 0.9035
22.8004 10.8809 -2.5026 0.9034
22.7453 11.0279 -2.5039 0.9034
22.6321 11.3208 -2.5067 0.9033
22.5740 11.4668 -2.5081 0.9032
12.9824 7.3180 -1.4763 0.9419
12.8528 7.4559 -1.4719 0.9420
12.5318 7.7973 -1.4620 0.9424
12.4046 7.9326 -1.4585 0.9425
12.3412 8.0000 -1.4569 0.9426
12.2779 8.0672 -1.4553 0.9427
12.2148 8.1344 -1.4537 0.9427
12.0889 8.2682 -1.4508 0.9428
12.0262 8.3349 -1.4494 0.9429
11.9636 8.4015 -1.4481 0.9429
11.7141 8.6667 -1.4434 0.9431
11.5280 8.8646 -1.4405 0.9432
11.4043 8.9961 -1.4389 0.9433
11.3426 9.0618 -1.4381 0.9433
11.1577 9.2584 -1.4362 0.9434
11.0962 9.3238 -1.4357 0.9434
10.9118 9.5198 -1.4344 0.9435
17.7803 16.5074 -2.4033 0.9071
17.4951 16.8576 -2.4066 0.9070
17.3984 16.9732 -2.4077 0.9069
17.3009 17.0882 -2.4088 0.9069
17.1035 17.3163 -2.4110 0.9068
17.0036 17.4295 -2.4120 0.9068
16.7094 17.7760 -2.4167 0.9066
15.1211 16.2871 -2.2015 0.9145
14.2804 15.9655 -2.1218 0.9175
11.3549 13.1788 -1.7232 0.9325
11.2778 13.2543 -1.7239 0.9324
11.1304 13.4138 -1.7266 0.9323
11.3043 13.9714 -1.7803 0.9303
10.8916 13.6329 -1.7285 0.9323
15.1944 19.2616 -2.4302 0.9061
15.0807 19.3626 -2.4311 0.9061
14.9662 19.4627 -2.4320 0.9060
14.3175 18.8594 -2.3455 0.9092
14.2176 18.9703 -2.3483 0.9091
13.0710 17.6670 -2.1770 0.9155
11.6294 17.0034 -2.0406 0.9205
11.5412 17.1003 -2.0436 0.9204
11.4526 17.1976 -2.0467 0.9203
11.3638 17.2951 -2.0499 0.9202
9.8312 16.2453 -1.8810 0.9265
8.9157 15.5905 -1.7791 0.9304
8.7438 15.5118 -1.7639 0.9309
7.5197 14.1472 -1.5871 0.9376
6.2793 11.9920 -1.3409 0.9470
5.9334 12.2377 -1.3472 0.9468
5.8724 12.3052 -1.3506 0.9467
5.8110 12.3729 -1.3541 0.9465
4.8949 10.9456 -1.1877 0.9529
4.8917 11.1224 -1.2036 0.9523
4.7704 11.0312 -1.1905 0.9528
4.6762 10.9995 -1.1840 0.9531
4.6214 11.0601 -1.1874 0.9530
4.5268 11.2219 -1.1987 0.9525
4.4145 11.3460 -1.2060 0.9522
4.3007 11.4714 -1.2136 0.9519
3.6816 10.2023 -1.0744 0.9573
3.4881 10.0538 -1.0541 0.9581
3.4004 10.2071 -1.0657 0.9577
3.3489 10.2637 -1.0694 0.9575
3.2970 10.3206 -1.0732 0.9574
3.1921 10.4357 -1.0810 0.9571
3.1391 10.4939 -1.0850 0.9569
3.0318 10.6116 -1.0932 0.9566
2.9229 10.7312 -1.1017 0.9563
2.8678 10.7918 -1.1061 0.9561
2.8123 10.8528 -1.1106 0.9559
2.6429 11.0383 -1.1243 0.9554
1.9969 9.0810 -0.9210 0.9633
1.8928 8.8687 -0.8983 0.9642
1.8156 8.7727 -0.8874 0.9646
1.6826 8.6690 -0.8748 0.9651
1.6193 8.6275 -0.8695 0.9653
1.3778 8.4950 -0.8525 0.9660
1.2144 8.4804 -0.8486 0.9662
1.1589 8.4653 -0.8464 0.9662
0.9940 8.4204 -0.8399 0.9665
0.9396 8.4056 -0.8378 0.9666
0.8289 8.3497 -0.8312 0.9668
0.7770 8.3522 -0.8309 0.9668
0.7252 8.3547 -0.8307 0.9669
0.6215 8.3597 -0.8304 0.9669
0.4662 8.3671 -0.8301 0.9669
0.3636 8.3949 -0.8324 0.9668
0.3124 8.4143 -0.8341 0.9667
0.2609 8.4338 -0.8358 0.9667
0.2092 8.4534 -0.8376 0.9666
0.1572 8.4731 -0.8395 0.9665
-0.0534 8.6334 -0.8552 0.9659
-0.1073 8.6767 -0.8596 0.9657
-0.2725 8.8092 -0.8730 0.9652
-0.3287 8.8542 -0.8777 0.9650
-0.4443 8.9726 -0.8899 0.9645
-0.3988 7.1579 -0.7101 0.9716
-0.4806 7.0539 -0.7004 0.9720
-0.5234 7.0403 -0.6993 0.9720
-0.5671 7.0385 -0.6995 0.9720
-0.9454 9.5238 -0.9480 0.9623
-1.0128 9.5979 -0.9560 0.9619
-1.0813 9.6732 -0.9642 0.9616
-1.1509 9.7498 -0.9725 0.9613
-1.2218 9.8277 -0.9810 0.9610
-1.2939 9.9071 -0.9897 0.9606
-1.4421 10.0700 -1.0077 0.9599
-1.5182 10.1537 -1.0170 0.9596
-1.7553 10.4145 -1.0462 0.9584
-1.9211 10.5969 -1.0668 0.9576
-2.0936 10.7866 -1.0884 0.9568
-2.1825 10.8844 -1.0996 0.9564
-2.3660 11.0862 -1.1229 0.9555
-2.4607 11.1903 -1.1350 0.9550
-2.5574 11.2967 -1.1473 0.9545
-2.6563 11.4054 -1.1600 0.9540
-2.9665 11.7466 -1.2001 0.9525
-3.0748 11.8657 -1.2142 0.9519
-3.2991 12.1124 -1.2435 0.9508
-3.4154 12.2403 -1.2588 0.9502
-3.6236 12.3923 -1.2790 0.9494
-3.8517 12.8764 -1.3314 0.9474
-4.3971 13.4762 -1.4042 0.9446
-4.7165 13.5943 -1.4254 0.9438
-4.9155 13.8900 -1.4595 0.9425
-5.0868 13.8278 -1.4595 0.9425
-5.2316 13.6963 -1.4523 0.9428
-5.3181 13.6684 -1.4528 0.9428
-8.5607 18.2275 -1.9948 0.9222
-8.8510 18.5468 -2.0357 0.9207
-9.7985 19.5887 -2.1696 0.9157
-7.4336 14.6340 -1.6259 0.9362
-7.9073 15.1010 -1.6885 0.9338
-7.8700 13.7620 -1.5704 0.9383
-10.5657 18.2135 -2.0858 0.9188
-8.6878 14.7653 -1.6970 0.9335
-11.4446 19.1781 -2.2123 0.9141
-11.9008 19.6652 -2.2769 0.9117
-10.9537 17.8501 -2.0746 0.9193
-8.3876 13.1162 -1.5422 0.9393
-8.5182 13.1406 -1.5512 0.9390
-12.6535 18.7485 -2.2406 0.9131
-13.9199 20.3523 -2.4425 0.9056
-12.3611 17.8355 -2.1496 0.9165
-14.1603 20.1640 -2.4407 0.9057
-7.6461 10.7459 -1.3064 0.9484
-14.0890 19.5439 -2.3866 0.9077
-14.5159 19.8758 -2.4380 0.9058
-14.7495 19.6799 -2.4362 0.9059
-14.8652 19.5808 -2.4353 0.9059
-14.9802 19.4810 -2.4343 0.9059
-15.0946 19.3805 -2.4334 0.9060
-15.2082 19.2793 -2.4324 0.9060
-15.3211 19.1773 -2.4315 0.9060
-15.5447 18.9712 -2.4295 0.9061
-15.6554 18.8671 -2.4286 0.9062
-15.7654 18.7623 -2.4276 0.9062
-15.9831 18.5506 -2.4256 0.9063
-16.1978 18.3362 -2.4236 0.9063
-16.4095 18.1192 -2.4215 0.9064
-16.6177 17.8990 -2.4194 0.9065
-10.2074 10.4631 -1.4480 0.9429
-10.2679 10.3957 -1.4474 0.9430
-10.3519 10.2246 -1.4413 0.9432
-10.5058 10.2491 -1.4539 0.9427
-10.6505 10.0114 -1.4479 0.9429
-13.2150 11.9681 -1.7661 0.9308
-11.7394 10.5003 -1.5602 0.9387
-18.3352 15.7975 -2.3974 0.9073
-18.4238 15.6764 -2.3963 0.9073
-18.5116 15.5547 -2.3951 0.9074
-18.5985 15.4326 -2.3940 0.9074
-18.6845 15.3098 -2.3928 0.9075
-20.1323 16.0841 -2.5526 0.9016
-20.2215 15.9515 -2.5513 0.9017
-20.3098 15.8184 -2.5501 0.9017
-20.3971 15.6847 -2.5488 0.9017
-20.7375 15.1451 -2.5437 0.9019
-20.9021 14.8725 -2.5412 0.9020
-20.9830 14.7354 -2.5399 0.9021
-21.2201 14.3216 -2.5360 0.9022
-21.2973 14.1828 -2.5347 0.9023
-21.5966 13.6233 -2.5294 0.9025
-21.6691 13.4824 -2.5281 0.9025
-21.7406 13.3412 -2.5267 0.9026
-21.8111 13.1994 -2.5254 0.9026
-21.9494 12.9150 -2.5227 0.9027
-22.1497 12.4855 -2.5187 0.9028
-22.3413 12.0529 -2.5146 0.9030
-22.4032 11.9081 -2.5132 0.9030
-22.4642 11.7629 -2.5119 0.9031
-22.5242 11.6174 -2.5105 0.9031
-22.8098 10.8855 -2.5036 0.9034
-22.9172 10.5908 -2.5008 0.9035
-22.9695 10.4430 -2.4994 0.9036
-23.0711 10.1468 -2.4966 0.9037
-23.1205 9.9983 -2.4952 0.9037
-23.2163 9.7007 -2.4924 0.9038
-23.2627 9.5515 -2.4910 0.9039
-23.3081 9.4022 -2.4896 0.9039
-23.3961 9.1029 -2.4868 0.9040
-23.5207 8.6525 -2.4826 0.9042
-23.5603 8.5020 -2.4811 0.9042
-23.5989 8.3513 -2.4797 0.9043
-23.6366 8.2005 -2.4783 0.9043
-23.6732 8.0496 -2.4769 0.9044
-23.7773 7.5959 -2.4726 0.9045
-23.8419 7.2928 -2.4697 0.9046
-23.8727 7.1411 -2.4683 0.9047
-23.9315 6.8373 -2.4655 0.9048
-23.9863 6.5332 -2.4626 0.9049
-24.0842 5.9240 -2.4568 0.9051
-24.1274 5.6191 -2.4540 0.9052
-24.1475 5.4666 -2.4525 0.9053
-24.2184 4.8562 -2.4468 0.9055
-24.2337 4.7036 -2.4453 0.9055
-24.2481 4.5510 -2.4439 0.9056
-24.2614 4.3984 -2.4425 0.9056
-24.2739 4.2457 -2.4410 0.9057
-24.2853 4.0931 -2.4396 0.9057
-24.3217 3.4830 -2.4338 0.9060
-24.3389 3.0258 -2.4295 0.9061
-24.3428 2.8735 -2.4281 0.9062
-24.3479 2.1133 -2.4209 0.9064
-24.3351 1.5069 -2.4152 0.9066
-24.3295 1.3555 -2.4138 0.9067
-24.3157 1.0533 -2.4109 0.9068
-24.3074 0.9023 -2.4095 0.9069
-24.2982 0.7515 -2.4081 0.9069
-24.2769 0.4504 -2.4052 0.9070
-24.2649 0.3001 -2.4038 0.9071
-22.5185 -0.1393 -2.3996 0.9134
-22.5049 -0.2784 -2.3983 0.9134
-22.4904 -0.4173 -2.3970 0.9135
-22.4056 -1.1095 -2.3905 0.9137
-22.3861 -1.2473 -2.3892 0.9138
-22.3227 -1.6597 -2.3853 0.9139
-22.2999 -1.7967 -2.3840 0.9139
-22.2763 -1.9335 -2.3827 0.9140
-22.2519 -2.0701 -2.3814 0.9140
-22.2006 -2.3427 -2.3789 0.9141
-22.1460 -2.6142 -2.3763 0.9142
-22.1176 -2.7497 -2.3750 0.9142
-22.0273 -3.1544 -2.3712 0.9144
-21.9298 -3.5568 -2.3674 0.9145
-21.7888 -4.0894 -2.3624 0.9147
-21.7515 -4.2219 -2.3611 0.9147
-21.6748 -4.4858 -2.3586 0.9148
-21.5120 -5.0101 -2.3537 0.9150
-21.4694 -5.1403 -2.3525 0.9150
-21.3370 -5.5291 -2.3488 0.9152
-21.1978 -5.9148 -2.3451 0.9153
-21.1013 -6.1702 -2.3427 0.9154
-21.0019 -6.4241 -2.3403 0.9154
-20.9511 -6.5505 -2.3391 0.9155
-20.7943 -6.9275 -2.3356 0.9156
-20.7406 -7.0524 -2.3344 0.9156
-20.6862 -7.1770 -2.3332 0.9157
-20.5752 -7.4248 -2.3309 0.9158
-20.5186 -7.5481 -2.3297 0.9158
-20.4613 -7.6711 -2.3286 0.9158
-20.4034 -7.7936 -2.3274 0.9159
-20.2853 -8.0373 -2.3251 0.9160
-20.2253 -8.1586 -2.3240 0.9160
-20.1031 -8.3999 -2.3217 0.9161
-19.9782 -8.6395 -2.3194 0.9162
-19.9147 -8.7586 -2.3183 0.9162
-19.7202 -9.1134 -2.3150 0.9163
-19.6541 -9.2307 -2.3138 0.9164
-19.5873 -9.3476 -2.3127 0.9164
-19.4517 -9.5801 -2.3105 0.9165
-19.3830 -9.6956 -2.3095 0.9165
-19.3135 -9.8107 -2.3084 0.9165
-19.2435 -9.9253 -2.3073 0.9166
-18.8097 -10.6028 -2.3009 0.9168
-18.7352 -10.7140 -2.2998 0.9168
-18.6601 -10.8248 -2.2988 0.9169
-18.5081 -11.0448 -2.2967 0.9170
-18.4311 -11.1540 -2.2957 0.9170
-18.3536 -11.2627 -2.2947 0.9170
-18.2754 -11.3709 -2.2936 0.9171
-18.1174 -11.5858 -2.2916 0.9171
-18.0374 -11.6925 -2.2906 0.9172
-17.9569 -11.7987 -2.2896 0.9172
-17.8758 -11.9043 -2.2886 0.9172
-17.7941 -12.0095 -2.2876 0.9173
-17.7118 -12.1140 -2.2866 0.9173
-17.6290 -12.2180 -2.2856 0.9173
-17.4617 -12.4245 -2.2837 0.9174
-17.2920 -12.6289 -2.2818 0.9175
-17.0334 -12.9313 -2.2789 0.9176
-16.7698 -13.2287 -2.2761 0.9177
-16.6810 -13.3267 -2.2752 0.9177
-16.4110 -13.6175 -2.2724 0.9178
-16.1364 -13.9030 -2.2697 0.9179
-16.0438 -13.9971 -2.2688 0.9179
-15.9507 -14.0905 -2.2679 0.9179
-15.7631 -14.2757 -2.2662 0.9180
-15.6684 -14.3674 -2.2653 0.9180
-15.5734 -14.4585 -2.2645 0.9181
-15.2852 -14.7284 -2.2619 0.9182
-15.1882 -14.8171 -2.2611 0.9182
-14.7955 -15.1661 -2.2578 0.9183
-14.6961 -15.2518 -2.2570 0.9183
-14.3953 -15.5054 -2.2546 0.9184
-14.2942 -15.5886 -2.2538 0.9184
-14.1925 -15.6713 -2.2530 0.9185
-13.9881 -15.8348 -2.2515 0.9185
-13.8851 -15.9156 -2.2507 0.9185
-13.7818 -15.9958 -2.2499 0.9186
-13.6781 -16.0753 -2.2492 0.9186
-13.5739 -16.1542 -2.2484 0.9186
-13.4693 -16.2325 -2.2477 0.9187
-13.3642 -16.3101 -2.2470 0.9187
-13.0468 -16.5393 -2.2448 0.9188
-12.8331 -16.6889 -2.2434 0.9188
-12.7257 -16.7627 -2.2427 0.9188
-12.5097 -16.9084 -2.2413 0.9189
-12.1829 -17.1221 -2.2393 0.9189
-12.0732 -17.1921 -2.2386 0.9190
-11.7419 -17.3979 -2.2367 0.9190
-11.6139 -17.4398 -2.2328 0.9192
-11.4823 -17.4755 -2.2282 0.9193
-11.0906 -17.5816 -2.2151 0.9198
-10.9611 -17.6167 -2.2110 0.9199
-10.5711 -17.7144 -2.1982 0.9204
-9.9289 -17.8717 -2.1786 0.9210
-9.5442 -17.9561 -2.1669 0.9215
-9.4169 -17.9840 -2.1632 0.9216
-9.2900 -18.0119 -2.1596 0.9217
-9.0374 -18.0672 -2.1527 0.9220
-8.6581 -18.1424 -2.1421 0.9223
-7.9073 -18.2852 -2.1229 0.9230
-7.4098 -18.3691 -2.1107 0.9234
-7.2863 -18.3899 -2.1079 0.9235
-7.1631 -18.4107 -2.1051 0.9236
-6.9166 -18.4489 -2.0996 0.9238
-6.7932 -18.4666 -2.0968 0.9239
-6.6702 -18.4844 -2.0940 0.9240
-6.5476 -18.5019 -2.0914 0.9241
-6.1823 -18.5576 -2.0844 0.9243
-6.0611 -18.5761 -2.0822 0.9244
-5.8180 -18.6085 -2.0776 0.9246
-5.6969 -18.6245 -2.0754 0.9246
-5.4575 -18.6644 -2.0722 0.9248
-5.3412 -18.6952 -2.0719 0.9248
-5.2248 -18.7252 -2.0716 0.9248
-5.1082 -18.7547 -2.0713 0.9248
-4.8746 -18.8115 -2.0708 0.9248
-4.7576 -18.8389 -2.0705 0.9248
-4.6404 -18.8656 -2.0703 0.9248
-4.5252 -18.9006 -2.0710 0.9248
-4.2881 -18.9418 -2.0695 0.9248
-4.1704 -18.9659 -2.0693 0.9249
-3.6985 -19.0554 -2.0685 0.9249
-3.5803 -19.0761 -2.0683 0.9249
-3.3435 -19.1154 -2.0679 0.9249
-2.8687 -19.1860 -2.0672 0.9249
-2.7498 -19.2019 -2.0670 0.9249
-2.6308 -19.2172 -2.0669 0.9249
-2.5117 -19.2318 -2.0668 0.9249
-2.1541 -19.2715 -2.0664 0.9250
-1.9154 -19.2946 -2.0662 0.9250
-1.7959 -19.3052 -2.0661 0.9250
-1.6765 -19.3150 -2.0660 0.9250
-1.5569 -19.3242 -2.0659 0.9250
-1.4373 -19.3326 -2.0658 0.9250
-1.1980 -19.3476 -2.0656 0.9250
-1.0783 -19.3540 -2.0656 0.9250
-0.9586 -19.3598 -2.0655 0.9250
-0.8388 -19.3649 -2.0655 0.9250
-0.7190 -19.3693 -2.0654 0.9250
-0.5992 -19.3730 -2.0654 0.9250
-0.4794 -19.3761 -2.0654 0.9250
-0.3595 -19.3784 -2.0653 0.9250
-0.1198 -19.3811 -2.0653 0.9250
0.0000 -19.3813 -2.0653 0.9250
0.1199 -19.3810 -2.0653 0.9250
0.4794 -19.3758 -2.0653 0.9250
0.7191 -19.3690 -2.0654 0.9250
0.8388 -19.3645 -2.0654 0.9250
1.1980 -19.3471 -2.0656 0.9250
1.3177 -19.3399 -2.0657 0.9250
1.5569 -19.3236 -2.0658 0.9250
1.7959 -19.3045 -2.0660 0.9250
2.2733 -19.2581 -2.0664 0.9250
2.5116 -19.2308 -2.0667 0.9249
2.9874 -19.1683 -2.0672 0.9249
3.2248 -19.1329 -2.0676 0.9249
3.3433 -19.1141 -2.0677 0.9249
3.6983 -19.0540 -2.0683 0.9249
4.0524 -18.9878 -2.0689 0.9249
4.2878 -18.9403 -2.0694 0.9249
4.4053 -18.9155 -2.0696 0.9248
4.5228 -18.8901 -2.0698 0.9248
4.6401 -18.8640 -2.0701 0.9248
4.7572 -18.8372 -2.0703 0.9248
4.8742 -18.8097 -2.0706 0.9248
5.1078 -18.7528 -2.0711 0.9248
5.3407 -18.6932 -2.0717 0.9248
5.4570 -18.6624 -2.0720 0.9248
5.5731 -18.6310 -2.0723 0.9248
5.6890 -18.5988 -2.0726 0.9247
6.0358 -18.4985 -2.0735 0.9247
6.3847 -18.4027 -2.0757 0.9246
6.8386 -18.2411 -2.0759 0.9246
7.2931 -18.0796 -2.0774 0.9246
7.8882 -17.9358 -2.0879 0.9242
8.0080 -17.9067 -2.0903 0.9241
8.2483 -17.8484 -2.0952 0.9240
8.4912 -17.7928 -2.1009 0.9238
8.6120 -17.7623 -2.1035 0.9237
8.7329 -17.7316 -2.1062 0.9236
9.0976 -17.6388 -2.1149 0.9233
9.2198 -17.6077 -2.1179 0.9232
9.4652 -17.5447 -2.1243 0.9229
9.8318 -17.4419 -2.1336 0.9226
9.9547 -17.4074 -2.1368 0.9225
10.0780 -17.3728 -2.1402 0.9224
10.4494 -17.2669 -2.1507 0.9220
10.5727 -17.2291 -2.1541 0.9219
10.8203 -17.1531 -2.1611 0.9217
11.0696 -17.0765 -2.1686 0.9214
11.3206 -16.9993 -2.1764 0.9211
11.4450 -16.9579 -2.1801 0.9210
11.5698 -16.9162 -2.1839 0.9209
11.6950 -16.8744 -2.1878 0.9207
11.8207 -16.8324 -2.1918 0.9206
12.0734 -16.7480 -2.2001 0.9203
12.3269 -16.6612 -2.2085 0.9200
12.9619 -16.4317 -2.2302 0.9193
13.0904 -16.3852 -2.2348 0.9191
13.4660 -16.2285 -2.2471 0.9187
13.6747 -16.0713 -2.2486 0.9186
13.7784 -15.9917 -2.2494 0.9186
13.8817 -15.9116 -2.2501 0.9186
13.9845 -15.8307 -2.2509 0.9185
14.2904 -15.5846 -2.2532 0.9185
14.5925 -15.3329 -2.2556 0.9184
14.6922 -15.2478 -2.2564 0.9183
14.9887 -14.9887 -2.2588 0.9183
15.2810 -14.7243 -2.2613 0.9182
15.3775 -14.6349 -2.2621 0.9181
15.4735 -14.5450 -2.2630 0.9181
15.5690 -14.4545 -2.2638 0.9181
15.6640 -14.3634 -2.2647 0.9181
15.7586 -14.2717 -2.2655 0.9180
15.8526 -14.1793 -2.2664 0.9180
15.9461 -14.0865 -2.2673 0.9180
16.1316 -13.8990 -2.2690 0.9179
16.3152 -13.7092 -2.2708 0.9178
16.4061 -13.6134 -2.2717 0.9178
16.5865 -13.4202 -2.2736 0.9178
16.8531 -13.1261 -2.2763 0.9177
16.9409 -13.0270 -2.2773 0.9176
17.1149 -12.8271 -2.2791 0.9176
17.2010 -12.7263 -2.2801 0.9175
17.4561 -12.4206 -2.2830 0.9174
17.5400 -12.3176 -2.2839 0.9174
18.1114 -11.5821 -2.2909 0.9172
18.1907 -11.4749 -2.2919 0.9171
18.3475 -11.2590 -2.2939 0.9170
18.4250 -11.1503 -2.2949 0.9170
18.5019 -11.0410 -2.2959 0.9170
18.5781 -10.9313 -2.2970 0.9169
18.8033 -10.5992 -2.3001 0.9168
18.9503 -10.3754 -2.3022 0.9168
19.0229 -10.2627 -2.3033 0.9167
19.0948 -10.1496 -2.3043 0.9167
19.1661 -10.0359 -2.3054 0.9167
19.2367 -9.9218 -2.3065 0.9166
19.3067 -9.8072 -2.3076 0.9166
19.3761 -9.6922 -2.3086 0.9165
19.4448 -9.5767 -2.3097 0.9165
19.5129 -9.4608 -2.3108 0.9165
19.6471 -9.2275 -2.3130 0.9164
19.8434 -8.8741 -2.3163 0.9163
19.9075 -8.7555 -2.3175 0.9162
19.9709 -8.6364 -2.3186 0.9162
20.0958 -8.3969 -2.3208 0.9161
20.2179 -8.1556 -2.3231 0.9160
20.3958 -7.7907 -2.3266 0.9159
20.5110 -7.5453 -2.3289 0.9158
20.6784 -7.1743 -2.3324 0.9157
20.7865 -6.9249 -2.3347 0.9156
20.8394 -6.7997 -2.3359 0.9156
20.8916 -6.6740 -2.3371 0.9156
20.9432 -6.5480 -2.3383 0.9155
20.9939 -6.4217 -2.3394 0.9155
21.1419 -6.0404 -2.3430 0.9153
21.1897 -5.9125 -2.3442 0.9153
21.2368 -5.7844 -2.3455 0.9153
21.2831 -5.6558 -2.3467 0.9152
21.3736 -5.3978 -2.3491 0.9151
21.5454 -4.8776 -2.3540 0.9150
21.6268 -4.6156 -2.3565 0.9149
21.7051 -4.3524 -2.3589 0.9148
21.8166 -3.9552 -2.3627 0.9147
21.8522 -3.8222 -2.3639 0.9146
21.9869 -3.2876 -2.3690 0.9145
22.0185 -3.1532 -2.3702 0.9144
22.1087 -2.7486 -2.3741 0.9143
22.1372 -2.6132 -2.3753 0.9142
22.1649 -2.4776 -2.3766 0.9142
22.2674 -1.9327 -2.3817 0.9140
22.2909 -1.7960 -2.3830 0.9140
22.3137 -1.6590 -2.3843 0.9139
22.3357 -1.5218 -2.3856 0.9139
22.3567 -1.3844 -2.3869 0.9138
22.3965 -1.1090 -2.3895 0.9137
22.4151 -0.9710 -2.3908 0.9137
22.4498 -0.6944 -2.3934 0.9136
22.4957 -0.2783 -2.3973 0.9135
22.5221 -0.0001 -2.4000 0.9134
22.5339 0.1393 -2.4013 0.9133
22.5552 0.4185 -2.4039 0.9132
22.5730 0.6982 -2.4066 0.9132
22.5875 0.9784 -2.4092 0.9131
22.6026 1.3996 -2.4132 0.9129
22.6059 1.5402 -2.4145 0.9129
22.6084 1.6809 -2.4158 0.9128
22.6100 1.8216 -2.4171 0.9128
22.6107 1.9625 -2.4185 0.9127
22.6012 2.6679 -2.4251 0.9125
22.5967 2.8092 -2.4265 0.9125
22.5850 3.0918 -2.4291 0.9124
22.5778 3.2332 -2.4305 0.9123
22.5698 3.3746 -2.4318 0.9123
22.5608 3.5161 -2.4331 0.9122
22.5510 3.6575 -2.4345 0.9122
22.5287 3.9405 -2.4371 0.9121
22.5162 4.0819 -2.4385 0.9121
22.4735 4.5063 -2.4425 0.9119
22.4405 4.7892 -2.4451 0.9118
22.4039 5.0719 -2.4478 0.9117
22.3843 5.2132 -2.4491 0.9117
22.3638 5.3545 -2.4505 0.9116
22.3201 5.6368 -2.4531 0.9116
22.2220 6.2005 -2.4584 0.9114
22.1389 6.6224 -2.4624 0.9112
22.1094 6.7628 -2.4637 0.9112
21.9824 7.3233 -2.4690 0.9110
21.9484 7.4631 -2.4704 0.9110
21.9135 7.6027 -2.4717 0.9109
21.8777 7.7422 -2.4730 0.9109
21.8410 7.8816 -2.4743 0.9108
21.8035 8.0207 -2.4756 0.9108
21.6853 8.4372 -2.4795 0.9106
21.6019 8.7139 -2.4822 0.9106
21.5590 8.8520 -2.4835 0.9105
21.5151 8.9898 -2.4848 0.9105
21.4703 9.1275 -2.4861 0.9104
21.3781 9.4021 -2.4886 0.9103
21.2822 9.6759 -2.4912 0.9102
21.2329 9.8124 -2.4925 0.9102
21.1317 10.0846 -2.4951 0.9101
20.9185 10.6259 -2.5002 0.9099
20.8066 10.8949 -2.5027 0.9098
20.7493 11.0289 -2.5040 0.9098
12.9818 7.3177 -1.5880 0.9418
12.9169 7.3867 -1.5856 0.9419
12.7876 7.5242 -1.5810 0.9421
12.6591 7.6609 -1.5767 0.9422
12.5950 7.7290 -1.5747 0.9423
12.5312 7.7969 -1.5727 0.9424
12.4675 7.8646 -1.5708 0.9424
12.4040 7.9322 -1.5689 0.9425
12.3406 7.9996 -1.5671 0.9426
12.2773 8.0669 -1.5654 0.9426
12.0256 8.3345 -1.5591 0.9428
11.9630 8.4011 -1.5577 0.9429
11.7758 8.6002 -1.5539 0.9430
11.7136 8.6663 -1.5527 0.9431
11.5894 8.7983 -1.5505 0.9431
11.5274 8.8642 -1.5496 0.9432
11.4038 8.9957 -1.5478 0.9432
11.3420 9.0613 -1.5470 0.9433
11.2803 9.1269 -1.5462 0.9433
11.2187 9.1925 -1.5455 0.9433
11.0956 9.3233 -1.5444 0.9434
10.9727 9.4540 -1.5434 0.9434
13.4906 11.9173 -1.9182 0.9301
16.7072 14.9437 -2.3886 0.9138
16.6217 15.0533 -2.3896 0.9137
16.5354 15.1623 -2.3907 0.9137
16.3606 15.3789 -2.3927 0.9136
16.2721 15.4863 -2.3937 0.9136
16.0929 15.6996 -2.3957 0.9135
15.7256 16.1195 -2.3997 0.9134
14.1922 14.9122 -2.1937 0.9205
15.1175 16.2832 -2.3677 0.9145
14.2716 15.9557 -2.2812 0.9175
14.0924 16.1530 -2.2843 0.9174
14.7636 17.1352 -2.4102 0.9130
11.3279 13.4813 -1.8764 0.9316
11.7461 14.3353 -1.9749 0.9282
14.2526 17.6154 -2.4146 0.9129
10.8911 13.6322 -1.8593 0.9322
14.0436 17.8028 -2.4163 0.9128
13.9381 17.8956 -2.4171 0.9128
13.7251 18.0791 -2.4188 0.9127
13.0703 17.6660 -2.3417 0.9154
11.9856 16.6261 -2.1841 0.9209
11.8047 16.8097 -2.1888 0.9207
11.6288 17.0025 -2.1950 0.9205
11.4520 17.1966 -2.2016 0.9202
11.2741 17.3920 -2.2086 0.9200
11.0950 17.5886 -2.2160 0.9197
11.0051 17.6874 -2.2198 0.9196
10.9148 17.7866 -2.2238 0.9195
9.8306 16.2444 -2.0233 0.9265
9.3627 15.6894 -1.9469 0.9291
9.2216 15.6724 -1.9377 0.9295
9.0672 15.6304 -1.9256 0.9299
8.9148 15.5890 -1.9136 0.9303
8.7431 15.5106 -1.8973 0.9309
8.6701 15.6059 -1.9024 0.9307
7.8301 14.3014 -1.7375 0.9365
7.7351 14.3378 -1.7360 0.9366
7.5555 14.2144 -1.7154 0.9373
6.1651 11.9530 -1.4332 0.9473
6.0957 12.0001 -1.4343 0.9473
6.0542 12.1033 -1.4421 0.9470
5.8721 12.3046 -1.4528 0.9466
4.9490 10.8853 -1.2742 0.9530
4.6925 11.0380 -1.2781 0.9529
4.4706 11.2832 -1.2933 0.9524
4.4142 11.3454 -1.2973 0.9522
4.3575 11.4079 -1.3013 0.9521
3.7371 9.9683 -1.1344 0.9581
3.7266 10.1302 -1.1502 0.9575
3.4514 10.1504 -1.1425 0.9578
3.3487 10.2631 -1.1504 0.9575
3.2968 10.3201 -1.1545 0.9574
3.2446 10.3774 -1.1586 0.9572
3.1919 10.4351 -1.1628 0.9571
3.1389 10.4933 -1.1671 0.9569
3.0316 10.6110 -1.1760 0.9566
2.9774 10.6705 -1.1805 0.9564
2.8676 10.7911 -1.1898 0.9561
2.8121 10.8521 -1.1946 0.9559
2.6427 11.0377 -1.2094 0.9554
2.5853 11.1006 -1.2145 0.9552
2.1054 9.3000 -1.0161 0.9624
1.9166 8.9805 -0.9785 0.9637
1.6324 8.6973 -0.9430 0.9650
1.5693 8.6560 -0.9374 0.9652
1.3843 8.5349 -0.9214 0.9658
1.3263 8.5103 -0.9178 0.9659
1.1036 8.4496 -0.9080 0.9663
1.0486 8.4347 -0.9057 0.9664
0.9395 8.4049 -0.9012 0.9666
0.8288 8.3491 -0.8941 0.9668
0.7769 8.3516 -0.8938 0.9668
0.7251 8.3541 -0.8936 0.9668
0.5179 8.3641 -0.8930 0.9669
0.4147 8.3750 -0.8935 0.9668
0.3123 8.4137 -0.8972 0.9667
0.2091 8.4528 -0.9010 0.9666
0.1572 8.4725 -0.9030 0.9665
0.1057 8.5473 -0.9109 0.9662
0.0530 8.5672 -0.9130 0.9661
0.0000 8.5900 -0.9154 0.9660
-0.0534 8.6328 -0.9199 0.9659
-0.1618 8.7198 -0.9293 0.9655
-0.2168 8.7639 -0.9342 0.9653
-0.3287 8.8536 -0.9441 0.9650
-0.6588 7.0811 -0.7578 0.9718
-0.9454 9.5230 -1.0198 0.9622
-1.1508 9.7490 -1.0461 0.9613
-1.2938 9.9062 -1.0646 0.9606
-1.3672 9.9870 -1.0741 0.9603
-1.4420 10.0692 -1.0839 0.9599
-1.5181 10.1529 -1.0939 0.9595
-1.5956 10.2381 -1.1042 0.9592
-1.7551 10.4136 -1.1253 0.9584
-1.8372 10.5039 -1.1363 0.9580
-2.3658 11.0851 -1.2078 0.9554
-2.4604 11.1892 -1.2208 0.9550
-2.5572 11.2956 -1.2341 0.9545
-2.9662 11.7454 -1.2909 0.9524
-3.1853 11.9863 -1.3216 0.9513
-3.4150 12.2390 -1.3540 0.9502
-3.5342 12.3700 -1.3709 0.9496
-3.6232 12.3909 -1.3757 0.9494
-3.8513 12.8750 -1.4320 0.9474
-4.1167 13.1669 -1.4701 0.9460
-4.3966 13.4746 -1.5104 0.9446
-4.5424 13.6350 -1.5315 0.9438
-4.6444 13.6587 -1.5373 0.9436
-4.7162 13.5936 -1.5332 0.9438
-4.9149 13.8883 -1.5699 0.9425
-5.0135 13.8932 -1.5739 0.9423
-5.0865 13.8270 -1.5700 0.9425
-5.1591 13.7611 -1.5661 0.9426
-5.2313 13.6955 -1.5622 0.9427
-5.8535 14.2562 -1.6422 0.9399
-7.5057 17.0661 -1.9867 0.9277
-7.7542 17.3393 -2.0240 0.9264
-8.2804 17.9179 -2.1034 0.9237
-8.5593 18.2246 -2.1455 0.9222
-6.9809 14.1742 -1.6837 0.9384
-7.7975 14.6698 -1.7703 0.9354
-8.3275 15.2100 -1.8478 0.9326
-8.5029 15.0844 -1.8452 0.9327
-7.8695 13.7610 -1.6892 0.9382
-10.5634 18.2096 -2.2433 0.9188
-8.0127 13.4272 -1.6662 0.9390
-8.9867 14.6446 -1.8309 0.9332
-8.3934 13.1252 -1.6602 0.9393
-8.5503 13.1901 -1.6750 0.9387
-8.7323 13.2901 -1.6946 0.9380
-9.3197 13.9948 -1.7917 0.9346
-12.8606 18.8035 -2.4275 0.9124
-11.8024 17.0293 -2.2078 0.9200
-7.6454 10.7450 -1.4053 0.9483
-12.4105 17.2155 -2.2615 0.9182
-13.5217 18.2762 -2.4226 0.9126
-13.7370 18.0947 -2.4209 0.9127
-13.8437 18.0030 -2.4200 0.9127
-13.9498 17.9107 -2.4192 0.9127
-14.2641 17.6296 -2.4165 0.9128
-14.3675 17.5345 -2.4156 0.9128
-14.4703 17.4388 -2.4147 0.9129
-14.7746 17.1479 -2.4120 0.9130
-14.9740 16.9508 -2.4101 0.9130
-15.4597 16.4466 -2.4053 0.9132
-10.4504 10.9806 -1.6153 0.9408
-10.3746 10.2471 -1.5539 0.9430
-10.4599 10.2044 -1.5572 0.9429
-10.5363 10.0275 -1.5500 0.9432
-10.7828 10.0109 -1.5679 0.9425
-10.8797 9.9763 -1.5730 0.9423
-13.2302 11.9819 -1.9020 0.9307
-10.7344 9.4825 -1.5263 0.9440
-16.8815 14.7279 -2.3873 0.9138
-16.9649 14.6169 -2.3863 0.9139
-17.0475 14.5053 -2.3852 0.9139
-17.2905 14.1676 -2.3820 0.9140
-17.3700 14.0541 -2.3810 0.9140
-18.7149 14.7630 -2.5401 0.9086
-18.7973 14.6403 -2.5389 0.9086
-18.8788 14.5172 -2.5378 0.9086
-19.2740 13.8944 -2.5319 0.9088
-19.6479 13.2605 -2.5259 0.9091
-19.7201 13.1325 -2.5247 0.9091
-19.8619 12.8752 -2.5223 0.9092
-19.9316 12.7460 -2.5211 0.9092
-20.0003 12.6164 -2.5199 0.9093
-20.1352 12.3560 -2.5174 0.9093
-20.3310 11.9627 -2.5137 0.9095
-20.3945 11.8309 -2.5125 0.9095
-20.5189 11.5663 -2.5100 0.9096
-20.6989 11.1668 -2.5062 0.9097
-20.7571 11.0331 -2.5049 0.9098
-20.8144 10.8990 -2.5037 0.9098
-20.8709 10.7646 -2.5024 0.9099
-20.9811 10.4950 -2.4999 0.9099
-21.0878 10.2243 -2.4973 0.9100
-21.2904 9.6796 -2.4922 0.9102
-21.3863 9.4058 -2.4896 0.9103
-21.4329 9.2686 -2.4883 0.9103
-21.5674 8.8555 -2.4844 0.9105
-21.6526 8.5790 -2.4818 0.9106
-21.6938 8.4406 -2.4805 0.9106
-21.7341 8.3019 -2.4792 0.9107
-21.8121 8.0239 -2.4766 0.9107
-21.8496 7.8847 -2.4753 0.9108
-21.9222 7.6058 -2.4727 0.9109
-21.9912 7.3262 -2.4700 0.9110
-22.0243 7.1863 -2.4687 0.9110
-22.0878 6.9059 -2.4661 0.9111
-22.1182 6.7655 -2.4647 0.9112
-22.1764 6.4845 -2.4621 0.9112
-22.2041 6.3438 -2.4608 0.9113
-22.2568 6.0621 -2.4581 0.9114
-22.3292 5.6390 -2.4541 0.9115
-22.3515 5.4978 -2.4528 0.9116
-22.5121 4.2252 -2.4408 0.9120
-22.5254 4.0836 -2.4395 0.9120
-22.5495 3.8006 -2.4368 0.9121
-22.5602 3.6590 -2.4355 0.9122
-22.5790 3.3761 -2.4328 0.9123
-22.5870 3.2346 -2.4315 0.9123
-22.6104 2.6690 -2.4261 0.9125
-22.6141 2.5277 -2.4248 0.9125
-22.6188 2.2454 -2.4221 0.9126
-22.6198 2.1043 -2.4208 0.9127
-22.6199 1.9633 -2.4195 0.9127
-22.6118 1.4001 -2.4142 0.9129
-22.6026 1.1191 -2.4115 0.9130
-22.5644 0.4187 -2.4049 0.9132
-21.0467 0.0000 -2.4009 0.9188
-21.0355 -0.1301 -2.3997 0.9188
-21.0236 -0.2600 -2.3985 0.9188
-21.0108 -0.3899 -2.3972 0.9189
-20.9973 -0.5196 -2.3960 0.9189
-20.9830 -0.6490 -2.3948 0.9190
-20.9679 -0.7784 -2.3936 0.9190
-20.9520 -0.9076 -2.3924 0.9190
-20.9353 -1.0366 -2.3911 0.9191
-20.9179 -1.1655 -2.3899 0.9191
-20.8996 -1.2941 -2.3887 0.9192
-20.8806 -1.4227 -2.3875 0.9192
-20.8608 -1.5510 -2.3863 0.9192
-20.8403 -1.6791 -2.3851 0.9193
-20.7740 -2.0623 -2.3815 0.9194
-20.7504 -2.1896 -2.3803 0.9194
-20.7260 -2.3167 -2.3791 0.9195
-20.7009 -2.4436 -2.3779 0.9195
-20.6749 -2.5703 -2.3767 0.9195
-20.6483 -2.6968 -2.3755 0.9196
-20.6209 -2.8230 -2.3743 0.9196
-20.5927 -2.9490 -2.3731 0.9197
-20.5341 -3.2002 -2.3707 0.9197
-20.5037 -3.3255 -2.3695 0.9198
-20.4081 -3.6998 -2.3660 0.9199
-20.3747 -3.8240 -2.3648 0.9199
-20.2702 -4.1952 -2.3613 0.9200
-20.1969 -4.4412 -2.3590 0.9201
-20.1592 -4.5637 -2.3579 0.9202
-20.1207 -4.6860 -2.3567 0.9202
-20.0010 -5.0511 -2.3533 0.9203
-19.8749 -5.4134 -2.3498 0.9204
-19.7425 -5.7729 -2.3465 0.9205
-19.5563 -6.2475 -2.3420 0.9207
-19.5080 -6.3652 -2.3409 0.9207
-19.4591 -6.4827 -2.3398 0.9207
-19.4094 -6.5998 -2.3387 0.9208
-19.3591 -6.7165 -2.3375 0.9208
-19.2565 -6.9489 -2.3354 0.9209
-19.1512 -7.1799 -2.3332 0.9210
-19.0975 -7.2947 -2.3321 0.9210
-19.0432 -7.4093 -2.3310 0.9210
-18.9326 -7.6372 -2.3289 0.9211
-18.5853 -8.3115 -2.3225 0.9213
-18.5252 -8.4225 -2.3214 0.9213
-18.4031 -8.6432 -2.3194 0.9214
-18.3411 -8.7529 -2.3183 0.9214
-18.2152 -8.9711 -2.3163 0.9215
-18.1514 -9.0796 -2.3152 0.9215
-18.0869 -9.1876 -2.3142 0.9216
-17.8899 -9.5090 -2.3112 0.9217
-17.8230 -9.6154 -2.3102 0.9217
-17.7555 -9.7212 -2.3092 0.9217
-17.6874 -9.8266 -2.3082 0.9218
-17.5495 -10.0360 -2.3062 0.9218
-17.4796 -10.1400 -2.3052 0.9219
-17.4092 -10.2435 -2.3042 0.9219
-17.3382 -10.3466 -2.3033 0.9219
-17.0484 -10.7543 -2.2994 0.9221
-16.9001 -10.9553 -2.2975 0.9221
-16.8252 -11.0551 -2.2966 0.9221
-16.7496 -11.1544 -2.2956 0.9222
-16.5197 -11.4492 -2.2929 0.9223
-16.3638 -11.6434 -2.2910 0.9223
-16.2850 -11.7397 -2.2901 0.9224
-16.2057 -11.8355 -2.2892 0.9224
-16.1258 -11.9308 -2.2883 0.9224
-15.9645 -12.1198 -2.2865 0.9225
-15.8012 -12.3069 -2.2848 0.9225
-15.3839 -12.7652 -2.2804 0.9227
-15.2990 -12.8553 -2.2796 0.9227
-15.0412 -13.1224 -2.2771 0.9228
-14.8669 -13.2978 -2.2754 0.9228
-14.7791 -13.3846 -2.2746 0.9229
-14.6019 -13.5567 -2.2729 0.9229
-14.5127 -13.6419 -2.2721 0.9229
-14.4230 -13.7265 -2.2713 0.9230
-14.3327 -13.8106 -2.2705 0.9230
-14.1511 -13.9771 -2.2690 0.9230
-14.0595 -14.0596 -2.2682 0.9231
-13.7822 -14.3034 -2.2659 0.9231
-13.4065 -14.6205 -2.2629 0.9232
-13.3115 -14.6984 -2.2622 0.9233
-13.2160 -14.7757 -2.2614 0.9233
-13.1202 -14.8524 -2.2607 0.9233
-12.9273 -15.0040 -2.2593 0.9234
-12.7328 -15.1533 -2.2579 0.9234
-12.3390 -15.4447 -2.2551 0.9235
-12.2396 -15.5160 -2.2544 0.9235
-12.1398 -15.5868 -2.2537 0.9235
-11.7369 -15.8638 -2.2511 0.9236
-11.6353 -15.9315 -2.2505 0.9236
-11.4308 -16.0652 -2.2492 0.9237
-11.0179 -16.3252 -2.2468 0.9238
-10.9139 -16.3886 -2.2462 0.9238
-10.7047 -16.5136 -2.2450 0.9238
-10.5996 -16.5753 -2.2444 0.9238
-10.2824 -16.7562 -2.2427 0.9239
-10.1761 -16.8153 -2.2421 0.9239
-10.0694 -16.8737 -2.2416 0.9239
-9.9624 -16.9315 -2.2410 0.9240
-9.6397 -17.1012 -2.2394 0.9240
-9.5315 -17.1564 -2.2389 0.9240
-9.3143 -17.2651 -2.2379 0.9241
-9.0960 -17.3711 -2.2369 0.9241
-8.8765 -17.4746 -2.2359 0.9241
-8.7664 -17.5254 -2.2354 0.9241
-8.5454 -17.6251 -2.2345 0.9242
-8.3233 -17.7221 -2.2335 0.9242
-7.9883 -17.8628 -2.2322 0.9242
-7.7638 -17.9533 -2.2313 0.9243
-7.3120 -18.1265 -2.2297 0.9243
-7.1985 -18.1682 -2.2293 0.9243
-6.8567 -18.2892 -2.2282 0.9244
-6.7423 -18.3282 -2.2278 0.9244
-6.6277 -18.3665 -2.2274 0.9244
-6.5130 -18.4042 -2.2271 0.9244
-6.3980 -18.4412 -2.2267 0.9244
-6.1676 -18.5132 -2.2260 0.9244
-6.0516 -18.5469 -2.2255 0.9245
-5.9296 -18.5615 -2.2228 0.9246
-5.8079 -18.5760 -2.2202 0.9246
-5.6864 -18.5904 -2.2177 0.9247
-5.5653 -18.6049 -2.2153 0.9248
-5.3237 -18.6336 -2.2107 0.9249
-4.8417 -18.6844 -2.2018 0.9252
-4.6014 -18.7070 -2.1976 0.9254
-4.4816 -18.7183 -2.1957 0.9254
-4.3620 -18.7295 -2.1938 0.9255
-4.2426 -18.7407 -2.1920 0.9256
-4.1233 -18.7517 -2.1902 0.9256
-3.8843 -18.7684 -2.1864 0.9257
-3.7651 -18.7767 -2.1846 0.9258
-3.2900 -18.8097 -2.1783 0.9260
-3.1716 -18.8178 -2.1769 0.9260
-3.0530 -18.8236 -2.1754 0.9261
-2.9345 -18.8289 -2.1739 0.9261
-2.8161 -18.8343 -2.1724 0.9262
-2.5798 -18.8448 -2.1698 0.9263
-2.3441 -18.8554 -2.1675 0.9264
-2.2264 -18.8606 -2.1665 0.9264
-1.8731 -18.8690 -2.1631 0.9265
-1.7556 -18.8714 -2.1621 0.9265
-1.2864 -18.8809 -2.1588 0.9266
-0.9349 -18.8816 -2.1566 0.9267
-0.4671 -18.8796 -2.1544 0.9268
-0.3503 -18.8790 -2.1540 0.9268
-0.1167 -18.8754 -2.1533 0.9268
0.0000 -18.8721 -2.1529 0.9268
0.2333 -18.8654 -2.1523 0.9269
0.3500 -18.8621 -2.1521 0.9269
0.4666 -18.8587 -2.1520 0.9269
0.5832 -18.8553 -2.1520 0.9269
0.6998 -18.8519 -2.1520 0.9269
1.0494 -18.8347 -2.1519 0.9269
1.1659 -18.8285 -2.1520 0.9269
1.2824 -18.8222 -2.1521 0.9269
1.3989 -18.8160 -2.1524 0.9269
1.5155 -18.8098 -2.1527 0.9268
1.7487 -18.7969 -2.1535 0.9268
2.0981 -18.7697 -2.1545 0.9268
2.2146 -18.7606 -2.1550 0.9268
2.3312 -18.7515 -2.1556 0.9267
3.0311 -18.6888 -2.1598 0.9266
3.1479 -18.6769 -2.1606 0.9266
3.2647 -18.6649 -2.1615 0.9266
3.3816 -18.6528 -2.1625 0.9265
3.4986 -18.6407 -2.1636 0.9265
3.8496 -18.6005 -2.1668 0.9264
4.2008 -18.5557 -2.1703 0.9263
4.4355 -18.5257 -2.1731 0.9262
4.5531 -18.5106 -2.1746 0.9261
4.6708 -18.4951 -2.1761 0.9261
4.7880 -18.4773 -2.1774 0.9260
5.0230 -18.4415 -2.1804 0.9259
5.2586 -18.4055 -2.1836 0.9258
5.3766 -18.3875 -2.1854 0.9258
5.4949 -18.3694 -2.1872 0.9257
5.7312 -18.3305 -2.1909 0.9256
5.8491 -18.3095 -2.1927 0.9255
6.2043 -18.2464 -2.1985 0.9253
6.5614 -18.1827 -2.2051 0.9251
6.6801 -18.1592 -2.2072 0.9251
7.0371 -18.0867 -2.2139 0.9248
7.1566 -18.0624 -2.2163 0.9248
7.3963 -18.0136 -2.2214 0.9246
7.5166 -17.9891 -2.2241 0.9245
7.7559 -17.9350 -2.2291 0.9243
8.3221 -17.7194 -2.2332 0.9242
8.4332 -17.6712 -2.2336 0.9242
8.6547 -17.5729 -2.2346 0.9242
8.7651 -17.5227 -2.2350 0.9242
8.9850 -17.4204 -2.2360 0.9241
9.0945 -17.3683 -2.2365 0.9241
9.2038 -17.3156 -2.2370 0.9241
9.3128 -17.2622 -2.2375 0.9241
9.4215 -17.2081 -2.2380 0.9241
9.5299 -17.1535 -2.2385 0.9240
9.7459 -17.0422 -2.2395 0.9240
9.8534 -16.9857 -2.2401 0.9240
9.9607 -16.9285 -2.2406 0.9240
10.0676 -16.8706 -2.2412 0.9240
10.1742 -16.8121 -2.2417 0.9239
10.2805 -16.7530 -2.2423 0.9239
10.5976 -16.5720 -2.2440 0.9239
10.7027 -16.5104 -2.2445 0.9238
10.8074 -16.4482 -2.2451 0.9238
10.9117 -16.3854 -2.2457 0.9238
11.0158 -16.3219 -2.2463 0.9238
11.3259 -16.1278 -2.2481 0.9237
11.4285 -16.0619 -2.2488 0.9237
12.3363 -15.4412 -2.2546 0.9235
12.7299 -15.1497 -2.2573 0.9234
12.8273 -15.0754 -2.2580 0.9234
12.9243 -15.0004 -2.2587 0.9234
13.1171 -14.8488 -2.2602 0.9233
13.2129 -14.7721 -2.2609 0.9233
13.3083 -14.6949 -2.2616 0.9233
13.4978 -14.5386 -2.2631 0.9232
13.5919 -14.4596 -2.2638 0.9232
14.1475 -13.9736 -2.2684 0.9231
14.4192 -13.7229 -2.2707 0.9230
14.5089 -13.6383 -2.2715 0.9230
14.6868 -13.4673 -2.2731 0.9229
14.7751 -13.3810 -2.2740 0.9229
14.8629 -13.2942 -2.2748 0.9229
15.0371 -13.1188 -2.2764 0.9228
15.1235 -13.0304 -2.2773 0.9228
15.2094 -12.9413 -2.2781 0.9227
15.3797 -12.7617 -2.2798 0.9227
15.5480 -12.5799 -2.2815 0.9226
15.8786 -12.2101 -2.2850 0.9225
15.9600 -12.1163 -2.2859 0.9225
16.0408 -12.0221 -2.2867 0.9225
16.1211 -11.9273 -2.2876 0.9224
16.2009 -11.8320 -2.2885 0.9224
16.5148 -11.4458 -2.2922 0.9223
16.5919 -11.3480 -2.2931 0.9223
16.6685 -11.2497 -2.2940 0.9222
16.7445 -11.1509 -2.2949 0.9222
16.8950 -10.9520 -2.2968 0.9221
17.3327 -10.3434 -2.3025 0.9220
17.4037 -10.2403 -2.3035 0.9219
17.4741 -10.1368 -2.3045 0.9219
17.5439 -10.0328 -2.3055 0.9219
17.6131 -9.9283 -2.3065 0.9218
17.6817 -9.8234 -2.3074 0.9218
17.8172 -9.6122 -2.3094 0.9217
17.9503 -9.3993 -2.3114 0.9217
18.0160 -9.2921 -2.3124 0.9216
18.0810 -9.1846 -2.3135 0.9216
18.1454 -9.0766 -2.3145 0.9216
18.2092 -8.9682 -2.3155 0.9215
18.3350 -8.7500 -2.3176 0.9215
18.6385 -8.1974 -2.3228 0.9213
18.6973 -8.0856 -2.3238 0.9213
18.7555 -7.9734 -2.3249 0.9212
18.9262 -7.6346 -2.3281 0.9211
19.0367 -7.4068 -2.3302 0.9211
19.1975 -7.0621 -2.3334 0.9209
19.3014 -6.8305 -2.3356 0.9209
19.3523 -6.7142 -2.3367 0.9208
19.4522 -6.4804 -2.3389 0.9208
19.5011 -6.3630 -2.3400 0.9207
19.5494 -6.2452 -2.3411 0.9207
19.5969 -6.1271 -2.3423 0.9207
19.6438 -6.0087 -2.3434 0.9206
19.6900 -5.8899 -2.3445 0.9206
19.7355 -5.7708 -2.3456 0.9206
19.7803 -5.6513 -2.3467 0.9205
19.8244 -5.5315 -2.3479 0.9205
19.8678 -5.4115 -2.3490 0.9204
19.9105 -5.2911 -2.3501 0.9204
19.9525 -5.1703 -2.3513 0.9204
20.0742 -4.8063 -2.3547 0.9203
20.1518 -4.5621 -2.3570 0.9202
20.2265 -4.3167 -2.3593 0.9201
20.2983 -4.0702 -2.3616 0.9200
20.3331 -3.9466 -2.3628 0.9200
20.3672 -3.8227 -2.3640 0.9200
20.4005 -3.6985 -2.3651 0.9199
20.4650 -3.4493 -2.3675 0.9198
20.4961 -3.3243 -2.3687 0.9198
20.5562 -3.0736 -2.3710 0.9197
20.6132 -2.8219 -2.3734 0.9197
20.6931 -2.4428 -2.3770 0.9195
20.7890 -1.9340 -2.3818 0.9194
20.8111 -1.8063 -2.3830 0.9193
20.8325 -1.6785 -2.3842 0.9193
20.8727 -1.4221 -2.3866 0.9192
20.8917 -1.2937 -2.3878 0.9192
20.9099 -1.1650 -2.3890 0.9191
20.9440 -0.9072 -2.3914 0.9191
20.9893 -0.5193 -2.3951 0.9189
21.0387 -0.0001 -2.4000 0.9188
21.0490 0.1302 -2.4012 0.9187
21.0825 0.6521 -2.4061 0.9186
21.0888 0.7829 -2.4074 0.9185
21.0944 0.9137 -2.4086 0.9185
21.1062 1.3069 -2.4123 0.9184
21.1101 1.5695 -2.4148 0.9183
21.1108 1.8323 -2.4173 0.9182
21.1055 2.2271 -2.4210 0.9181
21.1022 2.3588 -2.4222 0.9181
21.0980 2.4904 -2.4235 0.9180
21.0930 2.6222 -2.4247 0.9180
21.0872 2.7541 -2.4260 0.9179
21.0731 3.0177 -2.4285 0.9179
21.0649 3.1496 -2.4297 0.9178
21.0557 3.2815 -2.4309 0.9178
21.0458 3.4134 -2.4322 0.9177
21.0350 3.5453 -2.4334 0.9177
21.0110 3.8091 -2.4359 0.9176
20.9978 3.9410 -2.4372 0.9176
20.9837 4.0728 -2.4384 0.9175
20.9688 4.2046 -2.4396 0.9175
20.9191 4.5999 -2.4434 0.9174
20.9008 4.7316 -2.4446 0.9173
20.8412 5.1264 -2.4483 0.9172
20.7740 5.5205 -2.4521 0.9171
20.6727 6.0448 -2.4570 0.9169
20.6453 6.1756 -2.4582 0.9169
20.5880 6.4369 -2.4607 0.9168
20.5581 6.5675 -2.4619 0.9168
20.5273 6.6978 -2.4632 0.9167
20.4633 6.9581 -2.4656 0.9167
20.3959 7.2178 -2.4681 0.9166
20.3610 7.3474 -2.4693 0.9165
20.2885 7.6062 -2.4717 0.9165
20.1737 7.9931 -2.4754 0.9163
20.0930 8.2501 -2.4778 0.9163
20.0514 8.3783 -2.4790 0.9162
19.9656 8.6340 -2.4814 0.9162
19.9215 8.7615 -2.4826 0.9161
19.8766 8.8889 -2.4838 0.9161
19.8308 9.0160 -2.4850 0.9160
19.7842 9.1429 -2.4862 0.9160
19.7367 9.2695 -2.4874 0.9160
19.6885 9.3959 -2.4886 0.9159
19.4872 9.8988 -2.4934 0.9158
19.4347 10.0239 -2.4946 0.9157
19.2726 10.3974 -2.4981 0.9156
19.2170 10.5213 -2.4992 0.9156
19.1605 10.6449 -2.5004 0.9155
12.9162 7.3863 -1.6973 0.9419
12.7870 7.5238 -1.6925 0.9420
12.7226 7.5922 -1.6901 0.9421
12.6584 7.6605 -1.6879 0.9422
12.4669 7.8642 -1.6815 0.9424
12.4033 7.9318 -1.6795 0.9424
12.2767 8.0664 -1.6757 0.9426
12.1506 8.2005 -1.6722 0.9427
12.0878 8.2674 -1.6706 0.9427
12.0250 8.3341 -1.6690 0.9428
11.9624 8.4007 -1.6675 0.9428
11.8999 8.4671 -1.6661 0.9429
11.7752 8.5997 -1.6634 0.9430
11.6509 8.7319 -1.6609 0.9431
11.5888 8.7979 -1.6598 0.9431
11.4032 8.9953 -1.6568 0.9432
11.3415 9.0609 -1.6560 0.9432
11.2798 9.1265 -1.6552 0.9433
11.2182 9.1920 -1.6545 0.9433
11.0336 9.3882 -1.6526 0.9433
10.9108 9.5188 -1.6518 0.9434
15.6219 13.8001 -2.3778 0.9195
15.5426 13.9021 -2.3788 0.9195
15.3818 14.1045 -2.3807 0.9194
15.3004 14.2051 -2.3817 0.9194
15.1355 14.4046 -2.3835 0.9193
15.0521 14.5036 -2.3845 0.9193
14.9679 14.6021 -2.3854 0.9193
14.7976 14.7976 -2.3873 0.9192
14.7115 14.8945 -2.3882 0.9192
14.5372 15.0868 -2.3900 0.9191
14.3602 15.2769 -2.3918 0.9191
14.2708 15.3712 -2.3927 0.9190
14.1862 15.4709 -2.3945 0.9190
13.8186 15.8392 -2.3979 0.9189
13.7251 15.9298 -2.3987 0.9188
13.5363 16.1094 -2.4003 0.9188
12.5364 15.1082 -2.2395 0.9240
13.2484 16.3741 -2.4027 0.9187
13.0534 16.5476 -2.4043 0.9186
12.9550 16.6334 -2.4051 0.9186
12.8561 16.7185 -2.4059 0.9186
12.7565 16.8031 -2.4066 0.9186
12.6563 16.8870 -2.4074 0.9185
12.4543 17.0529 -2.4089 0.9185
12.0030 16.6503 -2.3415 0.9207
11.8043 16.8091 -2.3431 0.9206
11.7163 16.9050 -2.3463 0.9205
11.6282 17.0015 -2.3497 0.9204
11.2735 17.3910 -2.3643 0.9199
11.1841 17.4892 -2.3682 0.9198
11.0944 17.5876 -2.3722 0.9197
11.0045 17.6864 -2.3763 0.9196
10.9142 17.7856 -2.3805 0.9194
9.8301 16.2435 -2.1659 0.9264
9.3614 15.6873 -2.0840 0.9291
9.0664 15.6289 -2.0611 0.9298
6.5753 11.6649 -1.5275 0.9475
6.3634 11.7951 -1.5289 0.9475
6.2144 11.8681 -1.5282 0.9475
5.9935 12.1695 -1.5475 0.9469
5.2304 11.1365 -1.4036 0.9517
5.0027 10.8253 -1.3604 0.9531
4.7470 10.9771 -1.3643 0.9530
4.6923 11.0375 -1.3682 0.9529
4.5263 11.2209 -1.3802 0.9525
4.4703 11.2826 -1.3844 0.9523
3.7710 10.0585 -1.2254 0.9577
3.5880 9.9428 -1.2058 0.9583
3.5021 10.0941 -1.2188 0.9579
3.4513 10.1499 -1.2230 0.9578
3.4001 10.2060 -1.2272 0.9576
3.2966 10.3195 -1.2358 0.9573
3.2444 10.3768 -1.2403 0.9572
3.1918 10.4346 -1.2448 0.9570
3.0314 10.6104 -1.2588 0.9565
2.6995 10.9748 -1.2893 0.9555
1.9965 9.0792 -1.0605 0.9633
1.7484 8.7192 -1.0144 0.9648
1.6961 8.7384 -1.0154 0.9648
1.6322 8.6966 -1.0094 0.9650
1.3842 8.5342 -0.9863 0.9658
1.2701 8.4944 -0.9798 0.9660
1.0485 8.4340 -0.9695 0.9664
0.9938 8.4192 -0.9671 0.9664
0.9394 8.4043 -0.9647 0.9665
0.8861 8.3976 -0.9633 0.9666
0.7295 8.4051 -0.9624 0.9666
0.6774 8.4076 -0.9622 0.9666
0.6253 8.4101 -0.9620 0.9666
0.2625 8.4873 -0.9687 0.9664
0.1582 8.5268 -0.9729 0.9662
0.1057 8.5467 -0.9750 0.9662
0.0530 8.5667 -0.9773 0.9661
0.0000 8.5894 -0.9798 0.9660
-0.1618 8.7191 -0.9948 0.9655
-0.2168 8.7633 -1.0000 0.9653
-0.2724 8.8079 -1.0052 0.9651
-0.3858 8.9070 -1.0170 0.9647
-0.5233 7.0387 -0.8052 0.9720
-0.5669 7.0369 -0.8053 0.9720
-0.6117 7.0474 -0.8070 0.9719
-0.6587 7.0802 -0.8112 0.9718
-0.9453 9.5223 -1.0916 0.9622
-1.0126 9.5963 -1.1008 0.9619
-1.0811 9.6716 -1.1102 0.9616
-1.1507 9.7482 -1.1198 0.9613
-1.2216 9.8261 -1.1295 0.9609
-1.2921 9.8931 -1.1381 0.9606
-1.3547 9.8955 -1.1394 0.9606
-1.4287 9.9770 -1.1497 0.9602
-1.5042 10.0599 -1.1603 0.9599
-1.5810 10.1444 -1.1712 0.9595
-1.6593 10.2305 -1.1823 0.9591
-1.8204 10.4077 -1.2053 0.9584
-1.9879 10.5919 -1.2294 0.9575
-2.1087 10.8644 -1.2625 0.9564
-2.1678 10.8108 -1.2578 0.9566
-2.3656 11.0841 -1.2929 0.9554
-2.5569 11.2945 -1.3210 0.9544
-2.7568 11.5144 -1.3506 0.9535
-2.9659 11.7443 -1.3818 0.9524
-3.0741 11.8633 -1.3980 0.9519
-3.1849 11.9851 -1.4147 0.9513
-3.4146 12.2377 -1.4494 0.9501
-3.5338 12.3687 -1.4674 0.9495
-3.6228 12.3896 -1.4725 0.9494
-3.8509 12.8736 -1.5329 0.9473
-3.9818 13.0176 -1.5529 0.9467
-4.0968 13.1031 -1.5661 0.9462
-4.3465 13.3212 -1.5985 0.9451
-4.5419 13.6334 -1.6393 0.9438
-4.6441 13.6580 -1.6457 0.9436
-4.7159 13.5928 -1.6413 0.9437
-4.9143 13.8866 -1.6804 0.9424
-5.0132 13.8925 -1.6848 0.9423
-5.0862 13.8262 -1.6806 0.9424
-5.1588 13.7603 -1.6764 0.9426
-5.2310 13.6947 -1.6723 0.9427
-5.3167 13.6648 -1.6727 0.9427
-5.4895 13.8548 -1.7000 0.9418
-5.6681 14.0512 -1.7284 0.9408
-5.8527 14.2542 -1.7578 0.9398
-6.0437 14.4643 -1.7883 0.9388
-7.0342 16.5463 -2.0510 0.9302
-7.2652 16.8003 -2.0880 0.9290
-8.0110 17.6203 -2.2080 0.9250
-8.5579 18.2216 -2.2965 0.9222
-6.9794 14.1713 -1.8020 0.9384
-7.3870 14.3223 -1.8383 0.9372
-7.4700 14.2658 -1.8370 0.9372
-7.5526 14.2092 -1.8357 0.9373
-7.6349 14.1521 -1.8344 0.9373
-8.2215 14.7984 -1.9312 0.9341
-10.9884 18.1575 -2.4211 0.9181
-8.1406 13.0836 -1.7579 0.9398
-8.3991 13.1342 -1.7785 0.9392
-8.5492 13.1885 -1.7929 0.9387
-8.7337 13.2922 -1.8144 0.9380
-11.7399 17.6289 -2.4162 0.9183
-11.8451 17.5507 -2.4154 0.9183
-12.1574 17.3119 -2.4132 0.9184
-12.6665 16.9006 -2.4093 0.9185
-12.8661 16.7317 -2.4077 0.9185
-12.9650 16.6462 -2.4069 0.9186
-13.0633 16.5602 -2.4061 0.9186
-13.1610 16.4735 -2.4053 0.9186
-13.2581 16.3862 -2.4045 0.9186
-13.3546 16.2983 -2.4037 0.9187
-13.4505 16.2098 -2.4028 0.9187
-13.6404 16.0310 -2.4012 0.9188
-13.7344 15.9406 -2.4003 0.9188
-13.8278 15.8498 -2.3995 0.9188
-13.9205 15.7583 -2.3986 0.9188
-14.0127 15.6662 -2.3977 0.9189
-14.1041 15.5736 -2.3969 0.9189
-14.2846 15.3861 -2.3950 0.9189
-10.1358 10.5190 -1.6664 0.9429
