ply
format ascii 1.0
element vertex 1561
property float32 x
property float32 y
property float32 z
property float32 I
end_header
12.2642 -13.7114 -2.3757 0.9285
12.3495 -13.6362 -2.3759 0.9285
12.5187 -13.4840 -2.3762 0.9285
12.8516 -13.1735 -2.3768 0.9285
13.0962 -12.9352 -2.3772 0.9284
13.3365 -12.6925 -2.3777 0.9284
13.4156 -12.6106 -2.3778 0.9284
13.4942 -12.5282 -2.3780 0.9284
13.7270 -12.2781 -2.3785 0.9284
13.8036 -12.1938 -2.3786 0.9284
13.9552 -12.0238 -2.3789 0.9284
14.4695 -11.4141 -2.3801 0.9284
14.6116 -11.2358 -2.3804 0.9284
14.6818 -11.1460 -2.3806 0.9284
14.9573 -10.7825 -2.3813 0.9283
15.1580 -10.5055 -2.3818 0.9283
15.2238 -10.4123 -2.3820 0.9283
15.2891 -10.3188 -2.3821 0.9283
15.4178 -10.1304 -2.3825 0.9283
15.6066 -9.8448 -2.3830 0.9283
15.6683 -9.7488 -2.3832 0.9283
15.8501 -9.4586 -2.3837 0.9283
15.9095 -9.3612 -2.3839 0.9283
16.0841 -9.0665 -2.3845 0.9282
16.1412 -8.9676 -2.3846 0.9282
16.1975 -8.8682 -2.3848 0.9282
16.3086 -8.6686 -2.3852 0.9282
16.4704 -8.3665 -2.3858 0.9282
16.5232 -8.2652 -2.3860 0.9282
16.5753 -8.1634 -2.3861 0.9282
16.6268 -8.0614 -2.3863 0.9282
16.6777 -7.9591 -2.3865 0.9282
16.7775 -7.7534 -2.3869 0.9282
16.8748 -7.5466 -2.3873 0.9282
16.9696 -7.3384 -2.3877 0.9281
17.0161 -7.2340 -2.3879 0.9281
17.1516 -6.9187 -2.3885 0.9281
17.2386 -6.7072 -2.3889 0.9281
17.3644 -6.3878 -2.3895 0.9281
17.4050 -6.2808 -2.3896 0.9281
17.5229 -5.9584 -2.3902 0.9281
17.6349 -5.6337 -2.3909 0.9281
17.6709 -5.5250 -2.3911 0.9280
17.7409 -5.3069 -2.3915 0.9280
17.8082 -5.0879 -2.3919 0.9280
17.8410 -4.9781 -2.3921 0.9280
18.1041 -3.9810 -2.3939 0.9280
18.1299 -3.8693 -2.3941 0.9280
18.1551 -3.7574 -2.3943 0.9280
18.2264 -3.4208 -2.3949 0.9279
18.2488 -3.3084 -2.3952 0.9279
18.2915 -3.0829 -2.3956 0.9279
18.3118 -2.9700 -2.3958 0.9279
18.3315 -2.8570 -2.3960 0.9279
18.3503 -2.7438 -2.3962 0.9279
18.4191 -2.2898 -2.3970 0.9279
18.4345 -2.1761 -2.3972 0.9279
18.4632 -1.9483 -2.3977 0.9279
18.4892 -1.7201 -2.3981 0.9278
18.5011 -1.6059 -2.3983 0.9278
18.5228 -1.3772 -2.3987 0.9278
18.5416 -1.1481 -2.3991 0.9278
18.5500 -1.0335 -2.3994 0.9278
18.5647 -0.8042 -2.3998 0.9278
18.5709 -0.6894 -2.4000 0.9278
18.5813 -0.4598 -2.4004 0.9278
18.5854 -0.3449 -2.4006 0.9278
18.5888 -0.2300 -2.4008 0.9278
18.5916 -0.1150 -2.4011 0.9278
18.5935 -0.0000 -2.4013 0.9278
18.5948 0.1150 -2.4015 0.9277
18.5944 0.4600 -2.4021 0.9277
18.5928 0.5750 -2.4023 0.9277
18.5906 0.6901 -2.4025 0.9277
18.5876 0.8051 -2.4027 0.9277
18.5795 1.0352 -2.4032 0.9277
18.5744 1.1501 -2.4034 0.9277
18.5620 1.3800 -2.4038 0.9277
18.5547 1.4949 -2.4040 0.9277
18.5381 1.7246 -2.4044 0.9277
18.4710 2.4124 -2.4057 0.9276
18.4574 2.5268 -2.4059 0.9276
18.4430 2.6411 -2.4061 0.9276
18.4279 2.7553 -2.4063 0.9276
18.4121 2.8695 -2.4065 0.9276
18.3956 2.9836 -2.4067 0.9276
18.3784 3.0975 -2.4070 0.9276
16.9151 2.9586 -2.2177 0.9331
16.2962 3.0585 -2.1413 0.9353
16.1063 3.3334 -2.1241 0.9358
16.1087 3.4379 -2.1272 0.9357
16.1118 3.5429 -2.1305 0.9356
16.1151 3.6482 -2.1338 0.9355
18.1675 4.2311 -2.4090 0.9275
18.1169 4.4563 -2.4094 0.9275
18.0905 4.5686 -2.4097 0.9275
18.0635 4.6808 -2.4099 0.9275
16.6535 4.4255 -2.2254 0.9329
16.3658 4.4576 -2.1906 0.9339
17.8198 5.0912 -2.3934 0.9280
6.1338 1.8348 -0.8268 0.9745
5.9904 1.8323 -0.8090 0.9751
5.1363 1.8176 -0.7036 0.9783
4.8345 1.8125 -0.6668 0.9794
4.7406 1.8108 -0.6554 0.9797
4.6495 1.8090 -0.6443 0.9801
4.5613 1.8072 -0.6336 0.9804
4.4760 1.8055 -0.6233 0.9807
4.3935 1.8039 -0.6134 0.9810
4.3135 1.8023 -0.6037 0.9813
4.2360 1.8008 -0.5944 0.9816
4.0880 1.7979 -0.5767 0.9821
4.0172 1.7965 -0.5683 0.9824
3.8817 1.7938 -0.5522 0.9829
3.8168 1.7925 -0.5446 0.9831
3.6930 1.7905 -0.5300 0.9836
3.5766 1.7890 -0.5165 0.9840
3.5205 1.7883 -0.5100 0.9842
3.4658 1.7875 -0.5036 0.9844
3.3090 1.7852 -0.4856 0.9850
3.2591 1.7844 -0.4799 0.9851
3.2104 1.7836 -0.4743 0.9853
3.1628 1.7828 -0.4689 0.9855
3.1162 1.7821 -0.4636 0.9856
2.9400 1.7792 -0.4438 0.9862
2.7398 1.7760 -0.4217 0.9869
2.6651 1.7748 -0.4135 0.9872
2.6288 1.7742 -0.4096 0.9873
2.5933 1.7736 -0.4057 0.9874
2.4573 1.7714 -0.3912 0.9879
2.2706 1.7685 -0.3717 0.9885
2.2413 1.7680 -0.3687 0.9886
2.2124 1.7675 -0.3657 0.9886
2.1561 1.7666 -0.3600 0.9888
2.1285 1.7662 -0.3572 0.9889
2.1014 1.7658 -0.3545 0.9890
2.0748 1.7653 -0.3518 0.9891
2.0225 1.7645 -0.3466 0.9892
1.9970 1.7641 -0.3441 0.9893
1.9718 1.7637 -0.3417 0.9894
1.8747 1.7621 -0.3323 0.9897
1.8052 1.7611 -0.3257 0.9899
1.7170 1.7600 -0.3175 0.9901
1.6957 1.7598 -0.3156 0.9902
1.6747 1.7596 -0.3137 0.9903
1.6539 1.7595 -0.3119 0.9903
1.5930 1.7590 -0.3065 0.9905
1.5342 1.7585 -0.3014 0.9906
1.4586 1.7578 -0.2950 0.9908
1.3510 1.7569 -0.2862 0.9911
1.3337 1.7567 -0.2849 0.9911
1.3165 1.7566 -0.2835 0.9912
1.2995 1.7564 -0.2822 0.9912
1.2827 1.7563 -0.2809 0.9913
1.2168 1.7557 -0.2759 0.9914
1.1532 1.7551 -0.2712 0.9916
1.1376 1.7550 -0.2701 0.9916
1.1222 1.7548 -0.2690 0.9916
1.0917 1.7545 -0.2669 0.9917
1.0174 1.7538 -0.2618 0.9919
1.0029 1.7537 -0.2609 0.9919
0.9741 1.7534 -0.2590 0.9919
0.9458 1.7531 -0.2573 0.9920
0.8902 1.7525 -0.2539 0.9921
0.8766 1.7524 -0.2531 0.9921
0.8630 1.7522 -0.2523 0.9922
0.8095 1.7517 -0.2492 0.9922
0.7963 1.7515 -0.2485 0.9923
0.7188 1.7507 -0.2444 0.9924
0.6936 1.7504 -0.2432 0.9924
0.6810 1.7503 -0.2426 0.9925
0.6685 1.7502 -0.2420 0.9925
0.6314 1.7497 -0.2402 0.9925
0.6192 1.7496 -0.2397 0.9925
0.5948 1.7493 -0.2386 0.9926
0.5827 1.7492 -0.2381 0.9926
0.5707 1.7491 -0.2376 0.9926
0.5349 1.7487 -0.2362 0.9927
0.5112 1.7484 -0.2353 0.9927
0.4761 1.7479 -0.2340 0.9927
0.4645 1.7478 -0.2336 0.9927
0.4413 1.7475 -0.2328 0.9928
0.4183 1.7473 -0.2320 0.9928
0.4069 1.7471 -0.2317 0.9928
0.3955 1.7470 -0.2313 0.9928
0.3502 1.7464 -0.2300 0.9928
0.3389 1.7463 -0.2297 0.9929
0.3277 1.7462 -0.2294 0.9929
0.2831 1.7456 -0.2284 0.9929
0.2720 1.7454 -0.2281 0.9929
0.2499 1.7451 -0.2277 0.9929
0.2169 1.7447 -0.2271 0.9929
0.2059 1.7446 -0.2269 0.9929
0.1841 1.7443 -0.2265 0.9930
0.1731 1.7441 -0.2264 0.9930
0.1514 1.7438 -0.2261 0.9930
0.1405 1.7437 -0.2259 0.9930
0.1296 1.7435 -0.2258 0.9930
0.1188 1.7434 -0.2257 0.9930
0.0755 1.7428 -0.2253 0.9930
0.0647 1.7427 -0.2252 0.9930
0.0539 1.7425 -0.2251 0.9930
0.0431 1.7423 -0.2251 0.9930
0.0108 1.7419 -0.2250 0.9930
0.0000 1.7417 -0.2249 0.9930
-0.0108 1.7416 -0.2249 0.9930
-0.0431 1.7411 -0.2249 0.9930
-0.0539 1.7410 -0.2249 0.9930
-0.0754 1.7406 -0.2250 0.9930
-0.0862 1.7405 -0.2251 0.9930
-0.0970 1.7403 -0.2251 0.9930
-0.1078 1.7402 -0.2252 0.9930
-0.1510 1.7395 -0.2255 0.9930
-0.1727 1.7392 -0.2257 0.9930
-0.1835 1.7390 -0.2258 0.9930
-0.1944 1.7389 -0.2260 0.9930
-0.2052 1.7387 -0.2261 0.9930
-0.2161 1.7385 -0.2263 0.9930
-0.2270 1.7384 -0.2264 0.9930
-0.2380 1.7382 -0.2266 0.9929
-0.2489 1.7380 -0.2267 0.9929
-0.3149 1.7370 -0.2280 0.9929
-0.3482 1.7365 -0.2287 0.9929
-0.3705 1.7361 -0.2293 0.9929
-0.3817 1.7359 -0.2295 0.9929
-0.4155 1.7354 -0.2305 0.9928
-0.4496 1.7348 -0.2314 0.9928
-0.4610 1.7346 -0.2318 0.9928
-0.4724 1.7344 -0.2322 0.9928
-0.4839 1.7342 -0.2325 0.9928
-0.4954 1.7340 -0.2329 0.9928
-0.5186 1.7336 -0.2337 0.9927
-0.5302 1.7333 -0.2341 0.9927
-0.5419 1.7331 -0.2345 0.9927
-0.5536 1.7329 -0.2349 0.9927
-0.5771 1.7324 -0.2358 0.9927
-0.5890 1.7321 -0.2363 0.9926
-0.6610 1.7305 -0.2392 0.9926
-0.6732 1.7303 -0.2398 0.9925
-0.7475 1.7286 -0.2432 0.9924
-0.7601 1.7283 -0.2438 0.9924
-0.8112 1.7272 -0.2464 0.9923
-0.8502 1.7263 -0.2485 0.9923
-0.8634 1.7260 -0.2492 0.9922
-0.8766 1.7257 -0.2500 0.9922
-0.9168 1.7248 -0.2523 0.9922
-0.9304 1.7245 -0.2531 0.9921
-0.9717 1.7238 -0.2556 0.9921
-0.9857 1.7236 -0.2564 0.9920
-1.0139 1.7231 -0.2582 0.9920
-1.0425 1.7226 -0.2600 0.9919
-1.0862 1.7219 -0.2629 0.9918
-1.1309 1.7211 -0.2660 0.9917
-1.1766 1.7203 -0.2692 0.9916
-1.1921 1.7200 -0.2703 0.9916
-1.2077 1.7197 -0.2714 0.9916
-1.3209 1.7178 -0.2798 0.9913
-1.3377 1.7175 -0.2811 0.9913
-1.3546 1.7172 -0.2825 0.9912
-1.4063 1.7162 -0.2866 0.9911
-1.4239 1.7159 -0.2880 0.9910
-1.4595 1.7153 -0.2909 0.9910
-1.4776 1.7150 -0.2924 0.9909
-1.5331 1.7140 -0.2970 0.9908
-1.5710 1.7133 -0.3002 0.9907
-1.5903 1.7129 -0.3019 0.9906
-1.6098 1.7126 -0.3035 0.9906
-1.6495 1.7119 -0.3070 0.9905
-1.6901 1.7111 -0.3106 0.9903
-1.7108 1.7107 -0.3125 0.9903
-1.7317 1.7104 -0.3143 0.9902
-1.7743 1.7096 -0.3182 0.9901
-1.8180 1.7089 -0.3222 0.9900
-1.9567 1.7070 -0.3353 0.9896
-2.0055 1.7064 -0.3401 0.9894
-2.0304 1.7060 -0.3425 0.9894
-2.0557 1.7057 -0.3450 0.9893
-2.1073 1.7050 -0.3501 0.9891
-2.1606 1.7043 -0.3554 0.9890
-2.2155 1.7036 -0.3609 0.9888
-2.2436 1.7032 -0.3638 0.9887
-2.3011 1.7025 -0.3697 0.9885
-2.3306 1.7021 -0.3727 0.9884
-2.3606 1.7017 -0.3758 0.9883
-2.3911 1.7013 -0.3790 0.9882
-2.4221 1.7009 -0.3822 0.9881
-2.4857 1.7001 -0.3889 0.9879
-2.5184 1.6996 -0.3924 0.9878
-2.5516 1.6992 -0.3959 0.9877
-2.5855 1.6988 -0.3995 0.9876
-2.6199 1.6983 -0.4032 0.9875
-2.6551 1.6979 -0.4070 0.9874
-2.6908 1.6974 -0.4109 0.9873
-2.7273 1.6969 -0.4148 0.9871
-2.8411 1.6954 -0.4273 0.9867
-2.9620 1.6938 -0.4407 0.9863
-3.0040 1.6933 -0.4453 0.9862
-3.1351 1.6913 -0.4600 0.9857
-3.2269 1.6896 -0.4704 0.9854
-3.3725 1.6870 -0.4870 0.9849
-3.4234 1.6860 -0.4928 0.9847
-16.9216 7.9473 -2.4144 0.9274
-17.0159 7.7362 -2.4140 0.9274
-17.1964 7.3106 -2.4132 0.9274
-17.2826 7.0961 -2.4128 0.9274
-17.4070 6.7726 -2.4122 0.9274
-17.4471 6.6643 -2.4120 0.9274
-17.4865 6.5557 -2.4118 0.9274
-17.5252 6.4469 -2.4116 0.9275
-17.5633 6.3379 -2.4114 0.9275
-17.6007 6.2286 -2.4112 0.9275
-17.6374 6.1191 -2.4110 0.9275
-17.6734 6.0095 -2.4108 0.9275
-17.7087 5.8995 -2.4106 0.9275
-17.8105 5.5686 -2.4099 0.9275
-17.8431 5.4579 -2.4097 0.9275
-18.0518 4.6777 -2.4083 0.9275
-18.0788 4.5657 -2.4081 0.9276
-18.1308 4.3409 -2.4077 0.9276
-18.1557 4.2283 -2.4075 0.9276
-18.1799 4.1156 -2.4073 0.9276
-18.2484 3.7767 -2.4066 0.9276
-18.2698 3.6634 -2.4064 0.9276
-18.2906 3.5500 -2.4062 0.9276
-18.3298 3.3230 -2.4058 0.9276
-18.3484 3.2093 -2.4056 0.9276
-18.4000 2.8676 -2.4049 0.9276
-18.4157 2.7535 -2.4047 0.9277
-18.4308 2.6393 -2.4045 0.9277
-18.4452 2.5251 -2.4043 0.9277
-18.4717 2.2964 -2.4039 0.9277
-18.4955 2.0673 -2.4035 0.9277
-18.5164 1.8381 -2.4030 0.9277
-18.5258 1.7234 -2.4028 0.9277
-18.5496 1.3791 -2.4022 0.9277
-18.5562 1.2642 -2.4020 0.9277
-18.5620 1.1494 -2.4018 0.9277
-18.5715 0.9195 -2.4014 0.9277
-18.5752 0.8046 -2.4011 0.9278
-18.5805 0.5747 -2.4007 0.9278
-18.5829 0.3448 -2.4003 0.9278
-18.5825 0.1149 -2.3999 0.9278
-17.5527 -0.1086 -2.3995 0.9316
-17.5502 -0.2171 -2.3993 0.9316
-17.5471 -0.3256 -2.3991 0.9316
-17.5388 -0.5425 -2.3987 0.9316
-17.5336 -0.6510 -2.3985 0.9316
-17.5278 -0.7593 -2.3983 0.9316
-17.5213 -0.8676 -2.3981 0.9316
-17.5142 -0.9759 -2.3979 0.9316
-17.4887 -1.3003 -2.3973 0.9316
-17.4789 -1.4083 -2.3971 0.9317
-17.4684 -1.5162 -2.3969 0.9317
-17.4454 -1.7319 -2.3965 0.9317
-17.4060 -2.0547 -2.3959 0.9317
-17.3915 -2.1621 -2.3957 0.9317
-17.3764 -2.2695 -2.3955 0.9317
-17.2520 -3.0176 -2.3942 0.9317
-17.2316 -3.1240 -2.3940 0.9317
-17.2106 -3.2302 -2.3938 0.9317
-17.1889 -3.3363 -2.3936 0.9318
-17.1199 -3.6537 -2.3930 0.9318
-17.0956 -3.7592 -2.3928 0.9318
-17.0450 -3.9697 -2.3924 0.9318
-17.0188 -4.0747 -2.3922 0.9318
-16.8779 -4.5971 -2.3913 0.9318
-16.7537 -5.0116 -2.3905 0.9318
-16.7211 -5.1147 -2.3903 0.9318
-16.6539 -5.3203 -2.3900 0.9319
-16.5485 -5.6270 -2.3894 0.9319
-16.5121 -5.7288 -2.3892 0.9319
-16.4751 -5.8304 -2.3890 0.9319
-16.3992 -6.0327 -2.3887 0.9319
-16.3603 -6.1336 -2.3885 0.9319
-16.2807 -6.3345 -2.3881 0.9319
-16.2400 -6.4345 -2.3879 0.9319
-16.1567 -6.6339 -2.3876 0.9319
-16.0710 -6.8322 -2.3872 0.9319
-16.0272 -6.9309 -2.3870 0.9319
-15.8461 -7.3230 -2.3863 0.9320
-15.7040 -7.6140 -2.3858 0.9320
-15.6555 -7.7105 -2.3856 0.9320
-15.6064 -7.8066 -2.3854 0.9320
-15.5064 -7.9978 -2.3851 0.9320
-15.4040 -8.1878 -2.3847 0.9320
-15.3520 -8.2823 -2.3846 0.9320
-15.2994 -8.3765 -2.3844 0.9320
-15.1381 -8.6570 -2.3839 0.9320
-15.0832 -8.7498 -2.3837 0.9320
-15.0278 -8.8423 -2.3835 0.9320
-14.9718 -8.9345 -2.3834 0.9320
-14.9152 -9.0263 -2.3832 0.9320
-14.8003 -9.2088 -2.3829 0.9320
-14.6240 -9.4798 -2.3824 0.9321
-14.5640 -9.5694 -2.3822 0.9321
-14.5036 -9.6586 -2.3821 0.9321
-14.3190 -9.9240 -2.3816 0.9321
-14.2564 -10.0118 -2.3814 0.9321
-14.1297 -10.1860 -2.3811 0.9321
-14.0655 -10.2725 -2.3809 0.9321
-13.8698 -10.5296 -2.3805 0.9321
-13.8035 -10.6144 -2.3803 0.9321
-13.6694 -10.7829 -2.3800 0.9321
-13.6016 -10.8666 -2.3799 0.9321
-13.5333 -10.9498 -2.3797 0.9321
-13.4645 -11.0326 -2.3796 0.9321
-13.3951 -11.1149 -2.3794 0.9321
-13.3253 -11.1969 -2.3793 0.9321
-13.1842 -11.3595 -2.3790 0.9322
-13.1129 -11.4401 -2.3788 0.9322
-13.0411 -11.5203 -2.3787 0.9322
-12.9688 -11.6000 -2.3786 0.9322
-12.8961 -11.6793 -2.3784 0.9322
-12.8228 -11.7581 -2.3783 0.9322
-12.7491 -11.8365 -2.3781 0.9322
-12.6003 -11.9918 -2.3778 0.9322
-12.3735 -12.2214 -2.3774 0.9322
-12.2200 -12.3721 -2.3772 0.9322
-12.1426 -12.4467 -2.3770 0.9322
-11.9864 -12.5946 -2.3768 0.9322
-11.9076 -12.6677 -2.3766 0.9322
-11.6686 -12.8843 -2.3762 0.9322
-11.5881 -12.9556 -2.3761 0.9322
-11.3439 -13.1662 -2.3757 0.9322
-11.2617 -13.2354 -2.3756 0.9322
-11.1791 -13.3042 -2.3755 0.9322
-11.0125 -13.4400 -2.3752 0.9323
-10.9287 -13.5072 -2.3751 0.9323
-10.8444 -13.5738 -2.3750 0.9323
-10.7597 -13.6400 -2.3749 0.9323
-10.6746 -13.7056 -2.3748 0.9323
-10.3304 -13.9627 -2.3743 0.9323
-10.1559 -14.0881 -2.3741 0.9323
-10.0681 -14.1500 -2.3740 0.9323
-9.9800 -14.2113 -2.3739 0.9323
-9.8026 -14.3323 -2.3737 0.9323
-9.5337 -14.5098 -2.3733 0.9323
-9.4434 -14.5678 -2.3732 0.9323
-9.2617 -14.6823 -2.3730 0.9323
-9.0786 -14.7945 -2.3728 0.9323
-8.8942 -14.9044 -2.3726 0.9323
-8.7085 -15.0121 -2.3725 0.9323
-8.6152 -15.0650 -2.3724 0.9323
-8.5215 -15.1174 -2.3723 0.9323
-8.4275 -15.1692 -2.3722 0.9323
-8.3333 -15.2205 -2.3721 0.9323
-8.1438 -15.3212 -2.3719 0.9323
-8.0486 -15.3708 -2.3718 0.9323
-7.9531 -15.4196 -2.3717 0.9324
-7.6648 -15.5630 -2.3715 0.9324
-7.2765 -15.7456 -2.3712 0.9324
-7.1788 -15.7898 -2.3711 0.9324
-6.9825 -15.8764 -2.3709 0.9324
-6.6862 -16.0017 -2.3707 0.9324
-6.5869 -16.0423 -2.3706 0.9324
-6.3876 -16.1216 -2.3705 0.9324
-6.2876 -16.1603 -2.3704 0.9324
-5.9862 -16.2728 -2.3702 0.9324
-5.8853 -16.3091 -2.3702 0.9324
-5.7842 -16.3448 -2.3701 0.9324
-5.4796 -16.4481 -2.3699 0.9324
-4.9679 -16.6077 -2.3697 0.9324
-4.8650 -16.6377 -2.3696 0.9324
-4.7619 -16.6672 -2.3696 0.9324
-4.5552 -16.7241 -2.3695 0.9324
-4.2439 -16.8048 -2.3693 0.9324
-4.1398 -16.8304 -2.3693 0.9324
-4.0356 -16.8554 -2.3693 0.9324
-3.9312 -16.8797 -2.3692 0.9324
-3.8267 -16.9034 -2.3692 0.9324
-3.7220 -16.9265 -2.3691 0.9324
-3.6172 -16.9489 -2.3691 0.9324
-2.9857 -17.0701 -2.3689 0.9324
-2.7743 -17.1053 -2.3689 0.9324
-2.4564 -17.1533 -2.3688 0.9324
-2.2441 -17.1820 -2.3687 0.9324
-1.9249 -17.2203 -2.3687 0.9324
-1.8183 -17.2318 -2.3687 0.9324
-1.6050 -17.2527 -2.3686 0.9324
-1.4983 -17.2622 -2.3686 0.9324
-1.3915 -17.2710 -2.3686 0.9324
-0.8569 -17.3055 -2.3686 0.9324
-0.7498 -17.3104 -2.3686 0.9324
-0.6428 -17.3147 -2.3686 0.9324
-0.5357 -17.3183 -2.3686 0.9324
-0.4286 -17.3213 -2.3686 0.9324
-0.3214 -17.3237 -2.3686 0.9324
-0.2143 -17.3253 -2.3686 0.9324
-0.0000 -17.3267 -2.3686 0.9324
0.1071 -17.3264 -2.3686 0.9324
0.5357 -17.3187 -2.3686 0.9324
0.6428 -17.3151 -2.3686 0.9324
0.8569 -17.3061 -2.3686 0.9324
0.9639 -17.3005 -2.3687 0.9324
1.0709 -17.2943 -2.3687 0.9324
1.2847 -17.2800 -2.3687 0.9324
1.3916 -17.2719 -2.3687 0.9324
1.7118 -17.2436 -2.3688 0.9324
1.8184 -17.2329 -2.3688 0.9324
1.9250 -17.2214 -2.3688 0.9324
2.0315 -17.2094 -2.3689 0.9324
2.2442 -17.1834 -2.3689 0.9324
2.3505 -17.1694 -2.3690 0.9324
2.5627 -17.1395 -2.3690 0.9324
2.6687 -17.1236 -2.3691 0.9324
2.8804 -17.0898 -2.3691 0.9324
2.9860 -17.0719 -2.3692 0.9324
3.0916 -17.0534 -2.3692 0.9324
3.1971 -17.0342 -2.3692 0.9324
3.5127 -16.9729 -2.3694 0.9324
3.6177 -16.9512 -2.3694 0.9324
3.7225 -16.9288 -2.3695 0.9324
3.8272 -16.9058 -2.3695 0.9324
4.1404 -16.8329 -2.3697 0.9324
4.3485 -16.7812 -2.3698 0.9324
4.4523 -16.7544 -2.3698 0.9324
4.5559 -16.7268 -2.3699 0.9324
4.7627 -16.6700 -2.3700 0.9324
4.9688 -16.6107 -2.3701 0.9324
5.0715 -16.5800 -2.3702 0.9324
5.1741 -16.5488 -2.3702 0.9324
5.3786 -16.4844 -2.3703 0.9324
5.4806 -16.4513 -2.3704 0.9324
5.5824 -16.4175 -2.3705 0.9324
5.6840 -16.3832 -2.3705 0.9324
5.7854 -16.3482 -2.3706 0.9324
5.8865 -16.3126 -2.3707 0.9324
5.9875 -16.2763 -2.3708 0.9324
6.0882 -16.2395 -2.3708 0.9324
6.1887 -16.2020 -2.3709 0.9324
6.4889 -16.0860 -2.3711 0.9324
6.5884 -16.0461 -2.3712 0.9324
6.6877 -16.0056 -2.3713 0.9324
6.7868 -15.9645 -2.3714 0.9324
6.8857 -15.9227 -2.3714 0.9324
7.3759 -15.7050 -2.3719 0.9323
7.4732 -15.6597 -2.3720 0.9323
7.7633 -15.5201 -2.3722 0.9323
8.0509 -15.3752 -2.3725 0.9323
8.2411 -15.2757 -2.3727 0.9323
8.3357 -15.2250 -2.3728 0.9323
8.4301 -15.1738 -2.3729 0.9323
8.6178 -15.0697 -2.3731 0.9323
8.8043 -14.9632 -2.3733 0.9323
8.8971 -14.9091 -2.3734 0.9323
8.9895 -14.8545 -2.3735 0.9323
9.1733 -14.7435 -2.3737 0.9323
9.2648 -14.6871 -2.3738 0.9323
9.4466 -14.5728 -2.3740 0.9323
9.5370 -14.5148 -2.3742 0.9323
9.8949 -14.2771 -2.3746 0.9323
9.9835 -14.2164 -2.3747 0.9323
10.1596 -14.0932 -2.3750 0.9323
10.2471 -14.0308 -2.3751 0.9323
10.3342 -13.9678 -2.3752 0.9323
10.4209 -13.9044 -2.3753 0.9323
10.5931 -13.7759 -2.3756 0.9322
11.1835 -13.3095 -2.3764 0.9322
11.3486 -13.1716 -2.3767 0.9322
11.4304 -13.1019 -2.3768 0.9322
11.5929 -12.9609 -2.3771 0.9322
11.8334 -12.7458 -2.3775 0.9322
11.9915 -12.6000 -2.3778 0.9322
12.1478 -12.4521 -2.3781 0.9322
12.3024 -12.3024 -2.3783 0.9322
12.3790 -12.2268 -2.3785 0.9322
12.5307 -12.0742 -2.3788 0.9322
12.6059 -11.9972 -2.3789 0.9322
12.8287 -11.7635 -2.3794 0.9321
12.9020 -11.6847 -2.3795 0.9321
12.9748 -11.6054 -2.3797 0.9321
13.0472 -11.5256 -2.3798 0.9321
13.1191 -11.4454 -2.3800 0.9321
13.1904 -11.3649 -2.3801 0.9321
13.3317 -11.2023 -2.3804 0.9321
13.4016 -11.1203 -2.3806 0.9321
13.4710 -11.0379 -2.3807 0.9321
13.5398 -10.9551 -2.3809 0.9321
13.6082 -10.8719 -2.3810 0.9321
13.6761 -10.7883 -2.3812 0.9321
13.7435 -10.7042 -2.3813 0.9321
13.8767 -10.5348 -2.3817 0.9321
13.9425 -10.4495 -2.3818 0.9321
14.0078 -10.3637 -2.3820 0.9321
14.1368 -10.1911 -2.3823 0.9321
14.2005 -10.1042 -2.3825 0.9321
14.3264 -9.9291 -2.3828 0.9320
14.6910 -9.3948 -2.3838 0.9320
14.7499 -9.3044 -2.3840 0.9320
14.8660 -9.1226 -2.3843 0.9320
14.9232 -9.0311 -2.3845 0.9320
15.0914 -8.7546 -2.3850 0.9320
15.1463 -8.6617 -2.3852 0.9320
15.2545 -8.4750 -2.3855 0.9320
15.3604 -8.2869 -2.3859 0.9320
15.4641 -8.0974 -2.3862 0.9320
15.5150 -8.0022 -2.3864 0.9319
15.5654 -7.9067 -2.3866 0.9319
15.6643 -7.7147 -2.3869 0.9319
15.8083 -7.4245 -2.3875 0.9319
15.9013 -7.2295 -2.3878 0.9319
15.9470 -7.1316 -2.3880 0.9319
16.0802 -6.8361 -2.3886 0.9319
16.1234 -6.7371 -2.3888 0.9319
16.2080 -6.5381 -2.3891 0.9319
16.2902 -6.3382 -2.3895 0.9319
16.3303 -6.2378 -2.3897 0.9319
16.3699 -6.1371 -2.3899 0.9319
16.5219 -5.7322 -2.3906 0.9318
16.5941 -5.5283 -2.3910 0.9318
16.6293 -5.4260 -2.3912 0.9318
16.7957 -4.9112 -2.3921 0.9318
16.8273 -4.8076 -2.3923 0.9318
16.9176 -4.4957 -2.3929 0.9318
16.9464 -4.3914 -2.3931 0.9318
16.9747 -4.2868 -2.3933 0.9318
17.0022 -4.1821 -2.3935 0.9318
17.0291 -4.0772 -2.3937 0.9317
17.0554 -3.9721 -2.3939 0.9317
17.1060 -3.7615 -2.3943 0.9317
17.1771 -3.4444 -2.3949 0.9317
17.2422 -3.1259 -2.3954 0.9317
17.2627 -3.0194 -2.3956 0.9317
17.2824 -2.9129 -2.3958 0.9317
17.3549 -2.4853 -2.3966 0.9317
17.3872 -2.2709 -2.3970 0.9317
17.4024 -2.1635 -2.3972 0.9317
17.4438 -1.8407 -2.3978 0.9316
17.4563 -1.7329 -2.3980 0.9316
17.4682 -1.6251 -2.3982 0.9316
17.5088 -1.1929 -2.3990 0.9316
17.5252 -0.9765 -2.3994 0.9316
17.5388 -0.7597 -2.3998 0.9316
17.5446 -0.6513 -2.4000 0.9316
17.5498 -0.5428 -2.4002 0.9316
17.5543 -0.4343 -2.4004 0.9316
17.5581 -0.3258 -2.4006 0.9316
17.5637 -0.1087 -2.4010 0.9315
17.5655 -0.0000 -2.4012 0.9315
17.5671 0.2173 -2.4016 0.9315
17.5669 0.3259 -2.4018 0.9315
17.5660 0.4346 -2.4020 0.9315
17.5644 0.5432 -2.4022 0.9315
17.5557 0.8692 -2.4028 0.9315
17.5465 1.0865 -2.4032 0.9315
17.5347 1.3036 -2.4036 0.9315
17.5277 1.4122 -2.4038 0.9315
17.5028 1.7375 -2.4044 0.9315
17.4932 1.8459 -2.4046 0.9314
17.4603 2.1706 -2.4052 0.9314
17.4480 2.2787 -2.4054 0.9314
17.4213 2.4948 -2.4058 0.9314
17.4070 2.6027 -2.4060 0.9314
17.3763 2.8182 -2.4064 0.9314
17.3430 3.0335 -2.4068 0.9314
16.4486 2.9820 -2.2852 0.9347
17.2880 3.3555 -2.4074 0.9314
17.2480 3.5696 -2.4078 0.9314
17.2270 3.6765 -2.4080 0.9314
17.1830 3.8900 -2.4084 0.9313
17.1600 3.9965 -2.4086 0.9313
17.1363 4.1028 -2.4088 0.9313
17.0870 4.3152 -2.4091 0.9313
17.0614 4.4211 -2.4093 0.9313
16.9522 4.8433 -2.4101 0.9313
6.1378 1.8360 -0.8758 0.9745
5.9941 1.8335 -0.8569 0.9750
5.8566 1.8311 -0.8388 0.9755
5.3598 1.8224 -0.7739 0.9774
4.7430 1.8117 -0.6941 0.9797
4.5635 1.8081 -0.6710 0.9804
4.4781 1.8064 -0.6601 0.9807
4.3955 1.8048 -0.6495 0.9810
4.2379 1.8016 -0.6295 0.9816
4.1627 1.8001 -0.6200 0.9819
4.0898 1.7987 -0.6108 0.9821
4.0189 1.7973 -0.6018 0.9824
3.7551 1.7920 -0.5688 0.9833
3.6936 1.7908 -0.5611 0.9836
3.6342 1.7898 -0.5538 0.9838
3.3097 1.7855 -0.5141 0.9849
3.2112 1.7840 -0.5022 0.9853
3.1170 1.7825 -0.4908 0.9856
3.0715 1.7817 -0.4854 0.9858
2.9834 1.7803 -0.4749 0.9861
2.9407 1.7796 -0.4699 0.9862
2.8990 1.7789 -0.4650 0.9864
2.8581 1.7783 -0.4602 0.9865
2.7788 1.7770 -0.4509 0.9868
2.7404 1.7764 -0.4464 0.9869
2.6657 1.7752 -0.4378 0.9872
2.5938 1.7740 -0.4296 0.9874
2.5589 1.7735 -0.4256 0.9875
2.4909 1.7723 -0.4179 0.9877
2.4578 1.7718 -0.4142 0.9878
2.3934 1.7708 -0.4070 0.9881
2.2711 1.7688 -0.3935 0.9884
2.2417 1.7683 -0.3903 0.9885
2.2129 1.7679 -0.3872 0.9886
2.1844 1.7674 -0.3841 0.9887
2.1565 1.7670 -0.3811 0.9888
2.1289 1.7665 -0.3782 0.9889
2.0751 1.7657 -0.3725 0.9891
2.0488 1.7653 -0.3697 0.9891
2.0229 1.7648 -0.3670 0.9892
1.9974 1.7644 -0.3643 0.9893
1.9722 1.7640 -0.3617 0.9894
1.9474 1.7636 -0.3592 0.9894
1.8988 1.7629 -0.3542 0.9896
1.8515 1.7621 -0.3494 0.9897
1.8283 1.7617 -0.3471 0.9898
1.6743 1.7593 -0.3320 0.9902
1.6534 1.7589 -0.3300 0.9903
1.6327 1.7586 -0.3280 0.9904
1.6123 1.7583 -0.3261 0.9904
1.5921 1.7580 -0.3242 0.9905
1.5525 1.7574 -0.3206 0.9906
1.5331 1.7572 -0.3188 0.9906
1.4950 1.7570 -0.3154 0.9907
1.4576 1.7566 -0.3120 0.9908
1.4211 1.7563 -0.3088 0.9909
1.4031 1.7562 -0.3073 0.9910
1.3328 1.7556 -0.3013 0.9911
1.2652 1.7550 -0.2958 0.9913
1.2160 1.7546 -0.2918 0.9914
1.1840 1.7543 -0.2893 0.9915
1.1682 1.7541 -0.2881 0.9915
1.1215 1.7537 -0.2846 0.9916
1.0610 1.7531 -0.2801 0.9918
1.0461 1.7530 -0.2791 0.9918
1.0314 1.7529 -0.2780 0.9918
1.0168 1.7527 -0.2770 0.9919
0.9735 1.7523 -0.2740 0.9919
0.9452 1.7520 -0.2721 0.9920
0.9312 1.7519 -0.2712 0.9920
0.9035 1.7516 -0.2694 0.9921
0.8625 1.7512 -0.2669 0.9921
0.8490 1.7511 -0.2660 0.9922
0.8091 1.7507 -0.2636 0.9922
0.7828 1.7504 -0.2621 0.9923
0.7568 1.7501 -0.2607 0.9923
0.7440 1.7500 -0.2600 0.9924
0.7184 1.7497 -0.2586 0.9924
0.6932 1.7495 -0.2572 0.9924
0.6806 1.7493 -0.2566 0.9925
0.6681 1.7492 -0.2560 0.9925
0.6557 1.7490 -0.2554 0.9925
0.6311 1.7488 -0.2542 0.9925
0.5704 1.7481 -0.2514 0.9926
0.5110 1.7474 -0.2489 0.9927
0.4992 1.7473 -0.2484 0.9927
0.4875 1.7471 -0.2480 0.9927
0.4411 1.7466 -0.2463 0.9928
0.4296 1.7465 -0.2459 0.9928
0.4181 1.7463 -0.2455 0.9928
0.4067 1.7462 -0.2451 0.9928
0.3953 1.7460 -0.2447 0.9928
0.3839 1.7459 -0.2444 0.9928
0.3726 1.7458 -0.2440 0.9928
0.3613 1.7456 -0.2437 0.9928
0.3388 1.7453 -0.2430 0.9928
0.3164 1.7451 -0.2424 0.9929
0.2830 1.7446 -0.2416 0.9929
0.2719 1.7445 -0.2414 0.9929
0.2278 1.7439 -0.2404 0.9929
0.2058 1.7437 -0.2400 0.9929
0.1840 1.7433 -0.2396 0.9929
0.1731 1.7432 -0.2395 0.9930
0.1404 1.7428 -0.2390 0.9930
0.1079 1.7423 -0.2386 0.9930
0.0431 1.7414 -0.2381 0.9930
0.0323 1.7413 -0.2381 0.9930
0.0108 1.7410 -0.2380 0.9930
0.0000 1.7408 -0.2380 0.9930
-0.0108 1.7407 -0.2380 0.9930
-0.0215 1.7405 -0.2380 0.9930
-0.0323 1.7404 -0.2380 0.9930
-0.0538 1.7401 -0.2380 0.9930
-0.0646 1.7399 -0.2380 0.9930
-0.0754 1.7397 -0.2380 0.9930
-0.0861 1.7396 -0.2381 0.9930
-0.0969 1.7394 -0.2382 0.9930
-0.1185 1.7391 -0.2383 0.9930
-0.1509 1.7386 -0.2386 0.9930
-0.1617 1.7384 -0.2387 0.9930
-0.1834 1.7381 -0.2389 0.9930
-0.1943 1.7379 -0.2391 0.9930
-0.2378 1.7373 -0.2397 0.9929
-0.2488 1.7371 -0.2399 0.9929
-0.2597 1.7369 -0.2401 0.9929
-0.2707 1.7368 -0.2403 0.9929
-0.2927 1.7364 -0.2407 0.9929
-0.3147 1.7361 -0.2412 0.9929
-0.3258 1.7359 -0.2414 0.9929
-0.3480 1.7355 -0.2420 0.9929
-0.3592 1.7354 -0.2423 0.9929
-0.3703 1.7352 -0.2425 0.9929
-0.3815 1.7350 -0.2428 0.9929
-0.4040 1.7346 -0.2435 0.9928
-0.4379 1.7341 -0.2445 0.9928
-0.4493 1.7339 -0.2449 0.9928
-0.4607 1.7337 -0.2452 0.9928
-0.4952 1.7331 -0.2464 0.9927
-0.5183 1.7327 -0.2472 0.9927
-0.5300 1.7325 -0.2477 0.9927
-0.5533 1.7321 -0.2486 0.9927
-0.5887 1.7314 -0.2500 0.9926
-0.6006 1.7311 -0.2505 0.9926
-0.6125 1.7309 -0.2510 0.9926
-0.6608 1.7298 -0.2531 0.9926
-0.6975 1.7290 -0.2549 0.9925
-0.7852 1.7271 -0.2593 0.9924
-0.7980 1.7268 -0.2600 0.9923
-0.8109 1.7265 -0.2607 0.9923
-0.8238 1.7262 -0.2615 0.9923
-0.8368 1.7259 -0.2622 0.9923
-0.8499 1.7256 -0.2630 0.9923
-0.8896 1.7247 -0.2653 0.9922
-0.9164 1.7241 -0.2669 0.9921
-0.9853 1.7229 -0.2713 0.9920
-1.0135 1.7225 -0.2732 0.9920
-1.0421 1.7220 -0.2751 0.9919
-1.0565 1.7217 -0.2761 0.9919
-1.0858 1.7212 -0.2782 0.9918
-1.1304 1.7204 -0.2814 0.9917
-1.1608 1.7199 -0.2837 0.9917
-1.1762 1.7196 -0.2848 0.9916
-1.1916 1.7194 -0.2860 0.9916
-1.2073 1.7191 -0.2872 0.9916
-1.2549 1.7182 -0.2909 0.9914
-1.2710 1.7179 -0.2921 0.9914
-1.2873 1.7177 -0.2934 0.9914
-1.3038 1.7174 -0.2948 0.9913
-1.3371 1.7168 -0.2975 0.9913
-1.3711 1.7162 -0.3003 0.9912
-1.3883 1.7158 -0.3017 0.9911
-1.4057 1.7155 -0.3032 0.9911
-1.4233 1.7152 -0.3047 0.9910
-1.4770 1.7143 -0.3093 0.9909
-1.5138 1.7136 -0.3126 0.9908
-1.5324 1.7132 -0.3142 0.9908
-1.5513 1.7129 -0.3159 0.9907
-1.5704 1.7126 -0.3176 0.9907
-1.6092 1.7119 -0.3212 0.9906
-1.6290 1.7116 -0.3230 0.9905
-1.6490 1.7113 -0.3249 0.9905
-1.6693 1.7111 -0.3268 0.9904
-1.7743 1.7097 -0.3368 0.9901
-1.8182 1.7091 -0.3411 0.9900
-1.8632 1.7085 -0.3456 0.9898
-1.9094 1.7079 -0.3502 0.9897
-1.9569 1.7072 -0.3550 0.9896
-1.9812 1.7070 -0.3575 0.9895
-2.0057 1.7066 -0.3600 0.9894
-2.0307 1.7063 -0.3626 0.9893
-2.0816 1.7056 -0.3679 0.9892
-2.1341 1.7049 -0.3734 0.9890
-2.1882 1.7042 -0.3791 0.9889
-2.2158 1.7039 -0.3821 0.9888
-2.2725 1.7031 -0.3882 0.9886
-2.3310 1.7024 -0.3946 0.9884
-2.3915 1.7016 -0.4012 0.9882
-2.4225 1.7012 -0.4047 0.9881
-2.4540 1.7007 -0.4082 0.9880
-2.4861 1.7004 -0.4117 0.9879
-2.5188 1.6999 -0.4154 0.9878
-2.6204 1.6986 -0.4269 0.9875
-2.6555 1.6981 -0.4309 0.9874
-2.6913 1.6977 -0.4350 0.9872
-2.8029 1.6962 -0.4479 0.9869
-2.8811 1.6952 -0.4570 0.9866
-3.0046 1.6936 -0.4715 0.9862
-3.0906 1.6921 -0.4817 0.9859
-3.1350 1.6913 -0.4869 0.9857
-3.1804 1.6904 -0.4924 0.9856
-3.2268 1.6896 -0.4979 0.9854
-3.2742 1.6887 -0.5036 0.9852
-15.9812 7.5057 -2.4136 0.9312
-16.0261 7.4061 -2.4134 0.9312
-16.1140 7.2063 -2.4130 0.9312
-16.1570 7.1059 -2.4128 0.9312
-16.4783 6.2943 -2.4113 0.9313
-16.5523 6.0890 -2.4110 0.9313
-16.5884 5.9860 -2.4108 0.9313
-16.6926 5.6759 -2.4102 0.9313
-16.7588 5.4682 -2.4098 0.9313
-16.8225 5.2596 -2.4094 0.9313
-16.9130 4.9454 -2.4088 0.9313
-16.9701 4.7352 -2.4084 0.9313
-17.0247 4.5241 -2.4081 0.9314
-17.0509 4.4184 -2.4079 0.9314
-17.0766 4.3125 -2.4077 0.9314
-17.1947 3.7809 -2.4067 0.9314
-17.2373 3.5674 -2.4063 0.9314
-17.2576 3.4604 -2.4061 0.9314
-17.2773 3.3534 -2.4059 0.9314
-17.2962 3.2462 -2.4057 0.9314
-17.3322 3.0316 -2.4053 0.9314
-17.3492 2.9241 -2.4051 0.9314
-17.3655 2.8165 -2.4049 0.9314
-17.4610 2.0612 -2.4035 0.9315
-17.4720 1.9529 -2.4033 0.9315
-17.4823 1.8447 -2.4031 0.9315
-17.5008 1.6281 -2.4027 0.9315
-17.5482 0.7601 -2.4011 0.9315
-17.5512 0.6515 -2.4009 0.9315
-17.5549 0.4343 -2.4005 0.9316
-17.5558 0.3257 -2.4003 0.9316
-16.6319 -0.1029 -2.3996 0.9350
-16.6296 -0.2057 -2.3994 0.9350
-16.6267 -0.3085 -2.3992 0.9350
-16.6190 -0.5141 -2.3988 0.9350
-16.6142 -0.6167 -2.3986 0.9350
-16.6027 -0.8221 -2.3982 0.9350
-16.5960 -0.9247 -2.3980 0.9350
-16.5887 -1.0272 -2.3979 0.9350
-16.5807 -1.1297 -2.3977 0.9350
-16.5721 -1.2321 -2.3975 0.9350
-16.5628 -1.3345 -2.3973 0.9351
-16.5425 -1.5390 -2.3969 0.9351
-16.5196 -1.7432 -2.3965 0.9351
-16.4805 -2.0489 -2.3960 0.9351
-16.4514 -2.2522 -2.3956 0.9351
-16.4197 -2.4551 -2.3952 0.9351
-16.4030 -2.5564 -2.3951 0.9351
-16.3856 -2.6576 -2.3949 0.9351
-16.3489 -2.8596 -2.3945 0.9351
-16.2682 -3.2622 -2.3938 0.9351
-16.2011 -3.5626 -2.3932 0.9352
-16.1775 -3.6624 -2.3930 0.9352
-16.1285 -3.8616 -2.3927 0.9352
-16.1031 -3.9610 -2.3925 0.9352
-16.0771 -4.0602 -2.3923 0.9352
-16.0233 -4.2580 -2.3919 0.9352
-15.9954 -4.3568 -2.3918 0.9352
-15.9669 -4.4552 -2.3916 0.9352
-15.9379 -4.5536 -2.3914 0.9352
-15.9082 -4.6517 -2.3912 0.9352
-15.8157 -4.9449 -2.3907 0.9352
-15.6494 -5.4295 -2.3898 0.9352
-15.5788 -5.6218 -2.3894 0.9353
-15.3919 -6.0986 -2.3886 0.9353
-15.1906 -6.5691 -2.3877 0.9353
-15.1486 -6.6625 -2.3875 0.9353
-15.0629 -6.8484 -2.3872 0.9353
-14.9301 -7.1251 -2.3867 0.9353
-14.8847 -7.2168 -2.3865 0.9353
-14.8388 -7.3082 -2.3864 0.9353
-14.7923 -7.3993 -2.3862 0.9353
-14.6494 -7.6709 -2.3857 0.9354
-14.6007 -7.7608 -2.3855 0.9354
-14.5514 -7.8504 -2.3854 0.9354
-14.4004 -8.1173 -2.3849 0.9354
-14.2969 -8.2937 -2.3846 0.9354
-14.1914 -8.4688 -2.3843 0.9354
-14.1378 -8.5558 -2.3841 0.9354
-14.0837 -8.6425 -2.3839 0.9354
-14.0291 -8.7289 -2.3838 0.9354
-13.9182 -8.9005 -2.3835 0.9354
-13.8053 -9.0708 -2.3832 0.9354
-13.7480 -9.1555 -2.3830 0.9354
-13.6320 -9.3236 -2.3827 0.9354
-13.5732 -9.4071 -2.3826 0.9354
-13.4541 -9.5730 -2.3823 0.9354
-13.3331 -9.7376 -2.3820 0.9355
-13.2717 -9.8192 -2.3818 0.9355
-13.2099 -9.9005 -2.3817 0.9355
-13.1477 -9.9813 -2.3815 0.9355
-13.0849 -10.0619 -2.3814 0.9355
-13.0216 -10.1420 -2.3812 0.9355
-12.9579 -10.2217 -2.3811 0.9355
-12.8936 -10.3010 -2.3809 0.9355
-12.8289 -10.3799 -2.3808 0.9355
-12.6980 -10.5366 -2.3805 0.9355
-12.6319 -10.6143 -2.3804 0.9355
-12.4982 -10.7684 -2.3801 0.9355
-12.4306 -10.8449 -2.3800 0.9355
-12.2941 -10.9965 -2.3797 0.9355
-12.2252 -11.0716 -2.3796 0.9355
-12.1558 -11.1464 -2.3794 0.9355
-12.0157 -11.2947 -2.3792 0.9355
-11.9449 -11.3681 -2.3790 0.9355
-11.8738 -11.4412 -2.3789 0.9355
-11.8021 -11.5138 -2.3788 0.9355
-11.7300 -11.5858 -2.3786 0.9355
-11.6575 -11.6576 -2.3785 0.9355
-11.5846 -11.7288 -2.3784 0.9355
-11.5112 -11.7996 -2.3782 0.9356
-11.4374 -11.8699 -2.3781 0.9356
-11.3632 -11.9398 -2.3780 0.9356
-11.2135 -12.0781 -2.3777 0.9356
-11.1380 -12.1466 -2.3776 0.9356
-10.9858 -12.2822 -2.3774 0.9356
-10.8320 -12.4159 -2.3771 0.9356
-10.7544 -12.4820 -2.3770 0.9356
-10.6765 -12.5477 -2.3769 0.9356
-10.5982 -12.6129 -2.3768 0.9356
-10.5195 -12.6775 -2.3767 0.9356
-10.4404 -12.7417 -2.3766 0.9356
-10.1201 -12.9936 -2.3761 0.9356
-10.0391 -13.0553 -2.3760 0.9356
-9.6285 -13.3564 -2.3755 0.9356
-9.4617 -13.4733 -2.3753 0.9356
-9.3778 -13.5310 -2.3752 0.9356
-9.2936 -13.5881 -2.3750 0.9356
-9.2090 -13.6448 -2.3749 0.9356
-9.1240 -13.7009 -2.3748 0.9356
-9.0388 -13.7565 -2.3748 0.9356
-8.9532 -13.8116 -2.3747 0.9356
-8.7809 -13.9201 -2.3745 0.9356
-8.6943 -13.9736 -2.3744 0.9357
-8.5202 -14.0789 -2.3742 0.9357
-8.4326 -14.1308 -2.3741 0.9357
-8.2566 -14.2330 -2.3739 0.9357
-8.0793 -14.3329 -2.3737 0.9357
-7.9902 -14.3821 -2.3736 0.9357
-7.8112 -14.4788 -2.3735 0.9357
-7.5404 -14.6197 -2.3732 0.9357
-7.4496 -14.6655 -2.3731 0.9357
-7.3585 -14.7108 -2.3731 0.9357
-7.2672 -14.7556 -2.3730 0.9357
-7.0837 -14.8434 -2.3728 0.9357
-6.9915 -14.8864 -2.3728 0.9357
-6.8991 -14.9289 -2.3727 0.9357
-6.8064 -14.9708 -2.3726 0.9357
-6.7135 -15.0122 -2.3725 0.9357
-6.6204 -15.0529 -2.3725 0.9357
-6.5269 -15.0932 -2.3724 0.9357
-6.4333 -15.1328 -2.3723 0.9357
-6.1509 -15.2482 -2.3721 0.9357
-5.9616 -15.3223 -2.3720 0.9357
-5.7713 -15.3941 -2.3719 0.9357
-5.6758 -15.4291 -2.3718 0.9357
-5.5802 -15.4635 -2.3718 0.9357
-5.4843 -15.4973 -2.3717 0.9357
-5.1955 -15.5953 -2.3715 0.9357
-5.0020 -15.6577 -2.3714 0.9357
-4.6128 -15.7753 -2.3712 0.9357
-4.3191 -15.8572 -2.3711 0.9357
-4.2208 -15.8833 -2.3710 0.9357
-4.0239 -15.9337 -2.3710 0.9357
-3.9253 -15.9580 -2.3709 0.9357
-3.8264 -15.9818 -2.3709 0.9357
-3.6284 -16.0273 -2.3708 0.9357
-3.5291 -16.0492 -2.3708 0.9357
-3.4298 -16.0705 -2.3707 0.9357
-3.3303 -16.0912 -2.3707 0.9357
-3.2306 -16.1113 -2.3707 0.9357
-3.1309 -16.1307 -2.3706 0.9357
-3.0310 -16.1495 -2.3706 0.9358
-2.9311 -16.1678 -2.3706 0.9358
-2.8310 -16.1854 -2.3705 0.9358
-2.5302 -16.2346 -2.3705 0.9358
-2.4297 -16.2498 -2.3704 0.9358
-2.3291 -16.2643 -2.3704 0.9358
-2.1278 -16.2916 -2.3704 0.9358
-1.9261 -16.3164 -2.3703 0.9358
-1.8251 -16.3279 -2.3703 0.9358
-1.7241 -16.3388 -2.3703 0.9358
-1.6230 -16.3490 -2.3703 0.9358
-1.3194 -16.3761 -2.3703 0.9358
-1.2181 -16.3838 -2.3703 0.9358
-1.1168 -16.3910 -2.3702 0.9358
-0.9139 -16.4035 -2.3702 0.9358
-0.7110 -16.4135 -2.3702 0.9358
-0.4064 -16.4238 -2.3702 0.9358
-0.2032 -16.4276 -2.3702 0.9358
-0.1016 -16.4285 -2.3702 0.9358
0.1016 -16.4286 -2.3702 0.9358
0.2032 -16.4277 -2.3702 0.9358
0.3048 -16.4262 -2.3702 0.9358
0.4063 -16.4240 -2.3702 0.9358
0.5079 -16.4213 -2.3703 0.9358
0.9140 -16.4040 -2.3703 0.9358
1.0154 -16.3982 -2.3703 0.9358
1.1168 -16.3917 -2.3703 0.9358
1.5219 -16.3596 -2.3704 0.9358
1.8252 -16.3290 -2.3705 0.9358
2.0271 -16.3055 -2.3705 0.9358
2.1279 -16.2929 -2.3706 0.9358
2.2286 -16.2796 -2.3706 0.9358
2.3293 -16.2657 -2.3706 0.9357
2.4299 -16.2512 -2.3707 0.9357
2.8313 -16.1871 -2.3708 0.9357
3.0314 -16.1513 -2.3709 0.9357
3.2310 -16.1131 -2.3709 0.9357
3.4302 -16.0725 -2.3710 0.9357
3.5296 -16.0513 -2.3711 0.9357
3.6288 -16.0294 -2.3711 0.9357
3.8269 -15.9839 -2.3712 0.9357
3.9258 -15.9603 -2.3713 0.9357
4.2215 -15.8857 -2.3714 0.9357
4.3197 -15.8596 -2.3715 0.9357
4.4178 -15.8330 -2.3715 0.9357
4.6135 -15.7779 -2.3716 0.9357
4.8085 -15.7203 -2.3717 0.9357
5.1964 -15.5982 -2.3720 0.9357
5.3893 -15.5336 -2.3721 0.9357
5.4854 -15.5004 -2.3722 0.9357
5.7725 -15.3973 -2.3724 0.9357
5.9628 -15.3256 -2.3725 0.9357
6.3408 -15.1753 -2.3728 0.9357
6.5285 -15.0967 -2.3730 0.9357
6.6219 -15.0565 -2.3730 0.9357
6.7151 -15.0158 -2.3731 0.9357
6.8081 -14.9745 -2.3732 0.9357
6.9008 -14.9326 -2.3733 0.9357
6.9933 -14.8901 -2.3734 0.9357
7.0855 -14.8471 -2.3734 0.9357
7.2691 -14.7594 -2.3736 0.9357
7.3605 -14.7147 -2.3737 0.9357
7.4516 -14.6694 -2.3738 0.9357
7.6330 -14.5772 -2.3740 0.9357
7.7233 -14.5303 -2.3740 0.9357
7.8133 -14.4829 -2.3741 0.9357
7.9031 -14.4348 -2.3742 0.9357
8.1705 -14.2874 -2.3745 0.9356
8.3472 -14.1864 -2.3747 0.9356
8.4351 -14.1351 -2.3748 0.9356
8.5228 -14.0833 -2.3749 0.9356
8.6100 -14.0309 -2.3750 0.9356
8.9560 -13.8160 -2.3754 0.9356
9.1270 -13.7054 -2.3756 0.9356
9.2967 -13.5927 -2.3758 0.9356
9.3810 -13.5355 -2.3759 0.9356
9.4649 -13.4779 -2.3761 0.9356
9.5485 -13.4197 -2.3762 0.9356
9.9613 -13.1213 -2.3767 0.9356
10.0427 -13.0601 -2.3769 0.9356
10.1238 -12.9983 -2.3770 0.9356
10.3647 -12.8102 -2.3773 0.9356
10.4443 -12.7465 -2.3774 0.9356
10.5234 -12.6823 -2.3776 0.9356
10.6022 -12.6176 -2.3777 0.9356
10.6806 -12.5525 -2.3778 0.9356
10.8362 -12.4207 -2.3781 0.9356
10.9133 -12.3541 -2.3782 0.9356
10.9901 -12.2871 -2.3783 0.9355
11.1425 -12.1515 -2.3786 0.9355
11.2180 -12.0830 -2.3787 0.9355
11.3678 -11.9446 -2.3790 0.9355
11.4421 -11.8748 -2.3791 0.9355
11.5160 -11.8044 -2.3792 0.9355
12.0912 -11.2257 -2.3803 0.9355
12.2306 -11.0766 -2.3806 0.9355
12.2995 -11.0013 -2.3807 0.9355
12.5038 -10.7732 -2.3812 0.9355
12.7038 -10.5413 -2.3816 0.9355
12.9639 -10.2264 -2.3822 0.9354
13.0277 -10.1467 -2.3823 0.9354
13.1538 -9.9860 -2.3826 0.9354
13.3394 -9.7422 -2.3831 0.9354
13.5205 -9.4949 -2.3836 0.9354
13.5798 -9.4117 -2.3837 0.9354
13.6970 -9.2443 -2.3840 0.9354
13.9809 -8.8193 -2.3848 0.9354
14.3043 -8.2979 -2.3858 0.9354
14.5091 -7.9438 -2.3865 0.9353
14.6083 -7.7648 -2.3868 0.9353
14.7530 -7.4941 -2.3873 0.9353
14.8001 -7.4032 -2.3875 0.9353
14.8467 -7.3121 -2.3876 0.9353
14.8926 -7.2206 -2.3878 0.9353
15.0273 -6.9446 -2.3883 0.9353
15.0710 -6.8521 -2.3885 0.9353
15.1568 -6.6661 -2.3888 0.9353
15.1988 -6.5727 -2.3890 0.9353
15.2812 -6.3852 -2.3894 0.9353
15.3215 -6.2910 -2.3895 0.9353
15.4390 -6.0070 -2.3901 0.9352
15.4770 -5.9118 -2.3902 0.9352
15.5144 -5.8164 -2.3904 0.9352
15.5512 -5.7208 -2.3906 0.9352
15.6231 -5.5288 -2.3910 0.9352
15.6582 -5.4325 -2.3911 0.9352
15.6927 -5.3360 -2.3913 0.9352
15.7598 -5.1423 -2.3917 0.9352
15.8245 -4.9477 -2.3920 0.9352
15.8871 -4.7523 -2.3924 0.9352
15.9761 -4.4578 -2.3929 0.9352
16.0324 -4.2605 -2.3933 0.9352
16.1869 -3.6645 -2.3944 0.9351
16.2105 -3.5646 -2.3946 0.9351
16.2335 -3.4645 -2.3948 0.9351
16.2776 -3.2640 -2.3952 0.9351
16.3392 -2.9622 -2.3957 0.9351
16.3952 -2.6592 -2.3963 0.9351
16.4126 -2.5579 -2.3965 0.9351
16.4760 -2.1519 -2.3972 0.9351
16.4903 -2.0501 -2.3974 0.9350
16.5039 -1.9482 -2.3976 0.9350
16.5294 -1.7442 -2.3980 0.9350
16.5411 -1.6421 -2.3982 0.9350
16.5819 -1.2328 -2.3989 0.9350
16.6059 -0.9252 -2.3995 0.9350
16.6186 -0.7199 -2.3999 0.9350
16.6366 -0.3087 -2.4006 0.9350
16.6395 -0.2059 -2.4008 0.9350
16.6434 -0.0000 -2.4012 0.9349
16.6444 0.1029 -2.4014 0.9349
16.6448 0.2058 -2.4016 0.9349
16.6445 0.3088 -2.4017 0.9349
16.6398 0.6177 -2.4023 0.9349
16.6370 0.7206 -2.4025 0.9349
16.6336 0.8236 -2.4027 0.9349
16.6247 1.0294 -2.4031 0.9349
16.6193 1.1323 -2.4033 0.9349
16.5994 1.4407 -2.4038 0.9349
16.5915 1.5435 -2.4040 0.9349
16.5737 1.7488 -2.4044 0.9349
16.5534 1.9540 -2.4048 0.9349
16.5423 2.0565 -2.4050 0.9349
16.5182 2.2613 -2.4053 0.9348
16.5052 2.3636 -2.4055 0.9348
16.4915 2.4658 -2.4057 0.9348
16.4772 2.5679 -2.4059 0.9348
16.4623 2.6700 -2.4061 0.9348
16.4468 2.7720 -2.4063 0.9348
16.4306 2.8739 -2.4065 0.9348
16.3595 3.2804 -2.4072 0.9348
16.3402 3.3818 -2.4074 0.9348
16.2996 3.5842 -2.4078 0.9348
16.1872 4.0879 -2.4087 0.9348
16.1379 4.2885 -2.4091 0.9347
16.0861 4.4885 -2.4094 0.9347
16.0592 4.5882 -2.4096 0.9347
16.0317 4.6878 -2.4098 0.9347
6.1417 1.8371 -0.9249 0.9744
5.8602 1.8322 -0.8858 0.9755
5.7282 1.8299 -0.8676 0.9760
5.6015 1.8277 -0.8501 0.9765
5.4798 1.8255 -0.8333 0.9769
5.2502 1.8215 -0.8018 0.9778
5.1419 1.8196 -0.7869 0.9782
5.0374 1.8178 -0.7726 0.9786
4.6540 1.8107 -0.7205 0.9800
4.3976 1.8056 -0.6858 0.9810
4.3175 1.8040 -0.6751 0.9813
4.0916 1.7995 -0.6449 0.9821
3.8850 1.7953 -0.6174 0.9829
3.6352 1.7904 -0.5846 0.9838
3.4129 1.7871 -0.5558 0.9846
3.3609 1.7864 -0.5491 0.9847
3.3100 1.7857 -0.5426 0.9849
3.2603 1.7850 -0.5363 0.9851
3.2118 1.7844 -0.5301 0.9853
3.1644 1.7837 -0.5241 0.9854
3.1178 1.7829 -0.5182 0.9856
3.0277 1.7814 -0.5068 0.9859
2.9841 1.7807 -0.5013 0.9861
2.8587 1.7787 -0.4858 0.9865
2.8187 1.7780 -0.4808 0.9866
2.7794 1.7774 -0.4760 0.9868
2.7410 1.7768 -0.4713 0.9869
2.5251 1.7733 -0.4452 0.9876
2.3625 1.7706 -0.4260 0.9881
2.2715 1.7691 -0.4154 0.9884
2.2133 1.7682 -0.4087 0.9886
2.1849 1.7678 -0.4055 0.9887
2.0755 1.7660 -0.3932 0.9890
2.0492 1.7656 -0.3902 0.9891
1.9977 1.7647 -0.3846 0.9893
1.9726 1.7643 -0.3818 0.9894
1.9477 1.7639 -0.3791 0.9894
1.9233 1.7635 -0.3765 0.9895
1.8753 1.7628 -0.3713 0.9897
1.8518 1.7624 -0.3688 0.9897
1.8287 1.7620 -0.3664 0.9898
1.8058 1.7616 -0.3640 0.9899
1.7832 1.7613 -0.3616 0.9899
1.6958 1.7599 -0.3526 0.9902
1.6746 1.7596 -0.3504 0.9902
1.6537 1.7592 -0.3483 0.9903
1.6126 1.7586 -0.3442 0.9904
1.5924 1.7582 -0.3422 0.9905
1.5724 1.7579 -0.3403 0.9905
1.5527 1.7576 -0.3383 0.9906
1.5331 1.7573 -0.3365 0.9906
1.4948 1.7567 -0.3328 0.9907
1.4759 1.7564 -0.3310 0.9908
1.4572 1.7561 -0.3292 0.9908
1.4204 1.7555 -0.3258 0.9909
1.4023 1.7552 -0.3241 0.9910
1.3844 1.7550 -0.3225 0.9910
1.3148 1.7543 -0.3163 0.9912
1.2810 1.7540 -0.3134 0.9913
1.2644 1.7539 -0.3119 0.9913
1.2315 1.7536 -0.3091 0.9914
1.1832 1.7532 -0.3052 0.9915
1.1674 1.7530 -0.3039 0.9915
1.1518 1.7529 -0.3026 0.9916
1.1208 1.7526 -0.3001 0.9916
1.1055 1.7525 -0.2989 0.9917
1.0903 1.7523 -0.2978 0.9917
1.0753 1.7522 -0.2966 0.9917
1.0603 1.7521 -0.2955 0.9918
1.0308 1.7518 -0.2932 0.9918
0.9873 1.7514 -0.2901 0.9919
0.9167 1.7507 -0.2851 0.9920
0.8892 1.7504 -0.2833 0.9921
0.8620 1.7502 -0.2815 0.9921
0.8485 1.7501 -0.2806 0.9922
0.7824 1.7494 -0.2765 0.9923
0.7693 1.7493 -0.2757 0.9923
0.7308 1.7489 -0.2735 0.9924
0.6802 1.7483 -0.2707 0.9924
0.6678 1.7482 -0.2700 0.9925
0.6554 1.7481 -0.2693 0.9925
0.6430 1.7479 -0.2687 0.9925
0.6185 1.7477 -0.2675 0.9925
0.5942 1.7474 -0.2663 0.9926
0.5821 1.7473 -0.2657 0.9926
0.5581 1.7470 -0.2646 0.9926
0.5462 1.7469 -0.2641 0.9926
0.5343 1.7467 -0.2635 0.9926
0.4989 1.7463 -0.2620 0.9927
0.4756 1.7461 -0.2611 0.9927
0.4640 1.7459 -0.2606 0.9927
0.4524 1.7458 -0.2602 0.9927
0.4409 1.7456 -0.2598 0.9928
0.4294 1.7455 -0.2593 0.9928
0.4065 1.7452 -0.2585 0.9928
0.3951 1.7451 -0.2581 0.9928
0.3837 1.7450 -0.2578 0.9928
0.3498 1.7446 -0.2567 0.9928
0.3274 1.7443 -0.2560 0.9929
0.3162 1.7441 -0.2557 0.9929
0.3050 1.7440 -0.2554 0.9929
0.2828 1.7437 -0.2549 0.9929
0.2607 1.7434 -0.2543 0.9929
0.2386 1.7432 -0.2538 0.9929
0.1948 1.7426 -0.2530 0.9929
0.1730 1.7423 -0.2526 0.9929
0.1512 1.7420 -0.2523 0.9930
0.1403 1.7419 -0.2521 0.9930
0.1295 1.7417 -0.2520 0.9930
0.0970 1.7413 -0.2516 0.9930
0.0862 1.7411 -0.2515 0.9930
0.0754 1.7410 -0.2514 0.9930
0.0431 1.7405 -0.2512 0.9930
0.0323 1.7404 -0.2511 0.9930
0.0215 1.7402 -0.2511 0.9930
-0.0215 1.7396 -0.2510 0.9930
-0.0323 1.7395 -0.2510 0.9930
-0.0969 1.7385 -0.2512 0.9930
-0.1184 1.7382 -0.2514 0.9930
-0.1292 1.7380 -0.2514 0.9930
-0.1400 1.7379 -0.2515 0.9930
-0.1508 1.7377 -0.2516 0.9930
-0.1616 1.7375 -0.2518 0.9930
-0.1725 1.7374 -0.2519 0.9930
-0.1833 1.7372 -0.2520 0.9930
-0.1942 1.7370 -0.2522 0.9930
-0.2050 1.7369 -0.2523 0.9930
-0.2159 1.7367 -0.2525 0.9930
-0.2268 1.7365 -0.2527 0.9929
-0.2486 1.7362 -0.2530 0.9929
-0.2596 1.7360 -0.2532 0.9929
-0.2815 1.7357 -0.2537 0.9929
-0.3035 1.7353 -0.2542 0.9929
-0.3146 1.7352 -0.2544 0.9929
-0.3256 1.7350 -0.2547 0.9929
-0.3478 1.7346 -0.2552 0.9929
-0.3590 1.7344 -0.2555 0.9929
-0.3701 1.7342 -0.2558 0.9929
-0.3925 1.7339 -0.2565 0.9928
-0.4038 1.7337 -0.2568 0.9928
-0.4264 1.7333 -0.2575 0.9928
-0.4377 1.7331 -0.2579 0.9928
-0.4605 1.7328 -0.2587 0.9928
-0.4949 1.7322 -0.2599 0.9927
-0.5064 1.7320 -0.2603 0.9927
-0.5297 1.7316 -0.2612 0.9927
-0.5413 1.7314 -0.2617 0.9927
-0.5648 1.7310 -0.2627 0.9927
-0.5766 1.7308 -0.2632 0.9927
-0.5884 1.7306 -0.2637 0.9926
-0.6003 1.7303 -0.2642 0.9926
-0.6123 1.7301 -0.2648 0.9926
-0.6484 1.7294 -0.2665 0.9926
-0.6727 1.7288 -0.2676 0.9925
-0.7095 1.7280 -0.2695 0.9925
-0.7849 1.7263 -0.2736 0.9924
-0.8105 1.7257 -0.2751 0.9923
-0.8364 1.7252 -0.2766 0.9923
-0.8759 1.7243 -0.2790 0.9922
-0.8892 1.7240 -0.2799 0.9922
-0.9026 1.7237 -0.2807 0.9922
-0.9297 1.7233 -0.2825 0.9921
-0.9434 1.7230 -0.2834 0.9921
-0.9571 1.7228 -0.2843 0.9921
-1.0854 1.7206 -0.2935 0.9918
-1.1001 1.7203 -0.2946 0.9918
-1.1150 1.7200 -0.2957 0.9918
-1.1300 1.7198 -0.2969 0.9917
-1.1604 1.7192 -0.2992 0.9917
-1.1757 1.7190 -0.3005 0.9916
-1.1912 1.7187 -0.3017 0.9916
-1.2225 1.7181 -0.3042 0.9915
-1.3033 1.7167 -0.3110 0.9913
-1.3199 1.7164 -0.3124 0.9913
-1.3366 1.7161 -0.3138 0.9912
-1.3705 1.7155 -0.3168 0.9912
-1.4405 1.7143 -0.3231 0.9910
-1.4585 1.7141 -0.3247 0.9909
-1.5135 1.7133 -0.3298 0.9908
-1.5704 1.7126 -0.3352 0.9907
-1.5898 1.7123 -0.3371 0.9906
-1.6292 1.7118 -0.3409 0.9905
-1.6492 1.7115 -0.3429 0.9904
-1.6695 1.7113 -0.3449 0.9904
-1.6900 1.7110 -0.3470 0.9903
-1.7108 1.7107 -0.3490 0.9903
-1.7318 1.7104 -0.3512 0.9902
-1.7530 1.7102 -0.3533 0.9902
-1.8408 1.7090 -0.3624 0.9899
-1.8635 1.7087 -0.3648 0.9898
-1.9097 1.7081 -0.3696 0.9897
-1.9572 1.7075 -0.3747 0.9896
-1.9814 1.7072 -0.3773 0.9895
-2.0060 1.7069 -0.3800 0.9894
-2.0310 1.7065 -0.3827 0.9893
-2.0819 1.7059 -0.3883 0.9892
-2.1080 1.7055 -0.3912 0.9891
-2.1612 1.7048 -0.3971 0.9889
-2.2162 1.7041 -0.4033 0.9888
-2.2728 1.7034 -0.4098 0.9886
-2.3314 1.7026 -0.4165 0.9884
-2.3613 1.7022 -0.4200 0.9883
-2.4229 1.7014 -0.4271 0.9881
-2.4544 1.7010 -0.4308 0.9880
-2.5192 1.7002 -0.4385 0.9878
-2.5863 1.6993 -0.4465 0.9876
-2.6208 1.6989 -0.4506 0.9875
-2.6560 1.6984 -0.4548 0.9873
-2.6918 1.6980 -0.4592 0.9872
-2.7283 1.6975 -0.4636 0.9871
-2.7655 1.6970 -0.4681 0.9870
-2.8034 1.6965 -0.4728 0.9868
-2.8421 1.6960 -0.4775 0.9867
-2.8816 1.6955 -0.4824 0.9866
-2.9219 1.6950 -0.4873 0.9864
-2.9630 1.6944 -0.4924 0.9863
-3.0046 1.6937 -0.4976 0.9862
-3.0906 1.6921 -0.5083 0.9859
-3.1803 1.6904 -0.5196 0.9855
-3.2267 1.6896 -0.5255 0.9854
-3.2741 1.6887 -0.5315 0.9852
-3.3226 1.6878 -0.5377 0.9851
-3.3723 1.6869 -0.5440 0.9849
-3.4753 1.6849 -0.5572 0.9845
-3.5287 1.6840 -0.5641 0.9843
-15.1382 7.1097 -2.4129 0.9346
-15.1808 7.0155 -2.4127 0.9346
-15.2228 6.9210 -2.4125 0.9347
-15.3848 6.5404 -2.4118 0.9347
-15.4238 6.4447 -2.4117 0.9347
-15.4622 6.3487 -2.4115 0.9347
-15.5000 6.2525 -2.4113 0.9347
-15.6801 5.7681 -2.4104 0.9347
-15.7479 5.5729 -2.4100 0.9347
-15.7808 5.4750 -2.4099 0.9347
-15.8132 5.3769 -2.4097 0.9347
-15.8450 5.2787 -2.4095 0.9347
-15.8761 5.1802 -2.4093 0.9347
-15.9066 5.0815 -2.4091 0.9347
-15.9658 4.8836 -2.4088 0.9348
-15.9945 4.7844 -2.4086 0.9348
-16.0768 4.4859 -2.4080 0.9348
-16.1030 4.3860 -2.4078 0.9348
-16.1535 4.1858 -2.4075 0.9348
-16.1779 4.0855 -2.4073 0.9348
-16.2246 3.8846 -2.4069 0.9348
-16.2901 3.5821 -2.4064 0.9348
-16.3107 3.4810 -2.4062 0.9348
-16.3867 3.0755 -2.4054 0.9348
-16.4041 2.9739 -2.4052 0.9348
-16.4209 2.8722 -2.4050 0.9348
-16.4371 2.7704 -2.4049 0.9349
-16.4526 2.6684 -2.4047 0.9349
-16.4675 2.5664 -2.4045 0.9349
-16.5325 2.0553 -2.4035 0.9349
-16.5436 1.9529 -2.4033 0.9349
-16.5540 1.8504 -2.4032 0.9349
-16.5816 1.5426 -2.4026 0.9349
-16.5895 1.4399 -2.4024 0.9349
-16.6034 1.2344 -2.4020 0.9349
-16.6094 1.1316 -2.4018 0.9349
-16.6148 1.0288 -2.4016 0.9349
-16.6321 0.5144 -2.4007 0.9350
-16.6337 0.4115 -2.4005 0.9350
-16.6346 0.3087 -2.4003 0.9350
-16.6345 0.1029 -2.3999 0.9350
-15.8027 0.0000 -2.3998 0.9381
-15.7991 -0.1954 -2.3994 0.9381
-15.7847 -0.5860 -2.3987 0.9381
-15.7532 -1.0733 -2.3978 0.9381
-15.7450 -1.1706 -2.3976 0.9381
-15.7363 -1.2679 -2.3975 0.9381
-15.7270 -1.3651 -2.3973 0.9381
-15.7066 -1.5593 -2.3969 0.9381
-15.6955 -1.6562 -2.3967 0.9381
-15.6010 -2.3327 -2.3955 0.9382
-15.5852 -2.4290 -2.3953 0.9382
-15.5340 -2.7171 -2.3948 0.9382
-15.4969 -2.9086 -2.3944 0.9382
-15.4775 -3.0041 -2.3943 0.9382
-15.4575 -3.0996 -2.3941 0.9382
-15.4369 -3.1948 -2.3939 0.9382
-15.4158 -3.2901 -2.3937 0.9382
-15.3940 -3.3851 -2.3936 0.9382
-15.3717 -3.4800 -2.3934 0.9382
-15.3487 -3.5746 -2.3932 0.9382
-15.3011 -3.7637 -2.3929 0.9382
-15.2764 -3.8580 -2.3927 0.9382
-15.2512 -3.9521 -2.3925 0.9382
-15.1990 -4.1398 -2.3922 0.9383
-15.1444 -4.3269 -2.3918 0.9383
-15.1163 -4.4201 -2.3917 0.9383
-15.0583 -4.6061 -2.3913 0.9383
-15.0285 -4.6988 -2.3912 0.9383
-14.9356 -4.9757 -2.3907 0.9383
-14.9035 -5.0676 -2.3905 0.9383
-14.8038 -5.3421 -2.3900 0.9383
-14.7346 -5.5241 -2.3897 0.9383
-14.6631 -5.7051 -2.3893 0.9383
-14.6265 -5.7953 -2.3892 0.9383
-14.5894 -5.8852 -2.3890 0.9383
-14.5135 -6.0644 -2.3887 0.9383
-14.4748 -6.1536 -2.3885 0.9383
-14.4354 -6.2426 -2.3883 0.9384
-14.3142 -6.5080 -2.3879 0.9384
-14.2728 -6.5959 -2.3877 0.9384
-14.2308 -6.6836 -2.3875 0.9384
-14.1451 -6.8582 -2.3872 0.9384
-14.1015 -6.9451 -2.3871 0.9384
-14.0127 -7.1180 -2.3868 0.9384
-13.9675 -7.2041 -2.3866 0.9384
-13.8287 -7.4605 -2.3861 0.9384
-13.7814 -7.5454 -2.3860 0.9384
-13.6853 -7.7143 -2.3857 0.9384
-13.6365 -7.7983 -2.3855 0.9384
-13.5372 -7.9653 -2.3852 0.9384
-13.4869 -8.0484 -2.3851 0.9384
-13.2804 -8.3774 -2.3845 0.9384
-13.2275 -8.4588 -2.3843 0.9385
-13.1741 -8.5399 -2.3842 0.9385
-12.8435 -9.0195 -2.3833 0.9385
-12.7868 -9.0982 -2.3832 0.9385
-12.5548 -9.4095 -2.3826 0.9385
-12.4957 -9.4864 -2.3825 0.9385
-12.4360 -9.5630 -2.3823 0.9385
-12.3760 -9.6391 -2.3822 0.9385
-12.1929 -9.8653 -2.3818 0.9385
-12.1310 -9.9400 -2.3816 0.9385
-11.7500 -10.3797 -2.3808 0.9385
-11.5535 -10.5942 -2.3805 0.9385
-11.4872 -10.6649 -2.3803 0.9386
-11.4204 -10.7352 -2.3802 0.9386
-11.3532 -10.8050 -2.3801 0.9386
-10.9411 -11.2152 -2.3793 0.9386
