ply
format ascii 1.0
element vertex 1593
property float32 x
property float32 y
property float32 z
property float32 I
end_header
2.6445 8.8406 -2.3290 0.9626
2.5900 8.8574 -2.3291 0.9626
2.3707 8.9208 -2.3297 0.9626
2.3156 8.9358 -2.3298 0.9626
2.1497 8.9786 -2.3302 0.9626
2.0942 8.9922 -2.3303 0.9626
1.9831 9.0183 -2.3305 0.9626
1.9274 9.0308 -2.3306 0.9626
1.7037 9.0774 -2.3310 0.9626
1.6476 9.0881 -2.3311 0.9626
1.5352 9.1085 -2.3313 0.9626
1.4789 9.1181 -2.3314 0.9626
1.3096 9.1449 -2.3316 0.9626
1.2531 9.1531 -2.3317 0.9626
1.1398 9.1684 -2.3318 0.9626
1.0832 9.1755 -2.3319 0.9626
0.9696 9.1887 -2.3320 0.9626
0.7991 9.2057 -2.3322 0.9626
0.7421 9.2106 -2.3322 0.9626
0.6852 9.2151 -2.3322 0.9626
0.5141 9.2267 -2.3323 0.9626
0.4570 9.2298 -2.3324 0.9626
0.4000 9.2325 -2.3324 0.9626
0.2857 9.2369 -2.3324 0.9626
0.1715 9.2398 -2.3324 0.9626
0.0000 9.2414 -2.3324 0.9626
-0.1143 9.2406 -2.3324 0.9626
-0.1714 9.2397 -2.3324 0.9626
-0.2286 9.2384 -2.3324 0.9626
-0.2857 9.2367 -2.3324 0.9626
-0.3428 9.2347 -2.3324 0.9626
-0.4570 9.2296 -2.3323 0.9626
-0.5140 9.2264 -2.3323 0.9626
-0.5711 9.2229 -2.3322 0.9626
-0.9695 9.1882 -2.3319 0.9626
-1.1397 9.1679 -2.3317 0.9626
-1.3095 9.1442 -2.3315 0.9626
-1.4224 9.1267 -2.3313 0.9626
-1.4787 9.1174 -2.3312 0.9626
-1.5350 9.1076 -2.3311 0.9626
-1.6474 9.0872 -2.3309 0.9626
-1.8714 9.0420 -2.3305 0.9626
-1.9271 9.0298 -2.3304 0.9626
-1.9828 9.0173 -2.3302 0.9626
-2.0384 9.0044 -2.3301 0.9626
-2.1494 8.9775 -2.3299 0.9626
-2.2048 8.9635 -2.3297 0.9626
-2.2600 8.9492 -2.3296 0.9626
-2.4801 8.8884 -2.3290 0.9626
-2.6440 8.8390 -2.3286 0.9627
-2.7527 8.8044 -2.3282 0.9627
-2.8610 8.7683 -2.3279 0.9627
-2.9688 8.7310 -2.3275 0.9627
-3.0224 8.7117 -2.3273 0.9627
-3.0760 8.6922 -2.3272 0.9627
-3.1295 8.6723 -2.3270 0.9627
-3.3419 8.5893 -2.3262 0.9627
-3.3947 8.5677 -2.3260 0.9627
-3.4997 8.5235 -2.3255 0.9627
-3.6042 8.4781 -2.3251 0.9627
-3.6562 8.4548 -2.3249 0.9627
-3.7081 8.4312 -2.3247 0.9627
-3.7597 8.4073 -2.3244 0.9627
-3.8113 8.3830 -2.3242 0.9627
-3.8627 8.3585 -2.3240 0.9627
-3.9650 8.3085 -2.3235 0.9627
-4.0667 8.2571 -2.3231 0.9627
-4.1172 8.2310 -2.3228 0.9627
-4.1676 8.2045 -2.3226 0.9627
-4.3177 8.1232 -2.3218 0.9628
-4.3674 8.0954 -2.3216 0.9628
-4.5153 8.0103 -2.3208 0.9628
-4.6130 7.9520 -2.3203 0.9628
-4.6615 7.9225 -2.3200 0.9628
-4.7580 7.8623 -2.3195 0.9628
-4.8060 7.8318 -2.3192 0.9628
-4.9013 7.7699 -2.3186 0.9628
-4.9958 7.7067 -2.3180 0.9628
-5.0427 7.6747 -2.3177 0.9628
-5.0893 7.6423 -2.3174 0.9628
-5.1358 7.6096 -2.3171 0.9628
-5.2738 7.5098 -2.3161 0.9629
-5.3647 7.4418 -2.3154 0.9629
-5.4098 7.4073 -2.3151 0.9629
-5.4547 7.3726 -2.3147 0.9629
-5.5438 7.3025 -2.3140 0.9629
-5.6322 7.2313 -2.3134 0.9629
-6.0177 6.8976 -2.3103 0.9629
-6.0593 6.8592 -2.3099 0.9629
-6.1826 6.7425 -2.3089 0.9630
-6.2232 6.7031 -2.3085 0.9630
-6.3036 6.6235 -2.3078 0.9630
-6.3435 6.5833 -2.3074 0.9630
-6.3830 6.5429 -2.3070 0.9630
-6.4223 6.5022 -2.3067 0.9630
-6.5386 6.3788 -2.3055 0.9630
-6.6148 6.2954 -2.3047 0.9630
-6.6525 6.2533 -2.3044 0.9630
-6.6899 6.2110 -2.3040 0.9630
-6.7639 6.1257 -2.3032 0.9631
-6.8005 6.0827 -2.3028 0.9631
-6.9085 5.9524 -2.3016 0.9631
-6.9440 5.9085 -2.3012 0.9631
-6.9792 5.8644 -2.3008 0.9631
-7.0140 5.8201 -2.3004 0.9631
-7.0830 5.7309 -2.2995 0.9631
-7.1170 5.6859 -2.2991 0.9631
-7.8450 5.7295 -2.4519 0.9607
-7.8788 5.6798 -2.4514 0.9607
-7.9124 5.6299 -2.4509 0.9607
-7.9784 5.5295 -2.4500 0.9607
-8.1686 5.2238 -2.4472 0.9608
-8.2593 5.0684 -2.4458 0.9608
-8.2889 5.0162 -2.4453 0.9608
-8.3470 4.9114 -2.4443 0.9608
-8.3756 4.8587 -2.4439 0.9608
-8.4038 4.8058 -2.4434 0.9608
-8.4317 4.7528 -2.4429 0.9609
-8.4592 4.6997 -2.4424 0.9609
-8.5133 4.5928 -2.4414 0.9609
-8.5398 4.5392 -2.4409 0.9609
-8.5918 4.4314 -2.4399 0.9609
-8.6173 4.3773 -2.4394 0.9609
-8.7158 4.1594 -2.4374 0.9609
-8.7395 4.1046 -2.4369 0.9610
-8.7629 4.0496 -2.4364 0.9610
-8.8087 3.9393 -2.4354 0.9610
-8.8960 3.7171 -2.4334 0.9610
-8.9776 3.4930 -2.4313 0.9610
-9.0536 3.2671 -2.4293 0.9611
-9.0717 3.2103 -2.4287 0.9611
-9.0894 3.1535 -2.4282 0.9611
-9.1067 3.0966 -2.4277 0.9611
-9.1404 2.9824 -2.4267 0.9611
-9.1567 2.9252 -2.4261 0.9611
-9.2327 2.6378 -2.4235 0.9612
-9.2469 2.5802 -2.4230 0.9612
-9.3121 2.2905 -2.4203 0.9612
-9.3240 2.2324 -2.4198 0.9612
-9.3576 2.0577 -2.4182 0.9612
-9.3681 1.9993 -2.4177 0.9613
-9.3973 1.8240 -2.4161 0.9613
-9.4064 1.7655 -2.4155 0.9613
-9.4312 1.5896 -2.4139 0.9613
-9.4459 1.4722 -2.4129 0.9613
-9.4710 1.2370 -2.4107 0.9614
-9.4764 1.1781 -2.4102 0.9614
-9.4814 1.1192 -2.4096 0.9614
-9.4903 1.0014 -2.4086 0.9614
-9.4942 0.9425 -2.4080 0.9614
-9.4977 0.8836 -2.4075 0.9614
-9.5008 0.8246 -2.4069 0.9614
-9.5036 0.7657 -2.4064 0.9614
-9.5060 0.7067 -2.4059 0.9614
-9.5081 0.6478 -2.4053 0.9614
-9.5121 0.4710 -2.4037 0.9615
-9.5130 0.3532 -2.4026 0.9615
-9.5128 0.2943 -2.4021 0.9615
-9.5123 0.2353 -2.4016 0.9615
-9.5115 0.1765 -2.4010 0.9615
-9.5103 0.1176 -2.4005 0.9615
-9.2179 -0.0000 -2.3995 0.9626
-9.2157 -0.0570 -2.3989 0.9626
-9.2132 -0.1140 -2.3984 0.9626
-9.2071 -0.2278 -2.3974 0.9626
-9.1996 -0.3415 -2.3963 0.9627
-9.1907 -0.4551 -2.3953 0.9627
-9.1804 -0.5685 -2.3943 0.9627
-9.1747 -0.6251 -2.3938 0.9627
-9.1687 -0.6817 -2.3932 0.9627
-9.1557 -0.7947 -2.3922 0.9627
-9.1486 -0.8511 -2.3917 0.9627
-9.1412 -0.9075 -2.3912 0.9627
-9.1082 -1.1323 -2.3891 0.9628
-9.0990 -1.1884 -2.3886 0.9628
-9.0896 -1.2444 -2.3881 0.9628
-9.0696 -1.3561 -2.3871 0.9628
-9.0483 -1.4675 -2.3861 0.9628
-9.0256 -1.5787 -2.3851 0.9628
-8.9763 -1.7999 -2.3831 0.9629
-8.9631 -1.8550 -2.3826 0.9629
-8.9496 -1.9100 -2.3821 0.9629
-8.9357 -1.9649 -2.3816 0.9629
-8.8614 -2.2379 -2.3791 0.9629
-8.8456 -2.2922 -2.3786 0.9629
-8.8294 -2.3464 -2.3781 0.9629
-8.7961 -2.4544 -2.3771 0.9630
-8.7789 -2.5081 -2.3766 0.9630
-8.7437 -2.6155 -2.3757 0.9630
-8.7071 -2.7223 -2.3747 0.9630
-8.6883 -2.7756 -2.3742 0.9630
-8.6692 -2.8286 -2.3737 0.9630
-8.6301 -2.9345 -2.3728 0.9630
-8.6100 -2.9872 -2.3723 0.9630
-8.5480 -3.1445 -2.3708 0.9631
-8.5267 -3.1967 -2.3704 0.9631
-8.4831 -3.3006 -2.3694 0.9631
-8.4383 -3.4039 -2.3685 0.9631
-8.4154 -3.4553 -2.3680 0.9631
-8.3209 -3.6596 -2.3662 0.9631
-8.2717 -3.7608 -2.3653 0.9631
-8.0904 -4.1097 -2.3621 0.9632
-8.0360 -4.2079 -2.3612 0.9632
-8.0083 -4.2567 -2.3608 0.9632
-7.9803 -4.3053 -2.3603 0.9632
-7.9235 -4.4021 -2.3594 0.9632
-7.8947 -4.4502 -2.3590 0.9632
-7.7462 -4.6878 -2.3569 0.9633
-7.7157 -4.7348 -2.3564 0.9633
-7.6224 -4.8745 -2.3552 0.9633
-7.5908 -4.9206 -2.3548 0.9633
-7.5267 -5.0124 -2.3539 0.9633
-7.4615 -5.1033 -2.3531 0.9633
-7.3280 -5.2827 -2.3515 0.9633
-7.2596 -5.3711 -2.3507 0.9634
-7.1198 -5.5453 -2.3491 0.9634
-7.0483 -5.6311 -2.3483 0.9634
-7.0122 -5.6736 -2.3479 0.9634
-6.9392 -5.7581 -2.3472 0.9634
-6.8653 -5.8416 -2.3464 0.9634
-6.8280 -5.8829 -2.3461 0.9634
-6.7525 -5.9651 -2.3453 0.9634
-6.6762 -6.0463 -2.3446 0.9635
-6.5598 -6.1662 -2.3435 0.9635
-6.5206 -6.2057 -2.3432 0.9635
-6.4014 -6.3228 -2.3421 0.9635
-6.3209 -6.3996 -2.3414 0.9635
-6.2803 -6.4376 -2.3411 0.9635
-6.2395 -6.4754 -2.3407 0.9635
-6.1984 -6.5129 -2.3404 0.9635
-6.0320 -6.6604 -2.3391 0.9635
-5.9898 -6.6967 -2.3387 0.9635
-5.9049 -6.7684 -2.3381 0.9636
-5.8192 -6.8391 -2.3375 0.9636
-5.7760 -6.8740 -2.3371 0.9636
-5.7326 -6.9087 -2.3368 0.9636
-5.6453 -6.9772 -2.3362 0.9636
-5.6012 -7.0111 -2.3359 0.9636
-5.5127 -7.0780 -2.3353 0.9636
-5.4681 -7.1110 -2.3350 0.9636
-5.4233 -7.1438 -2.3347 0.9636
-5.3333 -7.2086 -2.3341 0.9636
-5.2879 -7.2405 -2.3338 0.9636
-5.1967 -7.3036 -2.3333 0.9636
-5.1048 -7.3656 -2.3327 0.9636
-5.0585 -7.3961 -2.3325 0.9636
-5.0121 -7.4264 -2.3322 0.9636
-4.8247 -7.5446 -2.3311 0.9637
-4.7774 -7.5735 -2.3309 0.9637
-4.7300 -7.6021 -2.3306 0.9637
-4.6346 -7.6583 -2.3301 0.9637
-4.5385 -7.7135 -2.3296 0.9637
-4.4903 -7.7406 -2.3294 0.9637
-4.4419 -7.7674 -2.3291 0.9637
-4.3933 -7.7939 -2.3289 0.9637
-4.2467 -7.8717 -2.3282 0.9637
-4.1482 -7.9221 -2.3278 0.9637
-3.9495 -8.0193 -2.3269 0.9637
-3.8995 -8.0429 -2.3267 0.9637
-3.7991 -8.0891 -2.3263 0.9637
-3.6981 -8.1340 -2.3259 0.9637
-3.4946 -8.2203 -2.3251 0.9638
-3.3408 -8.2818 -2.3246 0.9638
-3.2376 -8.3213 -2.3242 0.9638
-2.9254 -8.4321 -2.3232 0.9638
-2.8730 -8.4495 -2.3231 0.9638
-2.7680 -8.4833 -2.3228 0.9638
-2.7153 -8.4997 -2.3226 0.9638
-2.6625 -8.5158 -2.3225 0.9638
-2.4505 -8.5771 -2.3220 0.9638
-2.3440 -8.6058 -2.3217 0.9638
-2.2906 -8.6197 -2.3216 0.9638
-2.1299 -8.6594 -2.3213 0.9638
-2.0225 -8.6843 -2.3210 0.9638
-1.9687 -8.6962 -2.3209 0.9638
-1.8608 -8.7192 -2.3207 0.9638
-1.6443 -8.7612 -2.3204 0.9638
-1.5900 -8.7709 -2.3203 0.9638
-1.5357 -8.7802 -2.3202 0.9638
-1.4269 -8.7980 -2.3201 0.9638
-1.3724 -8.8064 -2.3200 0.9638
-1.2633 -8.8222 -2.3199 0.9638
-1.2087 -8.8296 -2.3198 0.9638
-1.1541 -8.8367 -2.3197 0.9638
-1.0994 -8.8434 -2.3197 0.9638
-1.0446 -8.8499 -2.3196 0.9638
-0.9899 -8.8560 -2.3196 0.9638
-0.9351 -8.8617 -2.3195 0.9638
-0.8254 -8.8723 -2.3195 0.9638
-0.6606 -8.8857 -2.3194 0.9638
-0.5506 -8.8930 -2.3193 0.9638
-0.1653 -8.9081 -2.3192 0.9638
0.0551 -8.9095 -2.3192 0.9638
0.1654 -8.9083 -2.3192 0.9638
0.2204 -8.9071 -2.3193 0.9638
0.2755 -8.9056 -2.3193 0.9638
0.3305 -8.9038 -2.3193 0.9638
0.3856 -8.9017 -2.3193 0.9638
0.4407 -8.8993 -2.3193 0.9638
0.5507 -8.8934 -2.3194 0.9638
0.6607 -8.8862 -2.3195 0.9638
0.7706 -8.8777 -2.3196 0.9638
0.9352 -8.8625 -2.3197 0.9638
0.9900 -8.8567 -2.3198 0.9638
1.0448 -8.8507 -2.3199 0.9638
1.0996 -8.8443 -2.3199 0.9638
1.1542 -8.8376 -2.3200 0.9638
1.2089 -8.8306 -2.3201 0.9638
1.2636 -8.8232 -2.3201 0.9638
1.3182 -8.8155 -2.3202 0.9638
1.4272 -8.7991 -2.3204 0.9638
1.5903 -8.7721 -2.3206 0.9638
1.8071 -8.7316 -2.3210 0.9638
1.9152 -8.7094 -2.3212 0.9638
1.9691 -8.6978 -2.3214 0.9638
2.0229 -8.6859 -2.3215 0.9638
2.0767 -8.6736 -2.3216 0.9638
2.1304 -8.6611 -2.3217 0.9638
2.1841 -8.6482 -2.3218 0.9638
2.5043 -8.5642 -2.3226 0.9638
2.6632 -8.5179 -2.3231 0.9638
2.7160 -8.5018 -2.3232 0.9638
2.8213 -8.4687 -2.3235 0.9638
2.9786 -8.4166 -2.3240 0.9638
3.0308 -8.3987 -2.3242 0.9638
3.1349 -8.3618 -2.3245 0.9638
3.1868 -8.3429 -2.3247 0.9638
3.2386 -8.3237 -2.3249 0.9638
3.4446 -8.2437 -2.3257 0.9637
3.5469 -8.2019 -2.3260 0.9637
3.5978 -8.1805 -2.3262 0.9637
3.6487 -8.1588 -2.3265 0.9637
3.6994 -8.1368 -2.3267 0.9637
3.7500 -8.1145 -2.3269 0.9637
3.8004 -8.0919 -2.3271 0.9637
3.8508 -8.0690 -2.3273 0.9637
4.0009 -7.9984 -2.3280 0.9637
4.0507 -7.9743 -2.3282 0.9637
4.1499 -7.9251 -2.3286 0.9637
4.1992 -7.9001 -2.3289 0.9637
4.2484 -7.8748 -2.3291 0.9637
4.2975 -7.8492 -2.3293 0.9637
4.4437 -7.7705 -2.3301 0.9637
4.4922 -7.7437 -2.3303 0.9637
4.5405 -7.7167 -2.3306 0.9637
4.5886 -7.6893 -2.3308 0.9637
4.6844 -7.6336 -2.3314 0.9637
4.7796 -7.5768 -2.3319 0.9636
4.8269 -7.5480 -2.3322 0.9636
4.8740 -7.5189 -2.3324 0.9636
4.9210 -7.4894 -2.3327 0.9636
4.9678 -7.4598 -2.3330 0.9636
5.1533 -7.3381 -2.3341 0.9636
5.1992 -7.3071 -2.3344 0.9636
5.2450 -7.2757 -2.3347 0.9636
5.2905 -7.2440 -2.3350 0.9636
5.3359 -7.2121 -2.3353 0.9636
5.4261 -7.1473 -2.3359 0.9636
5.4709 -7.1146 -2.3362 0.9636
5.5155 -7.0815 -2.3365 0.9636
5.5599 -7.0482 -2.3368 0.9636
5.6042 -7.0146 -2.3371 0.9636
5.7357 -6.9123 -2.3380 0.9636
5.8223 -6.8427 -2.3387 0.9635
6.2839 -6.4413 -2.3424 0.9635
6.3246 -6.4033 -2.3428 0.9635
6.3650 -6.3650 -2.3431 0.9635
6.4052 -6.3265 -2.3435 0.9635
6.4452 -6.2877 -2.3438 0.9635
6.6029 -6.1302 -2.3453 0.9634
6.6417 -6.0902 -2.3456 0.9634
6.6803 -6.0499 -2.3460 0.9634
6.7186 -6.0094 -2.3464 0.9634
6.7568 -5.9688 -2.3468 0.9634
6.7946 -5.9278 -2.3471 0.9634
6.8323 -5.8866 -2.3475 0.9634
6.9804 -5.7196 -2.3491 0.9634
7.0529 -5.6347 -2.3498 0.9634
7.1245 -5.5489 -2.3506 0.9634
7.1599 -5.5057 -2.3510 0.9634
7.1950 -5.4622 -2.3514 0.9634
7.2989 -5.3305 -2.3526 0.9633
7.3329 -5.2862 -2.3531 0.9633
7.4003 -5.1969 -2.3539 0.9633
7.4337 -5.1520 -2.3543 0.9633
7.4667 -5.1068 -2.3547 0.9633
7.4994 -5.0614 -2.3551 0.9633
7.5642 -4.9701 -2.3560 0.9633
7.6278 -4.8779 -2.3568 0.9633
7.6592 -4.8315 -2.3572 0.9633
7.6903 -4.7849 -2.3577 0.9633
7.7212 -4.7381 -2.3581 0.9632
7.7517 -4.6911 -2.3585 0.9632
7.7820 -4.6440 -2.3590 0.9632
7.8121 -4.5966 -2.3594 0.9632
7.9579 -4.3569 -2.3616 0.9632
7.9862 -4.3085 -2.3620 0.9632
8.0142 -4.2598 -2.3625 0.9632
8.1233 -4.0633 -2.3643 0.9632
8.1498 -4.0138 -2.3647 0.9631
8.1761 -3.9641 -2.3652 0.9631
8.2530 -3.8140 -2.3666 0.9631
8.3272 -3.6623 -2.3680 0.9631
8.3752 -3.5605 -2.3689 0.9631
8.4219 -3.4580 -2.3698 0.9631
8.4674 -3.3549 -2.3708 0.9631
8.4897 -3.3031 -2.3713 0.9630
8.5547 -3.1470 -2.3727 0.9630
8.5757 -3.0946 -2.3732 0.9630
8.5964 -3.0421 -2.3737 0.9630
8.6369 -2.9368 -2.3746 0.9630
8.6761 -2.8309 -2.3756 0.9630
8.7141 -2.7245 -2.3766 0.9630
8.7325 -2.6711 -2.3771 0.9630
8.8032 -2.4563 -2.3790 0.9629
8.8366 -2.3482 -2.3800 0.9629
8.8528 -2.2940 -2.3805 0.9629
8.9143 -2.0761 -2.3825 0.9629
8.9288 -2.0213 -2.3830 0.9629
9.0447 -1.5244 -2.3875 0.9628
9.0667 -1.4130 -2.3886 0.9628
9.0874 -1.3014 -2.3896 0.9628
9.1066 -1.1893 -2.3906 0.9628
9.1158 -1.1333 -2.3911 0.9627
9.1246 -1.0771 -2.3916 0.9627
9.1489 -0.9082 -2.3932 0.9627
9.1634 -0.7954 -2.3942 0.9627
9.1701 -0.7388 -2.3947 0.9627
9.1765 -0.6822 -2.3952 0.9627
9.1882 -0.5689 -2.3963 0.9627
9.2031 -0.3986 -2.3978 0.9626
9.2113 -0.2849 -2.3989 0.9626
9.2149 -0.2280 -2.3994 0.9626
9.2182 -0.1711 -2.3999 0.9626
9.2235 -0.0570 -2.4009 0.9626
9.2257 0.0000 -2.4015 0.9626
9.2275 0.0571 -2.4020 0.9626
9.2290 0.1142 -2.4025 0.9626
9.2309 0.2284 -2.4036 0.9626
9.2313 0.2855 -2.4041 0.9625
9.2310 0.3999 -2.4051 0.9625
9.2294 0.5142 -2.4062 0.9625
9.2280 0.5714 -2.4067 0.9625
9.2243 0.6858 -2.4077 0.9625
9.2218 0.7430 -2.4082 0.9625
9.2159 0.8574 -2.4093 0.9625
9.2125 0.9145 -2.4098 0.9625
9.2086 0.9717 -2.4103 0.9624
9.2044 1.0288 -2.4109 0.9624
9.1949 1.1431 -2.4119 0.9624
9.1781 1.3144 -2.4135 0.9624
9.1580 1.4854 -2.4150 0.9624
9.1506 1.5423 -2.4155 0.9624
9.1429 1.5992 -2.4160 0.9624
9.1263 1.7129 -2.4171 0.9623
9.1083 1.8264 -2.4181 0.9623
9.0988 1.8831 -2.4186 0.9623
9.0889 1.9398 -2.4191 0.9623
9.0787 1.9963 -2.4197 0.9623
9.0681 2.0529 -2.4202 0.9623
9.0342 2.2222 -2.4217 0.9623
9.0222 2.2785 -2.4222 0.9623
8.9971 2.3909 -2.4232 0.9623
8.9569 2.5590 -2.4248 0.9622
8.9427 2.6149 -2.4253 0.9622
8.9283 2.6707 -2.4258 0.9622
8.8668 2.8932 -2.4278 0.9622
8.7822 3.1692 -2.4303 0.9621
8.7273 3.3336 -2.4318 0.9621
8.6889 3.4427 -2.4328 0.9621
8.6081 3.6595 -2.4348 0.9621
8.5870 3.7134 -2.4353 0.9621
8.5656 3.7672 -2.4358 0.9621
8.5438 3.8208 -2.4362 0.9621
8.5218 3.8744 -2.4367 0.9620
8.4765 3.9811 -2.4377 0.9620
8.4300 4.0872 -2.4387 0.9620
8.2565 4.4543 -2.4420 0.9620
8.1500 4.6607 -2.4439 0.9619
8.1226 4.7119 -2.4443 0.9619
8.0383 4.8645 -2.4457 0.9619
8.0096 4.9150 -2.4462 0.9619
7.8303 5.2146 -2.4489 0.9619
7.5403 5.6512 -2.4528 0.9618
7.5065 5.6987 -2.4533 0.9618
7.4725 5.7460 -2.4537 0.9618
7.4034 5.8401 -2.4545 0.9618
7.3684 5.8867 -2.4550 0.9618
7.3331 5.9332 -2.4554 0.9618
7.2975 5.9795 -2.4558 0.9618
7.2616 6.0255 -2.4562 0.9617
7.2254 6.0713 -2.4566 0.9617
7.1522 6.1623 -2.4574 0.9617
7.1151 6.2074 -2.4579 0.9617
7.0777 6.2523 -2.4583 0.9617
7.0401 6.2970 -2.4587 0.9617
6.9125 6.4177 -2.4553 0.9618
6.5982 6.2796 -2.3710 0.9631
6.4518 6.2167 -2.3322 0.9636
6.3389 6.1839 -2.3051 0.9641
6.1878 6.3428 -2.3066 0.9640
6.1494 6.3819 -2.3069 0.9640
6.0327 6.4978 -2.3080 0.9640
5.9933 6.5360 -2.3083 0.9640
5.9536 6.5739 -2.3087 0.9640
5.9137 6.6116 -2.3090 0.9640
5.7517 6.7597 -2.3103 0.9640
5.7106 6.7961 -2.3107 0.9640
5.6693 6.8323 -2.3110 0.9640
5.5438 6.9391 -2.3119 0.9640
5.5016 6.9742 -2.3123 0.9639
5.4591 7.0091 -2.3126 0.9639
5.4163 7.0437 -2.3129 0.9639
5.3734 7.0780 -2.3132 0.9639
5.3302 7.1120 -2.3135 0.9639
5.2433 7.1792 -2.3141 0.9639
5.1554 7.2454 -2.3147 0.9639
5.1111 7.2781 -2.3150 0.9639
5.0666 7.3105 -2.3153 0.9639
5.0220 7.3426 -2.3156 0.9639
4.8867 7.4372 -2.3164 0.9639
4.8412 7.4681 -2.3167 0.9639
4.7496 7.5292 -2.3172 0.9639
4.7034 7.5593 -2.3175 0.9639
4.4228 7.7338 -2.3191 0.9638
4.3276 7.7896 -2.3196 0.9638
4.2799 7.8171 -2.3198 0.9638
4.2319 7.8442 -2.3201 0.9638
4.1837 7.8710 -2.3203 0.9638
3.9948 7.6290 -2.2416 0.9650
3.9258 7.6114 -2.2293 0.9652
3.6571 7.5429 -2.1820 0.9659
3.4643 7.4964 -2.1496 0.9664
3.3749 7.5466 -2.1519 0.9664
3.3519 7.6212 -2.1672 0.9662
3.3309 7.7025 -2.1844 0.9659
3.1350 8.3623 -2.3247 0.9638
3.0318 8.4016 -2.3250 0.9638
2.9800 8.4208 -2.3252 0.9638
2.8239 8.4765 -2.3257 0.9637
2.7716 8.4943 -2.3258 0.9637
2.7192 8.5119 -2.3260 0.9637
2.6667 8.5291 -2.3261 0.9637
2.5613 8.5625 -2.3264 0.9637
2.4555 8.5946 -2.3267 0.9637
2.4025 8.6101 -2.3268 0.9637
2.2960 8.6401 -2.3271 0.9637
2.2427 8.6546 -2.3272 0.9637
2.1892 8.6688 -2.3274 0.9637
2.1357 8.6826 -2.3275 0.9637
2.0283 8.7092 -2.3277 0.9637
1.9206 8.7345 -2.3279 0.9637
1.8126 8.7583 -2.3281 0.9637
1.6500 8.7915 -2.3284 0.9637
1.5413 8.8119 -2.3286 0.9637
1.4868 8.8216 -2.3287 0.9637
1.4323 8.8309 -2.3288 0.9637
1.2683 8.8568 -2.3290 0.9637
1.1588 8.8723 -2.3291 0.9637
1.0490 8.8865 -2.3292 0.9637
0.8290 8.9105 -2.3294 0.9637
0.7187 8.9204 -2.3295 0.9637
0.6636 8.9248 -2.3296 0.9637
0.5531 8.9326 -2.3296 0.9637
0.4426 8.9389 -2.3297 0.9637
0.2767 8.9458 -2.3297 0.9637
0.1660 8.9486 -2.3298 0.9637
0.1107 8.9495 -2.3298 0.9637
0.0554 8.9500 -2.3298 0.9637
0.0000 8.9502 -2.3298 0.9637
-0.1107 8.9494 -2.3297 0.9637
-0.3320 8.9437 -2.3297 0.9637
-0.3873 8.9414 -2.3297 0.9637
-0.4426 8.9387 -2.3296 0.9637
-0.5531 8.9323 -2.3296 0.9637
-0.6083 8.9286 -2.3295 0.9637
-0.6635 8.9245 -2.3295 0.9637
-0.7187 8.9200 -2.3294 0.9637
-0.8289 8.9101 -2.3293 0.9637
-0.8840 8.9046 -2.3293 0.9637
-0.9390 8.8987 -2.3292 0.9637
-0.9940 8.8925 -2.3292 0.9637
-1.0489 8.8859 -2.3291 0.9637
-1.1587 8.8718 -2.3290 0.9637
-1.2135 8.8642 -2.3289 0.9637
-1.2682 8.8562 -2.3288 0.9637
-1.4322 8.8302 -2.3286 0.9637
-1.5956 8.8011 -2.3283 0.9637
-1.6499 8.7906 -2.3282 0.9637
-1.7041 8.7799 -2.3281 0.9637
-1.8124 8.7573 -2.3279 0.9637
-1.8664 8.7455 -2.3278 0.9637
-1.9204 8.7334 -2.3276 0.9637
-2.0280 8.7081 -2.3274 0.9637
-2.0817 8.6949 -2.3273 0.9637
-2.1354 8.6814 -2.3271 0.9637
-2.2424 8.6533 -2.3269 0.9637
-2.2957 8.6388 -2.3267 0.9637
-2.4020 8.6087 -2.3265 0.9637
-2.5608 8.5609 -2.3260 0.9637
-2.6662 8.5274 -2.3257 0.9637
-2.7710 8.4926 -2.3253 0.9637
-2.8233 8.4747 -2.3252 0.9638
-2.8754 8.4564 -2.3250 0.9638
-2.9793 8.4189 -2.3246 0.9638
-3.0311 8.3996 -2.3245 0.9638
-3.1856 8.3399 -2.3239 0.9638
-3.2880 8.2985 -2.3235 0.9638
-3.3389 8.2773 -2.3233 0.9638
-3.3898 8.2557 -2.3231 0.9638
-3.4404 8.2339 -2.3229 0.9638
-3.4910 8.2117 -2.3227 0.9638
-3.5916 8.1664 -2.3222 0.9638
-3.6417 8.1433 -2.3220 0.9638
-3.6917 8.1198 -2.3218 0.9638
-3.7414 8.0961 -2.3216 0.9638
-3.8405 8.0476 -2.3211 0.9638
-3.8898 8.0229 -2.3209 0.9638
-3.9390 7.9979 -2.3207 0.9638
-3.9880 7.9726 -2.3204 0.9638
-4.0368 7.9470 -2.3202 0.9638
-4.1822 7.8683 -2.3195 0.9638
-4.2783 7.8143 -2.3190 0.9638
-4.3261 7.7868 -2.3187 0.9639
-4.4211 7.7310 -2.3182 0.9639
-4.6089 7.6158 -2.3172 0.9639
-4.6554 7.5863 -2.3169 0.9639
-4.7016 7.5565 -2.3166 0.9639
-4.8846 7.4340 -2.3154 0.9639
-5.0196 7.3391 -2.3145 0.9639
-5.1527 7.2418 -2.3135 0.9639
-5.2841 7.1421 -2.3126 0.9639
-5.3275 7.1083 -2.3123 0.9639
-5.3705 7.0742 -2.3120 0.9640
-5.4135 7.0399 -2.3117 0.9640
-5.4986 6.9705 -2.3110 0.9640
-5.5828 6.9000 -2.3104 0.9640
-5.7074 6.7923 -2.3094 0.9640
-5.8702 6.6452 -2.3080 0.9640
-5.9103 6.6078 -2.3077 0.9640
-6.1071 6.4170 -2.3059 0.9640
-6.1457 6.3781 -2.3055 0.9641
-6.2222 6.2996 -2.3048 0.9641
-6.2976 6.2202 -2.3041 0.9641
-6.3349 6.1801 -2.3037 0.9641
-6.3720 6.1398 -2.3034 0.9641
-6.4453 6.0586 -2.3026 0.9641
-6.5534 5.9350 -2.3015 0.9641
-6.5889 5.8934 -2.3011 0.9641
-6.6241 5.8516 -2.3007 0.9641
-6.6590 5.8095 -2.3003 0.9641
-6.7622 5.6821 -2.2991 0.9642
-6.7960 5.6392 -2.2987 0.9642
-6.8296 5.5961 -2.2983 0.9642
-6.8728 5.5608 -2.3013 0.9641
-7.1442 5.6356 -2.3686 0.9631
-7.3002 5.6858 -2.4086 0.9625
-7.4673 5.7421 -2.4520 0.9618
-7.5685 5.5996 -2.4507 0.9618
-7.6016 5.5517 -2.4503 0.9618
-7.7938 5.2601 -2.4476 0.9619
-7.8248 5.2109 -2.4471 0.9619
-7.8857 5.1118 -2.4462 0.9619
-8.0037 4.9115 -2.4444 0.9619
-8.0607 4.8103 -2.4434 0.9619
-8.0888 4.7595 -2.4430 0.9620
-8.1165 4.7084 -2.4425 0.9620
-8.1710 4.6059 -2.4416 0.9620
-8.1977 4.5544 -2.4411 0.9620
-8.2502 4.4509 -2.4401 0.9620
-8.2760 4.3990 -2.4397 0.9620
-8.3265 4.2946 -2.4387 0.9620
-8.3512 4.2422 -2.4382 0.9620
-8.4235 4.0841 -2.4368 0.9620
-8.4700 3.9780 -2.4358 0.9621
-8.4927 3.9248 -2.4353 0.9621
-8.5371 3.8179 -2.4343 0.9621
-8.5588 3.7642 -2.4339 0.9621
-8.5802 3.7105 -2.4334 0.9621
-8.6220 3.6026 -2.4324 0.9621
-8.6423 3.5485 -2.4319 0.9621
-8.7013 3.3855 -2.4304 0.9621
-8.7203 3.3309 -2.4299 0.9622
-8.7572 3.2215 -2.4289 0.9622
-8.7927 3.1116 -2.4279 0.9622
-8.8269 3.0014 -2.4269 0.9622
-8.8435 2.9461 -2.4264 0.9622
-8.8910 2.7798 -2.4248 0.9622
-8.9210 2.6685 -2.4238 0.9622
-8.9354 2.6128 -2.4233 0.9623
-8.9632 2.5010 -2.4223 0.9623
-8.9897 2.3889 -2.4213 0.9623
-9.0147 2.2766 -2.4202 0.9623
-9.0267 2.2203 -2.4197 0.9623
-9.0606 2.0512 -2.4182 0.9623
-9.0711 1.9947 -2.4177 0.9623
-9.0813 1.9381 -2.4171 0.9623
-9.1099 1.7682 -2.4156 0.9624
-9.1271 1.6547 -2.4146 0.9624
-9.1430 1.5410 -2.4135 0.9624
-9.1504 1.4841 -2.4130 0.9624
-9.1641 1.3702 -2.4120 0.9624
-9.1704 1.3133 -2.4114 0.9624
-9.1819 1.1992 -2.4104 0.9624
-9.1872 1.1422 -2.4099 0.9625
-9.1921 1.0851 -2.4094 0.9625
-9.1966 1.0280 -2.4088 0.9625
-9.2081 0.8566 -2.4073 0.9625
-9.2140 0.7424 -2.4062 0.9625
-9.2165 0.6852 -2.4057 0.9625
-9.2202 0.5709 -2.4047 0.9625
-9.2216 0.5138 -2.4041 0.9625
-9.2233 0.3995 -2.4031 0.9626
-9.2235 0.2853 -2.4021 0.9626
-9.2231 0.2282 -2.4015 0.9626
-9.2223 0.1711 -2.4010 0.9626
-9.2212 0.1141 -2.4005 0.9626
-8.9450 0.0000 -2.3995 0.9636
-8.9236 -0.3865 -2.3960 0.9637
-8.9191 -0.4416 -2.3955 0.9637
-8.9144 -0.4967 -2.3950 0.9637
-8.9093 -0.5517 -2.3945 0.9637
-8.9038 -0.6067 -2.3940 0.9637
-8.8980 -0.6616 -2.3935 0.9637
-8.8786 -0.8260 -2.3920 0.9637
-8.8563 -0.9900 -2.3905 0.9638
-8.8481 -1.0444 -2.3900 0.9638
-8.8123 -1.2619 -2.3880 0.9638
-8.7924 -1.3703 -2.3870 0.9638
-8.7819 -1.4244 -2.3865 0.9638
-8.7600 -1.5322 -2.3855 0.9638
-8.7368 -1.6398 -2.3845 0.9639
-8.7247 -1.6934 -2.3841 0.9639
-8.6594 -1.9604 -2.3816 0.9639
-8.6453 -2.0135 -2.3812 0.9639
-8.6310 -2.0665 -2.3807 0.9639
-8.6013 -2.1722 -2.3797 0.9639
-8.5381 -2.3824 -2.3778 0.9640
-8.5046 -2.4868 -2.3768 0.9640
-8.4873 -2.5388 -2.3764 0.9640
-8.4698 -2.5907 -2.3759 0.9640
-8.4153 -2.7458 -2.3745 0.9640
-8.3965 -2.7973 -2.3740 0.9640
-8.3383 -2.9508 -2.3726 0.9640
-8.3182 -3.0017 -2.3722 0.9640
-8.2979 -3.0525 -2.3717 0.9640
-8.2563 -3.1537 -2.3708 0.9641
-8.2135 -3.2543 -2.3699 0.9641
-8.1243 -3.4538 -2.3681 0.9641
-8.0779 -3.5527 -2.3672 0.9641
-8.0303 -3.6510 -2.3663 0.9641
-8.0061 -3.6999 -2.3658 0.9641
-7.9567 -3.7972 -2.3650 0.9641
-7.9316 -3.8456 -2.3645 0.9642
-7.8546 -3.9899 -2.3632 0.9642
-7.8018 -4.0852 -2.3623 0.9642
-7.7750 -4.1327 -2.3619 0.9642
-7.7478 -4.1799 -2.3615 0.9642
-7.7204 -4.2270 -2.3611 0.9642
-7.6928 -4.2739 -2.3606 0.9642
-7.6081 -4.4135 -2.3594 0.9642
-7.5209 -4.5514 -2.3581 0.9642
-7.4313 -4.6877 -2.3569 0.9643
-7.4009 -4.7328 -2.3565 0.9643
-7.3702 -4.7776 -2.3561 0.9643
-7.3392 -4.8223 -2.3557 0.9643
-7.3080 -4.8668 -2.3553 0.9643
-7.1806 -5.0426 -2.3537 0.9643
-7.1153 -5.1294 -2.3529 0.9643
-7.0490 -5.2152 -2.3521 0.9643
-7.0154 -5.2579 -2.3517 0.9643
-6.9133 -5.3845 -2.3506 0.9644
-6.8788 -5.4263 -2.3502 0.9644
-6.7025 -5.6319 -2.3484 0.9644
-6.6665 -5.6724 -2.3480 0.9644
-6.6302 -5.7126 -2.3476 0.9644
-6.5201 -5.8319 -2.3466 0.9644
-6.4079 -5.9492 -2.3455 0.9644
-6.3320 -6.0262 -2.3448 0.9644
-6.1774 -6.1774 -2.3434 0.9645
-6.1382 -6.2146 -2.3431 0.9645
-6.0988 -6.2516 -2.3428 0.9645
-6.0592 -6.2883 -2.3424 0.9645
-5.9792 -6.3609 -2.3418 0.9645
-5.9390 -6.3969 -2.3415 0.9645
-5.8169 -6.5033 -2.3405 0.9645
-5.7758 -6.5383 -2.3402 0.9645
-5.7345 -6.5730 -2.3399 0.9645
-5.6930 -6.6075 -2.3396 0.9645
-5.6512 -6.6417 -2.3393 0.9645
-5.6093 -6.6757 -2.3390 0.9645
-5.5672 -6.7094 -2.3387 0.9645
-5.4824 -6.7760 -2.3381 0.9645
-5.3537 -6.8739 -2.3372 0.9646
-5.3105 -6.9060 -2.3369 0.9646
-5.2670 -6.9379 -2.3366 0.9646
-5.2234 -6.9695 -2.3363 0.9646
-5.1355 -7.0319 -2.3358 0.9646
-5.0025 -7.1234 -2.3349 0.9646
-4.9577 -7.1534 -2.3347 0.9646
-4.9129 -7.1831 -2.3344 0.9646
-4.8678 -7.2125 -2.3341 0.9646
-4.7771 -7.2706 -2.3336 0.9646
-4.6858 -7.3275 -2.3331 0.9646
-4.6399 -7.3556 -2.3329 0.9646
-4.5939 -7.3833 -2.3326 0.9646
-4.5476 -7.4108 -2.3324 0.9646
-4.5012 -7.4380 -2.3321 0.9646
-4.4080 -7.4916 -2.3317 0.9646
-4.3611 -7.5179 -2.3314 0.9646
-4.3142 -7.5440 -2.3312 0.9646
-4.2670 -7.5698 -2.3310 0.9647
-4.2197 -7.5953 -2.3307 0.9647
-4.1722 -7.6205 -2.3305 0.9647
-4.0769 -7.6701 -2.3301 0.9647
-4.0290 -7.6945 -2.3298 0.9647
-3.7875 -7.8118 -2.3288 0.9647
-3.7388 -7.8344 -2.3286 0.9647
-3.6899 -7.8567 -2.3284 0.9647
-3.3943 -7.9843 -2.3273 0.9647
-3.3446 -8.0046 -2.3271 0.9647
-3.2948 -8.0245 -2.3269 0.9647
-3.2449 -8.0441 -2.3267 0.9647
-2.8923 -8.1730 -2.3256 0.9647
-2.8415 -8.1902 -2.3255 0.9647
-2.6886 -8.2399 -2.3250 0.9647
-2.6374 -8.2559 -2.3249 0.9647
-2.5862 -8.2716 -2.3247 0.9647
-2.5348 -8.2870 -2.3246 0.9647
-2.4318 -8.3167 -2.3243 0.9648
-2.2249 -8.3726 -2.3239 0.9648
-2.1730 -8.3858 -2.3237 0.9648
-2.1210 -8.3987 -2.3236 0.9648
-2.0689 -8.4112 -2.3235 0.9648
-1.9123 -8.4470 -2.3232 0.9648
-1.8075 -8.4693 -2.3230 0.9648
-1.7550 -8.4800 -2.3229 0.9648
-1.5972 -8.5102 -2.3227 0.9648
-1.5445 -8.5196 -2.3226 0.9648
-1.4389 -8.5375 -2.3224 0.9648
-1.3860 -8.5459 -2.3224 0.9648
-1.1741 -8.5767 -2.3221 0.9648
-1.0679 -8.5901 -2.3220 0.9648
-1.0147 -8.5964 -2.3220 0.9648
-0.9615 -8.6023 -2.3219 0.9648
-0.8550 -8.6132 -2.3218 0.9648
-0.8017 -8.6182 -2.3218 0.9648
-0.7484 -8.6228 -2.3217 0.9648
-0.6417 -8.6312 -2.3217 0.9648
-0.5883 -8.6349 -2.3216 0.9648
-0.4280 -8.6441 -2.3216 0.9648
-0.3211 -8.6486 -2.3216 0.9648
-0.2675 -8.6504 -2.3215 0.9648
-0.1070 -8.6538 -2.3215 0.9648
-0.0535 -8.6543 -2.3215 0.9648
0.0000 -8.6545 -2.3215 0.9648
0.0535 -8.6543 -2.3215 0.9648
0.1071 -8.6539 -2.3215 0.9648
0.1606 -8.6531 -2.3216 0.9648
0.2141 -8.6520 -2.3216 0.9648
0.3211 -8.6489 -2.3216 0.9648
0.3746 -8.6468 -2.3216 0.9648
0.4280 -8.6444 -2.3217 0.9648
0.5349 -8.6387 -2.3217 0.9648
0.5884 -8.6354 -2.3218 0.9648
0.7485 -8.6234 -2.3219 0.9648
0.8018 -8.6188 -2.3219 0.9648
0.8552 -8.6139 -2.3220 0.9648
0.9617 -8.6031 -2.3221 0.9648
1.0149 -8.5972 -2.3222 0.9648
1.0680 -8.5910 -2.3222 0.9648
1.1212 -8.5844 -2.3223 0.9648
1.1743 -8.5776 -2.3224 0.9648
1.2274 -8.5704 -2.3224 0.9648
1.3863 -8.5470 -2.3227 0.9648
1.5975 -8.5114 -2.3230 0.9648
1.7028 -8.4917 -2.3232 0.9648
1.8078 -8.4707 -2.3234 0.9648
2.0172 -8.4250 -2.3238 0.9648
2.1215 -8.4003 -2.3241 0.9648
2.1735 -8.3874 -2.3242 0.9648
2.2254 -8.3743 -2.3243 0.9648
2.2773 -8.3608 -2.3245 0.9647
2.3291 -8.3471 -2.3246 0.9647
2.4324 -8.3186 -2.3249 0.9647
2.5868 -8.2735 -2.3253 0.9647
2.6381 -8.2579 -2.3254 0.9647
2.7914 -8.2092 -2.3259 0.9647
2.8423 -8.1923 -2.3261 0.9647
2.9438 -8.1577 -2.3264 0.9647
3.1456 -8.0847 -2.3271 0.9647
3.3457 -8.0070 -2.3278 0.9647
3.3954 -7.9868 -2.3280 0.9647
3.4450 -7.9663 -2.3282 0.9647
3.5931 -7.9030 -2.3288 0.9647
3.6423 -7.8814 -2.3290 0.9647
3.7888 -7.8145 -2.3296 0.9647
3.8375 -7.7917 -2.3298 0.9647
3.8859 -7.7685 -2.3300 0.9647
4.0784 -7.6729 -2.3309 0.9647
4.1262 -7.6483 -2.3312 0.9646
4.2214 -7.5982 -2.3316 0.9646
4.4098 -7.4946 -2.3326 0.9646
4.4566 -7.4680 -2.3328 0.9646
4.5032 -7.4411 -2.3331 0.9646
4.5958 -7.3864 -2.3336 0.9646
4.6420 -7.3587 -2.3339 0.9646
4.6879 -7.3307 -2.3341 0.9646
4.7793 -7.2737 -2.3346 0.9646
4.8700 -7.2157 -2.3352 0.9646
4.9600 -7.1566 -2.3357 0.9646
5.0938 -7.0659 -2.3366 0.9646
5.1380 -7.0352 -2.3369 0.9646
5.1821 -7.0041 -2.3371 0.9646
5.2259 -6.9728 -2.3374 0.9646
5.2696 -6.9412 -2.3377 0.9646
5.3131 -6.9094 -2.3380 0.9645
5.3564 -6.8772 -2.3383 0.9645
5.3995 -6.8449 -2.3386 0.9645
5.4425 -6.8122 -2.3389 0.9645
5.5278 -6.7462 -2.3395 0.9645
5.6123 -6.6790 -2.3402 0.9645
5.6960 -6.6109 -2.3408 0.9645
5.8200 -6.5068 -2.3418 0.9645
5.9017 -6.4361 -2.3424 0.9645
5.9422 -6.4004 -2.3427 0.9645
5.9825 -6.3644 -2.3431 0.9645
6.0625 -6.2917 -2.3437 0.9645
6.1417 -6.2181 -2.3444 0.9645
6.2199 -6.1435 -2.3451 0.9644
6.2973 -6.0679 -2.3458 0.9644
6.3357 -6.0297 -2.3462 0.9644
6.3738 -5.9913 -2.3465 0.9644
6.4868 -5.8747 -2.3476 0.9644
6.5240 -5.8354 -2.3480 0.9644
6.5610 -5.7958 -2.3483 0.9644
6.5978 -5.7561 -2.3487 0.9644
6.6343 -5.7161 -2.3491 0.9644
6.7066 -5.6353 -2.3498 0.9644
6.8133 -5.5126 -2.3509 0.9644
6.8832 -5.4297 -2.3517 0.9643
6.9178 -5.3879 -2.3521 0.9643
6.9521 -5.3459 -2.3525 0.9643
7.0535 -5.2186 -2.3536 0.9643
7.3130 -4.8700 -2.3568 0.9643
7.3752 -4.7809 -2.3577 0.9643
7.4364 -4.6909 -2.3585 0.9642
7.4965 -4.6002 -2.3593 0.9642
7.5261 -4.5546 -2.3597 0.9642
7.5555 -4.5088 -2.3602 0.9642
7.6982 -4.2768 -2.3623 0.9642
7.7805 -4.1356 -2.3636 0.9642
7.8074 -4.0881 -2.3640 0.9642
7.8339 -4.0405 -2.3645 0.9642
7.8602 -3.9928 -2.3649 0.9641
7.8863 -3.9448 -2.3653 0.9641
7.9874 -3.7513 -2.3671 0.9641
8.0362 -3.6536 -2.3680 0.9641
8.0602 -3.6046 -2.3685 0.9641
8.1756 -3.3569 -2.3707 0.9641
8.1978 -3.3069 -2.3712 0.9641
8.2197 -3.2567 -2.3717 0.9640
8.2413 -3.2065 -2.3721 0.9640
8.2626 -3.1561 -2.3726 0.9640
8.3446 -2.9530 -2.3744 0.9640
8.3644 -2.9019 -2.3749 0.9640
8.4029 -2.7994 -2.3758 0.9640
8.4403 -2.6963 -2.3768 0.9640
8.5112 -2.4887 -2.3787 0.9639
8.5448 -2.3842 -2.3797 0.9639
8.5611 -2.3318 -2.3801 0.9639
8.5928 -2.2267 -2.3811 0.9639
8.6378 -2.0681 -2.3825 0.9639
8.6522 -2.0151 -2.3830 0.9639
8.6663 -1.9619 -2.3835 0.9639
8.6800 -1.9087 -2.3840 0.9639
8.6935 -1.8553 -2.3845 0.9639
8.7065 -1.8019 -2.3850 0.9638
8.7317 -1.6948 -2.3860 0.9638
8.7439 -1.6411 -2.3865 0.9638
8.7557 -1.5873 -2.3869 0.9638
8.7671 -1.5335 -2.3874 0.9638
8.7782 -1.4795 -2.3879 0.9638
8.7890 -1.4255 -2.3884 0.9638
8.8469 -1.0998 -2.3914 0.9638
8.8553 -1.0453 -2.3919 0.9637
8.8635 -0.9908 -2.3924 0.9637
8.8992 -0.7170 -2.3949 0.9637
8.9111 -0.6071 -2.3959 0.9637
8.9165 -0.5521 -2.3964 0.9637
8.9217 -0.4971 -2.3969 0.9637
8.9309 -0.3869 -2.3979 0.9637
8.9349 -0.3317 -2.3984 0.9636
8.9421 -0.2212 -2.3994 0.9636
8.9452 -0.1659 -2.3999 0.9636
8.9479 -0.1107 -2.4004 0.9636
8.9503 -0.0554 -2.4009 0.9636
8.9555 0.1108 -2.4025 0.9636
8.9572 0.2216 -2.4035 0.9636
8.9576 0.3325 -2.4045 0.9636
8.9572 0.3880 -2.4050 0.9636
8.9565 0.4435 -2.4055 0.9635
8.9555 0.4990 -2.4060 0.9635
8.9541 0.5545 -2.4065 0.9635
8.9524 0.6100 -2.4070 0.9635
8.9503 0.6654 -2.4075 0.9635
8.9479 0.7209 -2.4080 0.9635
8.9452 0.7764 -2.4085 0.9635
8.9214 1.1091 -2.4116 0.9635
8.8987 1.3305 -2.4136 0.9634
8.8921 1.3858 -2.4141 0.9634
8.8780 1.4964 -2.4151 0.9634
8.8625 1.6067 -2.4161 0.9634
8.8456 1.7169 -2.4171 0.9634
8.8274 1.8269 -2.4181 0.9634
8.8178 1.8819 -2.4186 0.9633
8.7974 1.9916 -2.4196 0.9633
8.7758 2.1011 -2.4206 0.9633
8.7644 2.1558 -2.4211 0.9633
8.7527 2.2104 -2.4216 0.9633
8.7406 2.2650 -2.4221 0.9633
8.7283 2.3194 -2.4226 0.9633
8.7024 2.4282 -2.4236 0.9633
8.6890 2.4825 -2.4241 0.9633
8.6612 2.5908 -2.4250 0.9633
8.6320 2.6988 -2.4260 0.9632
8.6168 2.7527 -2.4265 0.9632
8.5856 2.8602 -2.4275 0.9632
8.5695 2.9138 -2.4280 0.9632
8.5362 3.0208 -2.4289 0.9632
8.5190 3.0742 -2.4294 0.9632
8.5016 3.1274 -2.4299 0.9632
8.4837 3.1806 -2.4304 0.9632
8.4091 3.3921 -2.4323 0.9631
8.3896 3.4447 -2.4328 0.9631
8.3496 3.5496 -2.4337 0.9631
8.3292 3.6019 -2.4342 0.9631
8.3083 3.6541 -2.4347 0.9631
8.2439 3.8098 -2.4361 0.9631
8.2218 3.8614 -2.4366 0.9631
8.1993 3.9129 -2.4370 0.9631
8.1300 4.0667 -2.4384 0.9631
8.1062 4.1177 -2.4389 0.9630
8.0821 4.1685 -2.4394 0.9630
8.0577 4.2192 -2.4398 0.9630
7.9825 4.3704 -2.4412 0.9630
7.8778 4.5699 -2.4430 0.9630
7.8508 4.6194 -2.4434 0.9630
7.7680 4.7668 -2.4448 0.9630
7.7398 4.8157 -2.4452 0.9630
7.7112 4.8643 -2.4457 0.9629
7.6824 4.9128 -2.4461 0.9629
7.6532 4.9611 -2.4465 0.9629
7.6238 5.0092 -2.4470 0.9629
7.5940 5.0572 -2.4474 0.9629
7.5639 5.1049 -2.4478 0.9629
7.5335 5.1525 -2.4483 0.9629
7.5028 5.1999 -2.4487 0.9629
7.4405 5.2942 -2.4496 0.9629
7.3448 5.4341 -2.4508 0.9629
7.3123 5.4803 -2.4512 0.9629
7.2131 5.6179 -2.4525 0.9628
7.1454 5.7086 -2.4533 0.9628
7.1111 5.7536 -2.4537 0.9628
6.9712 5.9316 -2.4553 0.9628
6.9355 5.9756 -2.4557 0.9628
6.8267 6.1062 -2.4569 0.9628
6.7155 6.2347 -2.4581 0.9628
6.4212 6.1872 -2.3919 0.9637
6.1561 6.0804 -2.3210 0.9648
5.9252 6.2258 -2.3055 0.9650
5.7727 6.3742 -2.3068 0.9650
5.6951 6.4469 -2.3075 0.9650
5.6559 6.4829 -2.3078 0.9650
5.6164 6.5186 -2.3081 0.9650
5.5768 6.5542 -2.3084 0.9650
5.5369 6.5895 -2.3088 0.9650
5.4968 6.6245 -2.3091 0.9650
5.4159 6.6938 -2.3097 0.9650
5.3752 6.7280 -2.3100 0.9650
5.3342 6.7620 -2.3103 0.9650
5.1680 6.8954 -2.3115 0.9649
5.1258 6.9282 -2.3118 0.9649
4.9554 7.0563 -2.3129 0.9649
4.9122 7.0877 -2.3132 0.9649
4.8689 7.1188 -2.3135 0.9649
4.8254 7.1496 -2.3138 0.9649
4.7816 7.1802 -2.3141 0.9649
4.6935 7.2405 -2.3146 0.9649
4.6047 7.2996 -2.3151 0.9649
4.5600 7.3288 -2.3154 0.9649
4.4700 7.3863 -2.3159 0.9649
4.3792 7.4426 -2.3164 0.9649
4.2418 7.5250 -2.3171 0.9649
4.1492 7.5784 -2.3176 0.9649
4.1027 7.6047 -2.3179 0.9648
4.0560 7.6307 -2.3181 0.9648
3.9254 7.6107 -2.2971 0.9652
3.7897 7.5761 -2.2723 0.9655
3.5914 7.5255 -2.2368 0.9661
3.5267 7.5091 -2.2254 0.9662
3.4641 7.4958 -2.2150 0.9664
3.3748 7.5463 -2.2175 0.9663
3.3308 7.7023 -2.2510 0.9658
3.3096 7.7849 -2.2691 0.9656
3.2660 7.9543 -2.3066 0.9650
3.0392 8.1064 -2.3223 0.9648
2.9892 8.1257 -2.3225 0.9648
2.9391 8.1446 -2.3227 0.9648
2.8889 8.1632 -2.3228 0.9648
2.7881 8.1994 -2.3231 0.9648
2.4317 8.3161 -2.3242 0.9648
2.3289 8.3465 -2.3244 0.9647
2.2773 8.3612 -2.3246 0.9647
2.2257 8.3755 -2.3247 0.9647
2.1740 8.3896 -2.3248 0.9647
2.0703 8.4167 -2.3250 0.9647
2.0183 8.4297 -2.3252 0.9647
1.9662 8.4425 -2.3253 0.9647
1.7571 8.4900 -2.3257 0.9647
1.7047 8.5010 -2.3258 0.9647
1.6521 8.5118 -2.3259 0.9647
1.5995 8.5222 -2.3260 0.9647
1.5468 8.5322 -2.3260 0.9647
1.4412 8.5513 -2.3262 0.9647
1.3884 8.5603 -2.3263 0.9647
1.3355 8.5689 -2.3263 0.9647
1.2295 8.5854 -2.3265 0.9647
1.1764 8.5930 -2.3265 0.9647
0.9636 8.6204 -2.3268 0.9647
0.8035 8.6373 -2.3269 0.9647
0.5362 8.6587 -2.3271 0.9647
0.3755 8.6674 -2.3272 0.9647
0.3219 8.6696 -2.3272 0.9647
0.2683 8.6715 -2.3272 0.9647
0.1610 8.6742 -2.3272 0.9647
0.1073 8.6751 -2.3272 0.9647
0.0536 8.6756 -2.3272 0.9647
-0.1073 8.6750 -2.3272 0.9647
-0.1609 8.6741 -2.3272 0.9647
-0.2146 8.6729 -2.3272 0.9647
-0.2682 8.6714 -2.3272 0.9647
-0.3218 8.6695 -2.3272 0.9647
-0.4290 8.6646 -2.3271 0.9647
-0.5896 8.6548 -2.3270 0.9647
-0.6431 8.6508 -2.3270 0.9647
-0.6967 8.6465 -2.3269 0.9647
-0.8568 8.6316 -2.3268 0.9647
-0.9102 8.6259 -2.3267 0.9647
-1.0168 8.6136 -2.3266 0.9647
-1.0700 8.6069 -2.3265 0.9647
-1.1232 8.5998 -2.3265 0.9647
-1.2824 8.5767 -2.3262 0.9647
-1.4411 8.5505 -2.3260 0.9647
-1.4939 8.5411 -2.3259 0.9647
-1.5467 8.5313 -2.3258 0.9647
-1.5993 8.5212 -2.3257 0.9647
-1.6519 8.5109 -2.3256 0.9647
-1.7569 8.4890 -2.3254 0.9647
-1.8093 8.4776 -2.3253 0.9647
-2.0700 8.4155 -2.3247 0.9647
-2.1218 8.4021 -2.3246 0.9647
-2.2254 8.3742 -2.3243 0.9648
-2.3285 8.3451 -2.3240 0.9648
-2.4312 8.3146 -2.3238 0.9648
-2.4824 8.2989 -2.3236 0.9648
-2.5335 8.2828 -2.3234 0.9648
-2.6354 8.2497 -2.3231 0.9648
-2.8882 8.1613 -2.3223 0.9648
-2.9884 8.1237 -2.3219 0.9648
-3.0384 8.1044 -2.3217 0.9648
-3.0882 8.0848 -2.3216 0.9648
-3.1379 8.0649 -2.3214 0.9648
-3.4331 7.9389 -2.3202 0.9648
-3.4818 7.9168 -2.3200 0.9648
-3.8187 7.7535 -2.3184 0.9648
-3.9134 7.7042 -2.3180 0.9648
-3.9606 7.6791 -2.3177 0.9648
-4.1012 7.6020 -2.3170 0.9649
-4.3319 7.4676 -2.3158 0.9649
-4.4683 7.3835 -2.3150 0.9649
-4.5133 7.3548 -2.3148 0.9649
-4.5581 7.3259 -2.3145 0.9649
-4.6028 7.2966 -2.3142 0.9649
-4.6472 7.2671 -2.3139 0.9649
-4.7355 7.2072 -2.3133 0.9649
-4.7794 7.1768 -2.3130 0.9649
-4.8666 7.1154 -2.3124 0.9649
-4.9099 7.0843 -2.3121 0.9649
-5.0810 6.9571 -2.3109 0.9650
-5.1232 6.9247 -2.3106 0.9650
-5.1653 6.8920 -2.3103 0.9650
-5.2071 6.8590 -2.3100 0.9650
-5.2488 6.8258 -2.3097 0.9650
-5.3723 6.7245 -2.3088 0.9650
-5.4939 6.6209 -2.3078 0.9650
-5.5339 6.5859 -2.3075 0.9650
-5.7308 6.4071 -2.3059 0.9650
-5.8079 6.3338 -2.3052 0.9650
-5.9964 6.1466 -2.3035 0.9651
-6.0701 6.0701 -2.3027 0.9651
-6.1066 6.0315 -2.3024 0.9651
-6.1788 5.9537 -2.3017 0.9651
-6.2145 5.9145 -2.3013 0.9651
-6.3201 5.7954 -2.3002 0.9651
-6.3893 5.7149 -2.2995 0.9651
-6.4235 5.6744 -2.2991 0.9651
-6.4574 5.6336 -2.2987 0.9651
-6.5904 5.4685 -2.2972 0.9652
-6.9622 5.5623 -2.3904 0.9638
-7.2416 5.5686 -2.4505 0.9629
-7.3074 5.4767 -2.4496 0.9629
-7.3398 5.4304 -2.4492 0.9629
-7.4039 5.3374 -2.4483 0.9629
-7.4354 5.2906 -2.4479 0.9629
-7.4667 5.2435 -2.4475 0.9629
-7.4976 5.1964 -2.4470 0.9629
-7.5283 5.1490 -2.4466 0.9629
-7.5586 5.1014 -2.4462 0.9629
-7.5887 5.0537 -2.4457 0.9629
-7.6184 5.0057 -2.4453 0.9630
-7.6478 4.9576 -2.4448 0.9630
-7.7058 4.8609 -2.4439 0.9630
-7.7903 4.7145 -2.4426 0.9630
-7.8987 4.5170 -2.4408 0.9630
-7.9767 4.3672 -2.4394 0.9630
-8.0020 4.3170 -2.4390 0.9630
-8.1002 4.1146 -2.4371 0.9631
-8.1239 4.0637 -2.4366 0.9631
-8.1473 4.0126 -2.4362 0.9631
-8.1704 3.9613 -2.4357 0.9631
-8.2156 3.8585 -2.4348 0.9631
-8.2377 3.8069 -2.4343 0.9631
-8.2594 3.7552 -2.4338 0.9631
-8.2809 3.7033 -2.4333 0.9631
-8.3020 3.6513 -2.4329 0.9631
-8.3634 3.4946 -2.4314 0.9632
-8.4217 3.3368 -2.4300 0.9632
-8.4590 3.2311 -2.4290 0.9632
-8.5124 3.0718 -2.4275 0.9632
-8.5295 3.0185 -2.4271 0.9632
-8.5946 2.8043 -2.4251 0.9633
-8.6251 2.6967 -2.4241 0.9633
-8.7336 2.2632 -2.4201 0.9633
-8.7687 2.0995 -2.4186 0.9633
-8.7903 1.9900 -2.4176 0.9634
-8.8007 1.9352 -2.4171 0.9634
-8.8106 1.8804 -2.4166 0.9634
-8.8471 1.6604 -2.4146 0.9634
-8.8553 1.6054 -2.4141 0.9634
-8.8632 1.5503 -2.4136 0.9634
-8.8780 1.4399 -2.4126 0.9634
-8.9035 1.2189 -2.4106 0.9635
-8.9141 1.1082 -2.4096 0.9635
-8.9189 1.0528 -2.4091 0.9635
-8.9275 0.9421 -2.4081 0.9635
-8.9348 0.8312 -2.4071 0.9635
-8.9406 0.7203 -2.4061 0.9635
-8.9450 0.6094 -2.4050 0.9635
-8.9468 0.5540 -2.4045 0.9636
-8.9481 0.4985 -2.4040 0.9636
-8.9492 0.1660 -2.4010 0.9636
-8.9481 0.1107 -2.4005 0.9636
-8.6869 -0.0000 -2.3995 0.9646
-8.6850 -0.0537 -2.3990 0.9646
-8.6827 -0.1074 -2.3985 0.9646
-8.6801 -0.1611 -2.3980 0.9646
-8.6703 -0.3219 -2.3966 0.9646
-8.6664 -0.3754 -2.3961 0.9646
-8.6527 -0.5358 -2.3946 0.9647
-8.6163 -0.8554 -2.3917 0.9647
-8.6091 -0.9084 -2.3912 0.9647
-8.5856 -1.0674 -2.3898 0.9647
-8.5771 -1.1202 -2.3893 0.9647
-8.5591 -1.2257 -2.3883 0.9648
-8.5497 -1.2784 -2.3879 0.9648
-8.5399 -1.3310 -2.3874 0.9648
-8.5298 -1.3834 -2.3869 0.9648
-8.5194 -1.4359 -2.3864 0.9648
-8.5087 -1.4883 -2.3860 0.9648
-8.4976 -1.5406 -2.3855 0.9648
-8.4745 -1.6449 -2.3845 0.9648
-8.4625 -1.6969 -2.3841 0.9648
-8.4502 -1.7489 -2.3836 0.9648
-8.3838 -2.0073 -2.3812 0.9649
-8.3696 -2.0587 -2.3808 0.9649
-8.3551 -2.1100 -2.3803 0.9649
-8.2938 -2.3142 -2.3784 0.9649
-8.2778 -2.3650 -2.3780 0.9649
-8.2614 -2.4157 -2.3775 0.9649
-8.1567 -2.7174 -2.3748 0.9650
-8.1382 -2.7672 -2.3743 0.9650
-8.0611 -2.9654 -2.3725 0.9650
-8.0411 -3.0146 -2.3721 0.9650
-8.0208 -3.0637 -2.3716 0.9650
-8.0002 -3.1127 -2.3712 0.9650
-7.9793 -3.1615 -2.3708 0.9650
-7.9581 -3.2102 -2.3703 0.9650
-7.9366 -3.2588 -2.3699 0.9650
-7.8928 -3.3554 -2.3690 0.9650
-7.8478 -3.4515 -2.3681 0.9650
-7.7781 -3.5946 -2.3668 0.9651
-7.6564 -3.8298 -2.3647 0.9651
-7.5011 -4.1069 -2.3622 0.9651
-7.4742 -4.1525 -2.3618 0.9651
-7.4471 -4.1979 -2.3614 0.9651
-7.4197 -4.2431 -2.3610 0.9652
-7.3642 -4.3330 -2.3601 0.9652
-7.3075 -4.4223 -2.3593 0.9652
-7.2205 -4.5548 -2.3581 0.9652
-7.1612 -4.6422 -2.3573 0.9652
-7.0396 -4.8147 -2.3558 0.9652
-6.9772 -4.8998 -2.3550 0.9652
-6.9457 -4.9421 -2.3546 0.9652
-6.9138 -4.9841 -2.3542 0.9652
-6.8818 -5.0259 -2.3539 0.9653
-6.7178 -5.2322 -2.3520 0.9653
-6.6165 -5.3534 -2.3509 0.9653
-6.5822 -5.3934 -2.3506 0.9653
-6.4781 -5.5121 -2.3495 0.9653
-6.4429 -5.5512 -2.3491 0.9653
-6.4075 -5.5901 -2.3488 0.9653
-6.3719 -5.6288 -2.3484 0.9653
-6.2636 -5.7436 -2.3474 0.9653
-6.2270 -5.7813 -2.3471 0.9654
-6.1903 -5.8188 -2.3467 0.9654
-6.1161 -5.8933 -2.3460 0.9654
-6.0410 -5.9668 -2.3454 0.9654
-5.9651 -6.0394 -2.3447 0.9654
-5.9268 -6.0753 -2.3444 0.9654
-5.8496 -6.1464 -2.3438 0.9654
-5.8107 -6.1817 -2.3434 0.9654
-5.7323 -6.2514 -2.3428 0.9654
-5.6927 -6.2859 -2.3425 0.9654
-5.5327 -6.4214 -2.3413 0.9654
-5.4514 -6.4877 -2.3407 0.9654
-5.3694 -6.5530 -2.3401 0.9655
-5.3281 -6.5853 -2.3398 0.9655
-5.2867 -6.6173 -2.3395 0.9655
-5.2032 -6.6805 -2.3390 0.9655
-5.1611 -6.7118 -2.3387 0.9655
-4.8184 -6.9524 -2.3365 0.9655
-4.7748 -6.9813 -2.3363 0.9655
-4.6871 -7.0383 -2.3358 0.9655
-4.5987 -7.0942 -2.3353 0.9655
-4.5096 -7.1490 -2.3348 0.9655
-4.4649 -7.1760 -2.3345 0.9655
-4.3749 -7.2292 -2.3341 0.9655
-4.3296 -7.2554 -2.3338 0.9655
-4.2387 -7.3070 -2.3334 0.9656
-4.1473 -7.3574 -2.3329 0.9656
-4.1013 -7.3822 -2.3327 0.9656
-4.0552 -7.4067 -2.3325 0.9656
-4.0089 -7.4310 -2.3323 0.9656
-3.9625 -7.4550 -2.3320 0.9656
-3.9160 -7.4787 -2.3318 0.9656
-3.8693 -7.5021 -2.3316 0.9656
-3.7756 -7.5480 -2.3312 0.9656
-3.7285 -7.5706 -2.3310 0.9656
-3.6340 -7.6148 -2.3306 0.9656
-3.5865 -7.6365 -2.3304 0.9656
-3.5389 -7.6579 -2.3302 0.9656
-3.4434 -7.6999 -2.3299 0.9656
-3.2025 -7.7997 -2.3290 0.9656
-3.1540 -7.8188 -2.3288 0.9656
-3.1053 -7.8376 -2.3286 0.9656
-3.0566 -7.8561 -2.3285 0.9656
-3.0077 -7.8743 -2.3283 0.9656
-2.9588 -7.8922 -2.3282 0.9656
-2.9097 -7.9098 -2.3280 0.9656
-2.8606 -7.9272 -2.3279 0.9656
-2.8113 -7.9442 -2.3277 0.9656
-2.7125 -7.9774 -2.3274 0.9656
-2.6630 -7.9935 -2.3273 0.9656
-2.6133 -8.0093 -2.3271 0.9656
-2.5636 -8.0249 -2.3270 0.9656
-2.5138 -8.0401 -2.3269 0.9656
-2.4639 -8.0550 -2.3267 0.9656
-2.4139 -8.0697 -2.3266 0.9657
-2.3136 -8.0980 -2.3264 0.9657
-2.2634 -8.1118 -2.3262 0.9657
-2.2131 -8.1252 -2.3261 0.9657
-2.1627 -8.1384 -2.3260 0.9657
-2.1122 -8.1512 -2.3259 0.9657
-1.8588 -8.2108 -2.3254 0.9657
-1.8079 -8.2218 -2.3253 0.9657
-1.7059 -8.2429 -2.3251 0.9657
-1.6548 -8.2530 -2.3250 0.9657
-1.6037 -8.2627 -2.3249 0.9657
-1.5526 -8.2722 -2.3248 0.9657
-1.5013 -8.2814 -2.3248 0.9657
-1.4500 -8.2902 -2.3247 0.9657
-1.2444 -8.3226 -2.3244 0.9657
-1.0897 -8.3436 -2.3242 0.9657
-1.0380 -8.3500 -2.3242 0.9657
-0.8829 -8.3673 -2.3241 0.9657
-0.8311 -8.3725 -2.3240 0.9657
-0.7275 -8.3818 -2.3239 0.9657
-0.6756 -8.3860 -2.3239 0.9657
-0.5199 -8.3969 -2.3238 0.9657
-0.3121 -8.4069 -2.3238 0.9657
-0.2081 -8.4100 -2.3237 0.9657
-0.1040 -8.4119 -2.3237 0.9657
0.0000 -8.4126 -2.3237 0.9657
0.1561 -8.4113 -2.3238 0.9657
0.2081 -8.4102 -2.3238 0.9657
0.3641 -8.4051 -2.3238 0.9657
0.4161 -8.4028 -2.3239 0.9657
0.4680 -8.4002 -2.3239 0.9657
0.5200 -8.3972 -2.3239 0.9657
0.5719 -8.3940 -2.3240 0.9657
0.7276 -8.3824 -2.3241 0.9657
0.7794 -8.3779 -2.3241 0.9657
0.8312 -8.3731 -2.3242 0.9657
1.0898 -8.3444 -2.3245 0.9657
1.1415 -8.3378 -2.3245 0.9657
1.1930 -8.3308 -2.3246 0.9657
1.2446 -8.3235 -2.3247 0.9657
1.3475 -8.3080 -2.3248 0.9657
1.5528 -8.2734 -2.3252 0.9657
1.7062 -8.2441 -2.3255 0.9657
1.7573 -8.2338 -2.3256 0.9657
1.8591 -8.2122 -2.3258 0.9657
2.0621 -8.1652 -2.3262 0.9657
2.2136 -8.1269 -2.3266 0.9657
2.2639 -8.1134 -2.3267 0.9656
2.3142 -8.0998 -2.3268 0.9656
2.3644 -8.0858 -2.3270 0.9656
2.4145 -8.0714 -2.3271 0.9656
2.4644 -8.0568 -2.3273 0.9656
2.5642 -8.0267 -2.3275 0.9656
2.6636 -7.9954 -2.3278 0.9656
2.8121 -7.9462 -2.3283 0.9656
2.9596 -7.8943 -2.3288 0.9656
3.0086 -7.8765 -2.3290 0.9656
3.1063 -7.8398 -2.3293 0.9656
3.2035 -7.8020 -2.3297 0.9656
3.2519 -7.7826 -2.3298 0.9656
3.3003 -7.7630 -2.3300 0.9656
3.4446 -7.7023 -2.3306 0.9656
3.4924 -7.6815 -2.3308 0.9656
3.5401 -7.6604 -2.3310 0.9656
3.6352 -7.6174 -2.3314 0.9656
3.7770 -7.5506 -2.3320 0.9656
3.8707 -7.5047 -2.3324 0.9656
3.9174 -7.4813 -2.3327 0.9656
3.9640 -7.4577 -2.3329 0.9656
4.0104 -7.4337 -2.3331 0.9656
4.1029 -7.3850 -2.3336 0.9655
4.2860 -7.2842 -2.3345 0.9655
4.3767 -7.2321 -2.3350 0.9655
4.4667 -7.1789 -2.3355 0.9655
4.5562 -7.1247 -2.3360 0.9655
4.6891 -7.0413 -2.3368 0.9655
4.7331 -7.0129 -2.3370 0.9655
4.8641 -6.9263 -2.3378 0.9655
4.9074 -6.8969 -2.3381 0.9655
4.9935 -6.8373 -2.3387 0.9655
5.1636 -6.7150 -2.3398 0.9655
5.2057 -6.6837 -2.3401 0.9655
5.2476 -6.6522 -2.3404 0.9655
5.2892 -6.6204 -2.3407 0.9654
5.4132 -6.5237 -2.3416 0.9654
5.4949 -6.4579 -2.3422 0.9654
5.5355 -6.4247 -2.3425 0.9654
5.5759 -6.3912 -2.3428 0.9654
5.6160 -6.3574 -2.3431 0.9654
5.6560 -6.3234 -2.3434 0.9654
5.7353 -6.2547 -2.3440 0.9654
5.7747 -6.2199 -2.3444 0.9654
5.9300 -6.0786 -2.3457 0.9654
6.0444 -5.9701 -2.3467 0.9654
6.1568 -5.8595 -2.3477 0.9653
6.2306 -5.7846 -2.3484 0.9653
6.2672 -5.7468 -2.3487 0.9653
6.3036 -5.7087 -2.3491 0.9653
6.3756 -5.6321 -2.3498 0.9653
6.4113 -5.5933 -2.3502 0.9653
6.4467 -5.5544 -2.3505 0.9653
6.5170 -5.4760 -2.3512 0.9653
6.7219 -5.2354 -2.3534 0.9653
6.8212 -5.1122 -2.3546 0.9652
6.8538 -5.0708 -2.3550 0.9652
6.9182 -4.9872 -2.3557 0.9652
7.0442 -4.8178 -2.3573 0.9652
7.1056 -4.7319 -2.3581 0.9652
7.1359 -4.6886 -2.3585 0.9652
7.1660 -4.6452 -2.3589 0.9652
7.1958 -4.6016 -2.3593 0.9652
7.3124 -4.4252 -2.3609 0.9652
7.3409 -4.3807 -2.3613 0.9651
7.5592 -4.0180 -2.3646 0.9651
7.6618 -3.8325 -2.3663 0.9651
7.6868 -3.7858 -2.3668 0.9651
7.7599 -3.6445 -2.3681 0.9650
7.8073 -3.5495 -2.3689 0.9650
7.8762 -3.4060 -2.3703 0.9650
7.8986 -3.3579 -2.3707 0.9650
7.9206 -3.3095 -2.3711 0.9650
7.9424 -3.2611 -2.3716 0.9650
7.9852 -3.1638 -2.3725 0.9650
8.0061 -3.1150 -2.3729 0.9650
8.0267 -3.0660 -2.3734 0.9650
8.0471 -3.0169 -2.3738 0.9650
8.0671 -2.9676 -2.3743 0.9650
8.1063 -2.8687 -2.3752 0.9649
8.1254 -2.8190 -2.3756 0.9649
8.1442 -2.7693 -2.3761 0.9649
8.1810 -2.6694 -2.3770 0.9649
8.2166 -2.5690 -2.3779 0.9649
8.2509 -2.4681 -2.3789 0.9649
8.2676 -2.4175 -2.3793 0.9649
8.2841 -2.3668 -2.3798 0.9649
8.3002 -2.3160 -2.3802 0.9649
8.3314 -2.2140 -2.3812 0.9649
8.3615 -2.1116 -2.3821 0.9648
8.3760 -2.0603 -2.3826 0.9648
8.3902 -2.0088 -2.3831 0.9648
8.4042 -1.9573 -2.3835 0.9648
8.4178 -1.9057 -2.3840 0.9648
8.4811 -1.6461 -2.3864 0.9648
8.5153 -1.4894 -2.3878 0.9648
8.5261 -1.4370 -2.3883 0.9648
8.5564 -1.2794 -2.3897 0.9647
8.5659 -1.2267 -2.3902 0.9647
8.5839 -1.1211 -2.3912 0.9647
8.5924 -1.0682 -2.3917 0.9647
8.6006 -1.0153 -2.3921 0.9647
8.6084 -0.9622 -2.3926 0.9647
8.6159 -0.9092 -2.3931 0.9647
8.6232 -0.8560 -2.3936 0.9647
8.6428 -0.6963 -2.3951 0.9647
8.6595 -0.5362 -2.3965 0.9646
8.6644 -0.4827 -2.3970 0.9646
8.6690 -0.4293 -2.3975 0.9646
8.6733 -0.3758 -2.3980 0.9646
8.6772 -0.3221 -2.3985 0.9646
8.6808 -0.2685 -2.3990 0.9646
8.6896 -0.1075 -2.4004 0.9646
8.6919 -0.0537 -2.4009 0.9646
8.6938 0.0000 -2.4014 0.9646
8.6968 0.1075 -2.4024 0.9646
8.6977 0.1614 -2.4029 0.9645
8.6983 0.2152 -2.4034 0.9645
8.6985 0.3229 -2.4044 0.9645
8.6981 0.3768 -2.4048 0.9645
8.6932 0.5923 -2.4068 0.9645
8.6912 0.6462 -2.4073 0.9645
8.6718 0.9694 -2.4103 0.9644
8.6627 1.0769 -2.4112 0.9644
8.6465 1.2382 -2.4127 0.9644
8.6202 1.4529 -2.4147 0.9644
8.5798 1.7204 -2.4171 0.9643
8.5515 1.8805 -2.4185 0.9643
8.5415 1.9337 -2.4190 0.9643
8.5310 1.9869 -2.4195 0.9643
8.5203 2.0400 -2.4200 0.9643
8.5092 2.0930 -2.4205 0.9643
8.4860 2.1990 -2.4214 0.9643
8.4740 2.2519 -2.4219 0.9643
8.4616 2.3047 -2.4224 0.9643
8.4488 2.3575 -2.4229 0.9643
8.4358 2.4101 -2.4234 0.9642
8.4086 2.5153 -2.4243 0.9642
8.3946 2.5677 -2.4248 0.9642
8.3033 2.8808 -2.4276 0.9642
8.2532 3.0361 -2.4291 0.9642
8.2358 3.0877 -2.4295 0.9642
8.2181 3.1391 -2.4300 0.9642
8.1632 3.2929 -2.4314 0.9641
8.1442 3.3440 -2.4318 0.9641
8.1250 3.3949 -2.4323 0.9641
7.9809 3.7483 -2.4355 0.9641
7.9591 3.7983 -2.4360 0.9641
7.9369 3.8481 -2.4364 0.9641
7.9144 3.8979 -2.4369 0.9641
7.7729 4.1934 -2.4396 0.9640
7.6464 4.4357 -2.4418 0.9640
7.5937 4.5315 -2.4426 0.9640
7.5669 4.5792 -2.4431 0.9640
7.4845 4.7213 -2.4443 0.9639
7.3995 4.8619 -2.4456 0.9639
7.0969 5.3188 -2.4497 0.9639
7.0650 5.3635 -2.4501 0.9639
7.0004 5.4523 -2.4510 0.9638
6.9677 5.4964 -2.4513 0.9638
6.8340 5.6707 -2.4529 0.9638
6.7999 5.7137 -2.4533 0.9638
6.7655 5.7566 -2.4537 0.9638
6.7308 5.7992 -2.4541 0.9638
6.6958 5.8417 -2.4545 0.9638
6.6607 5.8839 -2.4548 0.9638
6.5894 5.9676 -2.4556 0.9638
