ply
format ascii 1.0
element vertex 1518
property float32 x
property float32 y
property float32 z
property float32 I
end_header
-31.3578 -10.6626 -0.5653 0.8759
-31.0799 -10.9988 -0.5627 0.8764
-30.6678 -11.4974 -0.5590 0.8772
-29.9923 -12.3147 -0.5533 0.8784
-29.4608 -12.9570 -0.5493 0.8792
-28.9371 -13.5906 -0.5456 0.8799
-28.8073 -13.7477 -0.5448 0.8801
-28.6778 -13.9043 -0.5439 0.8803
-28.5488 -14.0604 -0.5431 0.8805
-28.4201 -14.2161 -0.5423 0.8806
-28.0362 -14.6806 -0.5401 0.8811
-27.9090 -14.8345 -0.5394 0.8812
-27.7820 -14.9882 -0.5388 0.8814
-27.6554 -15.1414 -0.5381 0.8815
-27.5290 -15.2942 -0.5375 0.8816
-27.4030 -15.4468 -0.5369 0.8818
-27.1517 -15.7508 -0.5357 0.8820
-27.0264 -15.9023 -0.5352 0.8821
-26.7767 -16.2045 -0.5342 0.8823
-26.5278 -16.5056 -0.5332 0.8825
-26.0327 -17.1050 -0.5316 0.8828
-25.9094 -17.2543 -0.5313 0.8829
-25.7861 -17.4033 -0.5309 0.8830
-25.6631 -17.5523 -0.5306 0.8830
-25.4173 -17.8496 -0.5301 0.8832
-25.2946 -17.9980 -0.5298 0.8832
-25.1721 -18.1463 -0.5296 0.8833
-24.5605 -18.8862 -0.5288 0.8834
-24.0723 -19.4770 -0.5285 0.8835
-23.9503 -19.6246 -0.5285 0.8835
-23.8283 -19.7722 -0.5285 0.8835
-23.7063 -19.9198 -0.5285 0.8835
-23.4623 -20.2151 -0.5286 0.8835
-23.3402 -20.3628 -0.5286 0.8835
-22.8515 -20.9541 -0.5291 0.8833
-22.3617 -21.5470 -0.5300 0.8832
-22.1160 -21.8442 -0.5305 0.8831
-21.9930 -21.9931 -0.5308 0.8830
-21.7466 -22.2913 -0.5315 0.8829
-21.6230 -22.4407 -0.5319 0.8828
-21.0870 -22.1570 -0.5220 0.8848
-20.7114 -22.3085 -0.5195 0.8853
-20.5250 -22.3837 -0.5183 0.8856
-20.3394 -22.4586 -0.5171 0.8858
-19.7876 -22.6811 -0.5137 0.8866
-19.6053 -22.7547 -0.5126 0.8868
-19.4237 -22.8279 -0.5116 0.8870
-17.8365 -21.4956 -0.4767 0.8943
-17.6687 -21.5634 -0.4758 0.8945
-17.5016 -21.6310 -0.4749 0.8947
-17.3351 -21.6983 -0.4740 0.8948
-17.1692 -21.7653 -0.4731 0.8950
-16.6752 -21.9650 -0.4707 0.8955
-16.5116 -22.0311 -0.4699 0.8957
-16.3485 -22.0970 -0.4691 0.8959
-15.2210 -22.5528 -0.4644 0.8969
-14.8488 -22.9065 -0.4659 0.8965
-14.9956 -24.7792 -0.4943 0.8906
-14.4924 -24.9825 -0.4929 0.8909
-14.3253 -25.0501 -0.4925 0.8910
-14.1584 -25.1176 -0.4921 0.8911
-13.5895 -25.1896 -0.4885 0.8918
-13.1626 -25.5201 -0.4901 0.8915
-12.3380 -25.8534 -0.4889 0.8917
-11.9476 -25.8532 -0.4861 0.8923
-11.7841 -25.9193 -0.4859 0.8923
-10.4135 -24.4953 -0.4543 0.8990
-10.1507 -24.7220 -0.4561 0.8986
-9.9975 -24.7839 -0.4561 0.8986
-9.8442 -24.8459 -0.4561 0.8986
-9.3844 -25.0317 -0.4563 0.8986
-8.7706 -25.2799 -0.4567 0.8985
-8.5812 -25.2367 -0.4549 0.8989
-8.4280 -25.2986 -0.4551 0.8988
-8.2748 -25.3605 -0.4553 0.8988
-8.1214 -25.4225 -0.4555 0.8987
-7.0725 -25.9663 -0.4593 0.8979
-6.7613 -26.0921 -0.4600 0.8978
-6.6053 -26.1552 -0.4604 0.8977
-5.5308 -22.4854 -0.3952 0.9115
-4.8538 -22.0737 -0.3857 0.9135
-4.4753 -21.6241 -0.3769 0.9154
-4.1558 -21.4113 -0.3722 0.9164
-3.9869 -21.2426 -0.3689 0.9172
-3.7795 -20.8479 -0.3616 0.9187
-3.6254 -20.7275 -0.3591 0.9193
-3.4734 -20.6088 -0.3567 0.9198
-3.3367 -20.5729 -0.3557 0.9200
-3.2279 -20.7121 -0.3578 0.9196
-3.1179 -20.8530 -0.3599 0.9191
-3.0234 -21.1125 -0.3640 0.9182
-2.7955 -21.4044 -0.3684 0.9173
-2.5619 -21.7034 -0.3730 0.9163
-2.3225 -22.0101 -0.3777 0.9153
-1.5656 -22.9793 -0.3931 0.9120
-1.4334 -23.1487 -0.3958 0.9114
-1.2993 -23.3204 -0.3986 0.9108
-1.1633 -23.4945 -0.4015 0.9102
-1.0253 -23.6712 -0.4044 0.9096
-0.8854 -23.8504 -0.4073 0.9089
-0.7433 -24.0323 -0.4104 0.9083
-0.5991 -24.2169 -0.4134 0.9076
-0.3042 -24.5946 -0.4198 0.9063
0.1549 -25.0441 -0.4274 0.9047
0.3142 -25.4014 -0.4336 0.9034
0.4752 -25.6075 -0.4371 0.9026
0.6388 -25.8170 -0.4408 0.9018
0.8052 -26.0300 -0.4445 0.9011
1.1465 -26.4672 -0.4521 0.8994
1.3216 -26.6914 -0.4561 0.8986
1.6813 -27.1520 -0.4643 0.8969
2.2459 -27.8750 -0.4773 0.8942
2.2432 -21.2576 -0.3648 0.9180
3.6952 -29.7230 -0.5112 0.8871
5.1159 -31.5424 -0.5454 0.8800
5.3715 -31.8697 -0.5516 0.8787
5.6329 -32.2045 -0.5580 0.8774
6.4156 -33.0536 -0.5747 0.8740
6.7387 -33.6059 -0.5850 0.8719
7.3352 -34.3698 -0.5998 0.8688
7.9628 -35.1735 -0.6155 0.8656
8.2891 -35.5914 -0.6237 0.8640
8.6243 -36.0206 -0.6321 0.8623
9.6329 -37.1738 -0.6554 0.8576
10.0684 -37.8879 -0.6691 0.8548
8.4002 -30.1051 -0.5334 0.8825
8.7274 -29.8468 -0.5307 0.8830
8.9411 -29.8902 -0.5325 0.8827
9.1040 -29.7630 -0.5312 0.8829
9.4274 -29.5104 -0.5287 0.8834
9.7479 -29.2601 -0.5264 0.8839
10.3805 -28.7659 -0.5219 0.8848
10.6929 -28.5218 -0.5199 0.8853
10.8482 -28.4005 -0.5189 0.8855
11.4637 -27.9197 -0.5151 0.8863
11.6163 -27.8006 -0.5142 0.8864
11.9197 -27.5635 -0.5125 0.8868
12.2213 -27.3280 -0.5109 0.8871
12.7739 -26.7668 -0.5062 0.8881
13.0404 -26.4777 -0.5037 0.8886
13.1872 -26.3631 -0.5031 0.8888
13.5570 -26.2847 -0.5048 0.8884
13.8497 -26.0560 -0.5036 0.8887
13.9956 -25.9421 -0.5031 0.8888
14.1411 -25.8284 -0.5026 0.8889
14.4314 -25.6016 -0.5016 0.8891
15.0088 -25.1507 -0.4999 0.8894
15.2961 -24.9262 -0.4991 0.8896
15.4394 -24.8143 -0.4988 0.8897
15.7255 -24.5908 -0.4982 0.8898
15.8684 -24.4792 -0.4979 0.8898
16.1535 -24.2565 -0.4974 0.8900
16.4381 -24.0342 -0.4970 0.8900
16.7223 -23.8122 -0.4966 0.8901
16.9091 -23.4559 -0.4935 0.8908
17.0501 -23.3457 -0.4934 0.8908
30.5070 -40.1844 -0.8611 0.8172
30.7529 -39.9924 -0.8610 0.8172
18.0747 -22.3392 -0.4904 0.8914
18.2148 -22.2298 -0.4905 0.8914
18.3549 -22.1203 -0.4906 0.8914
18.4951 -22.0108 -0.4907 0.8914
18.6353 -21.9013 -0.4908 0.8913
33.7142 -37.6926 -0.8631 0.8168
33.9616 -37.4999 -0.8635 0.8168
34.2092 -37.3070 -0.8639 0.8167
34.7052 -36.9206 -0.8648 0.8165
36.1985 -35.7534 -0.8684 0.8158
21.4294 -19.8953 -0.4991 0.8896
21.5171 -19.4868 -0.4955 0.8904
21.7430 -19.4480 -0.4979 0.8898
22.4340 -19.3289 -0.5054 0.8883
22.6689 -19.2884 -0.5080 0.8877
25.7118 -21.3349 -0.5702 0.8749
24.0649 -19.2259 -0.5257 0.8841
23.9756 -18.9128 -0.5212 0.8850
24.1290 -18.7929 -0.5220 0.8848
24.4374 -18.5521 -0.5236 0.8845
24.5923 -18.4311 -0.5245 0.8843
24.7890 -18.3402 -0.5263 0.8839
25.1021 -18.0957 -0.5281 0.8836
25.2594 -17.9729 -0.5291 0.8834
25.3271 -17.7861 -0.5282 0.8835
25.5333 -17.6962 -0.5302 0.8831
26.0119 -17.3224 -0.5334 0.8825
26.3341 -17.0707 -0.5356 0.8820
26.4963 -16.9440 -0.5368 0.8818
25.4913 -15.8606 -0.5124 0.8868
26.9872 -16.5607 -0.5404 0.8810
27.1523 -16.4317 -0.5417 0.8808
27.4966 -16.1789 -0.5445 0.8802
27.8325 -15.9165 -0.5472 0.8796
29.0313 -14.9736 -0.5575 0.8775
27.7504 -14.0963 -0.5312 0.8829
29.3766 -14.6946 -0.5606 0.8769
30.1073 -14.1401 -0.5677 0.8754
31.0172 -13.4132 -0.5767 0.8735
31.3951 -13.1181 -0.5807 0.8727
31.7782 -12.8189 -0.5848 0.8719
30.3969 -12.0436 -0.5580 0.8774
32.1669 -12.5154 -0.5891 0.8710
32.3634 -12.3619 -0.5913 0.8706
32.8154 -12.0716 -0.5968 0.8695
33.0168 -11.9144 -0.5991 0.8690
33.3685 -11.5769 -0.6028 0.8682
33.5743 -11.4162 -0.6052 0.8677
33.7818 -11.2542 -0.6077 0.8672
57.8121 -18.8634 -1.0379 0.7840
58.5327 -18.3006 -1.0467 0.7824
59.5384 -17.4093 -1.0587 0.7802
42.2765 -11.7963 -0.7491 0.8390
41.7230 -11.0875 -0.7368 0.8414
35.9194 -8.8353 -0.6313 0.8624
35.7257 -8.5536 -0.6270 0.8633
36.1881 -8.1925 -0.6333 0.8621
36.6600 -7.8239 -0.6398 0.8607
38.9717 -7.5642 -0.6775 0.8532
38.8547 -7.2924 -0.6747 0.8537
39.3740 -6.8869 -0.6822 0.8522
39.5632 -6.6681 -0.6847 0.8517
40.7249 -5.8320 -0.7021 0.8482
41.0046 -5.6135 -0.7064 0.8474
41.2878 -5.3923 -0.7106 0.8466
41.5744 -5.1685 -0.7150 0.8457
31.2162 -2.9040 -0.5351 0.8821
31.0738 -2.6971 -0.5323 0.8827
31.5054 -1.9508 -0.5387 0.8814
31.9532 -1.5821 -0.5460 0.8799
32.1875 -1.3943 -0.5499 0.8791
32.4178 -1.2034 -0.5537 0.8783
32.8885 -0.8137 -0.5615 0.8767
48.1929 0.0000 -0.8225 0.8246
37.0698 3.2175 -0.6351 0.8617
53.2788 5.2891 -0.9138 0.8072
53.5986 6.3270 -0.9211 0.8058
54.1109 6.7271 -0.9306 0.8040
55.8153 7.2897 -0.9607 0.7984
56.0944 8.0330 -0.9671 0.7972
61.6414 10.3893 -1.0669 0.7787
62.1028 10.8624 -1.0760 0.7771
60.6054 10.9872 -1.0512 0.7816
55.2815 12.1561 -0.9660 0.7974
67.9449 16.7127 -1.1942 0.7558
67.6543 17.0856 -1.1909 0.7564
67.3653 17.4565 -1.1877 0.7570
57.0524 15.1612 -1.0075 0.7897
66.7920 18.1924 -1.1815 0.7581
53.1933 14.8424 -0.9425 0.8018
65.6627 19.6418 -1.1697 0.7602
65.3838 19.9998 -1.1670 0.7607
66.0336 21.0951 -1.1831 0.7578
11.9025 6.3266 -0.2301 0.9475
11.8492 6.3925 -0.2298 0.9476
11.7429 6.5240 -0.2293 0.9477
11.6371 6.6549 -0.2288 0.9478
11.5317 6.7853 -0.2284 0.9479
11.4792 6.8503 -0.2281 0.9479
11.4267 6.9151 -0.2280 0.9480
11.3744 6.9799 -0.2278 0.9480
11.2178 7.1736 -0.2273 0.9481
11.0618 7.3665 -0.2268 0.9482
10.9581 7.4947 -0.2266 0.9483
10.9063 7.5588 -0.2265 0.9483
10.8029 7.6866 -0.2263 0.9483
10.7513 7.7505 -0.2262 0.9484
10.6997 7.8143 -0.2261 0.9484
10.6481 7.8781 -0.2261 0.9484
10.5451 8.0055 -0.2260 0.9484
10.4421 8.1329 -0.2259 0.9484
10.3392 8.2602 -0.2259 0.9484
10.2877 8.3238 -0.2259 0.9484
10.1848 8.4511 -0.2259 0.9484
10.0303 8.6421 -0.2260 0.9484
30.1045 28.2980 -0.7052 0.8476
13.5376 14.0495 -0.3330 0.9249
13.4625 14.1456 -0.3333 0.9249
13.1608 14.5320 -0.3346 0.9246
10.8137 12.0898 -0.2768 0.9372
12.9740 14.6868 -0.3344 0.9246
10.7178 12.2850 -0.2782 0.9369
10.6545 12.3660 -0.2786 0.9368
10.5910 12.4472 -0.2789 0.9367
10.5275 12.5286 -0.2793 0.9366
10.4637 12.6103 -0.2797 0.9365
10.3069 12.7387 -0.2797 0.9365
19.1170 24.5450 -0.5310 0.8830
14.5771 19.7026 -0.4183 0.9066
13.8779 19.7619 -0.4121 0.9079
13.1334 18.9498 -0.3935 0.9119
13.0218 19.0392 -0.3937 0.9119
11.9156 17.8928 -0.3669 0.9176
11.7433 17.8727 -0.3650 0.9180
11.6574 17.9833 -0.3658 0.9178
11.5712 18.0944 -0.3666 0.9177
10.6960 16.9560 -0.3422 0.9229
9.1064 15.2599 -0.3033 0.9314
8.6629 14.9334 -0.2946 0.9333
8.3876 14.8799 -0.2915 0.9339
8.0900 14.9955 -0.2908 0.9341
7.1827 13.7172 -0.2643 0.9399
6.8677 13.5199 -0.2588 0.9411
6.5895 13.1734 -0.2514 0.9428
6.5024 13.2027 -0.2512 0.9428
6.3907 13.1810 -0.2500 0.9431
6.2801 13.1595 -0.2489 0.9433
6.1705 13.1382 -0.2477 0.9436
6.0436 13.0776 -0.2459 0.9440
5.7439 13.2824 -0.2470 0.9438
5.6414 13.2700 -0.2461 0.9439
5.4843 13.3569 -0.2464 0.9439
5.3980 13.3817 -0.2463 0.9439
5.1866 13.3305 -0.2441 0.9444
5.1356 13.4448 -0.2456 0.9440
4.7213 12.5933 -0.2295 0.9476
4.9232 13.6429 -0.2475 0.9436
4.5735 13.4503 -0.2425 0.9448
4.3255 13.2566 -0.2380 0.9457
3.6576 11.4495 -0.2051 0.9531
3.7705 12.8947 -0.2293 0.9477
3.6593 12.8079 -0.2273 0.9481
3.5499 12.7225 -0.2254 0.9485
3.4424 12.6385 -0.2236 0.9489
3.3366 12.5559 -0.2217 0.9494
3.1467 12.1434 -0.2141 0.9511
3.1077 12.3056 -0.2166 0.9505
2.7990 12.0184 -0.2106 0.9518
2.2861 10.3964 -0.1817 0.9583
2.2763 11.7279 -0.2039 0.9533
2.1883 11.6591 -0.2025 0.9537
2.0710 11.4235 -0.1981 0.9546
1.9889 11.3710 -0.1970 0.9549
1.9070 11.3145 -0.1958 0.9551
1.3433 9.3804 -0.1617 0.9628
1.2755 9.3173 -0.1605 0.9631
1.1039 8.8795 -0.1527 0.9648
0.9962 8.9120 -0.1531 0.9648
0.9391 8.8995 -0.1527 0.9648
0.8788 8.8524 -0.1518 0.9650
0.7603 8.7598 -0.1501 0.9654
0.6446 8.6695 -0.1484 0.9658
0.5876 8.6250 -0.1475 0.9660
0.5314 8.5811 -0.1467 0.9662
0.3111 8.3794 -0.1431 0.9670
0.2589 8.3693 -0.1429 0.9671
0.1549 8.3491 -0.1425 0.9671
0.1031 8.3390 -0.1423 0.9672
0.0515 8.3290 -0.1422 0.9672
-0.0514 8.3090 -0.1418 0.9673
-0.4722 8.4758 -0.1449 0.9666
-0.5796 8.5066 -0.1455 0.9665
-0.6336 8.5221 -0.1458 0.9664
-0.6879 8.5376 -0.1462 0.9663
-0.8936 8.4685 -0.1453 0.9665
-0.9495 8.4946 -0.1459 0.9664
-1.0160 8.6067 -0.1479 0.9659
-1.0771 8.6637 -0.1490 0.9657
-1.1390 8.7215 -0.1501 0.9654
-1.3324 8.9108 -0.1538 0.9646
-1.4748 9.0932 -0.1572 0.9638
-1.5485 9.1875 -0.1590 0.9634
-1.7800 9.4839 -0.1647 0.9621
-1.4101 7.2652 -0.1263 0.9708
-1.5133 7.0909 -0.1237 0.9714
-1.5981 7.0591 -0.1235 0.9715
-1.6437 7.0578 -0.1237 0.9714
-1.6936 7.0735 -0.1241 0.9713
-2.7527 10.8999 -0.1919 0.9560
-2.8577 11.0280 -0.1944 0.9554
-2.9781 10.9340 -0.1934 0.9557
-3.4928 11.6766 -0.2080 0.9524
-3.6224 11.8424 -0.2114 0.9517
-3.8944 12.1907 -0.2184 0.9501
-4.0374 12.3737 -0.2221 0.9493
-4.5429 13.0939 -0.2365 0.9461
-4.7722 13.4853 -0.2441 0.9444
-5.1286 13.9414 -0.2535 0.9423
-5.2342 13.9616 -0.2545 0.9421
-5.6235 14.1930 -0.2606 0.9408
-5.7009 14.1326 -0.2601 0.9409
-5.8549 14.0123 -0.2592 0.9411
-6.0433 14.2155 -0.2636 0.9401
-6.2765 14.5140 -0.2699 0.9387
-7.9132 17.6949 -0.3308 0.9254
-8.2283 18.0982 -0.3393 0.9235
-8.5599 18.5227 -0.3483 0.9216
-9.2786 19.4428 -0.3677 0.9174
-9.6690 19.9425 -0.3783 0.9152
-10.0825 20.4718 -0.3895 0.9128
-10.5212 21.0334 -0.4014 0.9102
-7.8086 15.1396 -0.2907 0.9341
-7.7004 14.7059 -0.2833 0.9357
-7.7606 14.6004 -0.2822 0.9360
-7.8202 14.4956 -0.2811 0.9362
-7.9965 14.1861 -0.2779 0.9369
-8.0544 14.0843 -0.2769 0.9372
-8.1118 13.9834 -0.2759 0.9374
-8.3977 13.8765 -0.2768 0.9372
-8.6980 13.7886 -0.2782 0.9369
-9.2210 13.8464 -0.2839 0.9356
-9.6148 14.0579 -0.2907 0.9341
-12.4478 17.9606 -0.3730 0.9163
-13.0031 18.2747 -0.3828 0.9142
-15.1354 20.9954 -0.4417 0.9016
-8.3840 11.3319 -0.2406 0.9452
-35.6929 46.4167 -0.9993 0.7912
-35.9625 46.1736 -0.9989 0.7913
-36.5020 45.6891 -0.9981 0.7914
-37.0448 45.2104 -0.9976 0.7915
-37.3190 44.9748 -0.9974 0.7915
-37.6180 44.7689 -0.9980 0.7914
-48.7098 11.9813 -0.8561 0.8182
-49.3379 11.4906 -0.8646 0.8166
-48.0882 9.6426 -0.8371 0.8218
-47.2518 8.5663 -0.8196 0.8252
-46.9602 8.2138 -0.8136 0.8264
-46.3900 7.5239 -0.8021 0.8286
-45.8357 6.8534 -0.7910 0.8308
-45.5642 6.5250 -0.7856 0.8318
-45.2964 6.2010 -0.7803 0.8328
-45.0322 5.8814 -0.7751 0.8339
-44.5141 5.2546 -0.7650 0.8358
-44.0093 4.6439 -0.7553 0.8377
-43.7617 4.3443 -0.7506 0.8387
-43.0372 3.4674 -0.7369 0.8414
-42.5683 2.9002 -0.7282 0.8431
-42.3380 2.6216 -0.7240 0.8439
-42.1103 2.3462 -0.7198 0.8447
-41.4427 1.5384 -0.7078 0.8471
-41.0097 1.0146 -0.7001 0.8486
-40.7967 0.7569 -0.6964 0.8494
-40.3774 0.2496 -0.6891 0.8508
-40.1727 -0.0000 -0.9840 0.8515
-39.9684 -0.2472 -0.9790 0.8522
-39.5659 -0.7341 -0.9693 0.8536
-38.7840 -1.6800 -0.9509 0.8561
-38.4040 -2.1397 -0.9422 0.8574
-38.2166 -2.3664 -0.9379 0.8580
-38.0309 -2.5911 -0.9337 0.8585
-37.4834 -3.2534 -0.9216 0.8602
-36.9498 -3.8990 -0.9101 0.8619
-36.7748 -4.1106 -0.9064 0.8624
-36.2587 -4.7355 -0.8957 0.8639
-36.0892 -4.9406 -0.8922 0.8644
-35.7541 -5.3460 -0.8855 0.8653
-35.5884 -5.5464 -0.8823 0.8658
-34.2075 -5.5481 -0.8489 0.8705
-34.2552 -5.7735 -0.8509 0.8702
-34.7776 -6.5273 -0.8667 0.8680
-34.6188 -6.7194 -0.8638 0.8684
-34.3045 -7.0997 -0.8581 0.8692
-34.1488 -7.2880 -0.8553 0.8696
-33.9942 -7.4751 -0.8526 0.8700
-33.6878 -7.8458 -0.8473 0.8708
-33.2353 -8.3933 -0.8397 0.8718
-32.7906 -8.9313 -0.8325 0.8729
-32.4983 -9.2849 -0.8279 0.8735
-32.3534 -9.4603 -0.8257 0.8738
-32.2092 -9.6348 -0.8235 0.8741
-31.7810 -10.1527 -0.8172 0.8750
-31.4991 -10.4938 -0.8133 0.8756
-31.2199 -10.8316 -0.8094 0.8761
-30.9433 -11.1662 -0.8058 0.8767
-30.8059 -11.3325 -0.8040 0.8769
-30.6691 -11.4980 -0.8023 0.8772
-30.5329 -11.6628 -0.8006 0.8774
-30.3973 -11.8269 -0.7989 0.8777
-30.2622 -11.9903 -0.7973 0.8779
-29.9936 -12.3152 -0.7942 0.8783
-29.8601 -12.4768 -0.7927 0.8785
-29.7266 -12.6375 -0.7912 0.8788
-29.4620 -12.9576 -0.7884 0.8792
-29.1993 -13.2754 -0.7857 0.8796
-29.0687 -13.4335 -0.7844 0.8797
-28.9384 -13.5912 -0.7831 0.8799
-28.8085 -13.7483 -0.7819 0.8801
-28.6791 -13.9049 -0.7807 0.8803
-28.4213 -14.2167 -0.7784 0.8806
-28.2930 -14.3720 -0.7773 0.8808
-28.1650 -14.5268 -0.7763 0.8809
-28.0374 -14.6812 -0.7752 0.8811
-27.9102 -14.8352 -0.7742 0.8812
-27.0276 -15.9030 -0.7681 0.8821
-26.9026 -16.0542 -0.7674 0.8822
-26.6533 -16.3559 -0.7660 0.8824
-26.1574 -16.9562 -0.7636 0.8827
-26.0338 -17.1057 -0.7630 0.8828
-25.2957 -17.9987 -0.7605 0.8832
-25.1731 -18.1471 -0.7601 0.8832
-24.8059 -18.5913 -0.7593 0.8833
-24.5615 -18.8870 -0.7589 0.8834
-24.4394 -19.0348 -0.7588 0.8834
-24.1953 -19.3302 -0.7586 0.8835
-24.0733 -19.4778 -0.7585 0.8835
-23.9513 -19.6254 -0.7585 0.8835
-23.7073 -19.9206 -0.7585 0.8835
-23.4633 -20.2159 -0.7586 0.8834
-19.3950 -17.1331 -0.6339 0.9016
-19.3009 -17.2637 -0.6343 0.9016
-22.8525 -20.9550 -0.7595 0.8833
-22.6078 -21.2512 -0.7600 0.8832
-22.3626 -21.5479 -0.7607 0.8832
-22.2398 -21.6964 -0.7611 0.8831
-21.9939 -21.9940 -0.7619 0.8830
-21.8708 -22.1430 -0.7624 0.8829
-21.6239 -22.4416 -0.7634 0.8828
-21.0884 -22.1585 -0.7493 0.8848
-20.9001 -22.2344 -0.7475 0.8851
-20.5263 -22.3852 -0.7439 0.8856
-20.3407 -22.4600 -0.7422 0.8858
-20.1559 -22.5345 -0.7406 0.8861
-19.7889 -22.6826 -0.7373 0.8865
-19.6065 -22.7561 -0.7358 0.8868
-19.4250 -22.8294 -0.7342 0.8870
-17.3362 -21.6996 -0.6803 0.8948
-17.1703 -21.7667 -0.6791 0.8950
-16.8403 -21.9000 -0.6767 0.8954
-16.5126 -22.0325 -0.6744 0.8957
-16.1870 -22.1641 -0.6723 0.8960
-16.0250 -22.2296 -0.6712 0.8962
-15.5418 -22.4249 -0.6683 0.8966
-14.8468 -22.9034 -0.6686 0.8965
-15.0872 -24.5861 -0.7066 0.8910
-14.9965 -24.7807 -0.7095 0.8906
-14.1593 -25.1191 -0.7063 0.8910
-13.9927 -25.1864 -0.7058 0.8911
-13.5904 -25.1911 -0.7011 0.8918
-13.1634 -25.5217 -0.7034 0.8915
-12.5034 -25.7885 -0.7020 0.8917
-12.1119 -25.7887 -0.6979 0.8923
-11.9483 -25.8548 -0.6977 0.8923
-11.7849 -25.9209 -0.6975 0.8923
-10.8723 -24.3116 -0.6523 0.8989
-10.5668 -24.4351 -0.6521 0.8990
-10.3046 -24.6615 -0.6547 0.8986
-10.1513 -24.7235 -0.6547 0.8986
-9.9981 -24.7854 -0.6546 0.8986
-9.8448 -24.8474 -0.6547 0.8986
-9.6916 -24.9093 -0.6547 0.8986
-9.5383 -24.9713 -0.6548 0.8986
-9.2316 -25.0953 -0.6550 0.8985
-8.9247 -25.2193 -0.6553 0.8985
-8.7712 -25.2814 -0.6555 0.8985
-8.5817 -25.2382 -0.6530 0.8988
-8.4285 -25.3001 -0.6532 0.8988
-8.0016 -25.5925 -0.6568 0.8983
-7.8473 -25.6549 -0.6572 0.8982
-7.3833 -25.8424 -0.6583 0.8980
-7.2282 -25.9051 -0.6588 0.8980
-7.0729 -25.9679 -0.6592 0.8979
-6.9174 -26.0308 -0.6597 0.8978
-6.6057 -26.1568 -0.6608 0.8977
-5.1718 -22.2065 -0.5585 0.9128
-4.6827 -21.9416 -0.5496 0.9141
-4.3193 -21.5404 -0.5381 0.9158
-3.9872 -21.2442 -0.5295 0.9171
-3.7798 -20.8495 -0.5190 0.9187
-3.6257 -20.7291 -0.5155 0.9192
-3.4737 -20.6104 -0.5120 0.9198
-3.2281 -20.7132 -0.5135 0.9195
-3.0235 -21.1137 -0.5225 0.9182
-2.5621 -21.7047 -0.5353 0.9163
-2.4431 -21.8571 -0.5387 0.9158
-2.3226 -22.0113 -0.5422 0.9152
-2.0770 -22.3259 -0.5492 0.9142
-1.6961 -22.8137 -0.5604 0.9125
-1.4335 -23.1500 -0.5681 0.9114
-1.0254 -23.6726 -0.5804 0.9095
-0.8854 -23.8519 -0.5847 0.9089
-0.4528 -24.4059 -0.5979 0.9069
0.4752 -25.6092 -0.6274 0.9026
0.8052 -26.0318 -0.6380 0.9010
1.3217 -26.6933 -0.6546 0.8986
1.5000 -26.9216 -0.6605 0.8977
1.6815 -27.1539 -0.6664 0.8969
1.8662 -27.3906 -0.6725 0.8960
2.0544 -27.6315 -0.6787 0.8951
2.2460 -27.8770 -0.6851 0.8941
2.4414 -28.1271 -0.6916 0.8932
2.6404 -28.3821 -0.6982 0.8922
2.1115 -21.2703 -0.5236 0.9180
3.2423 -29.0065 -0.7149 0.8898
3.4757 -29.4439 -0.7262 0.8881
3.6955 -29.7254 -0.7337 0.8871
4.1489 -30.3061 -0.7493 0.8848
4.3829 -30.6058 -0.7573 0.8836
4.6220 -30.9120 -0.7656 0.8824
4.8664 -31.2250 -0.7741 0.8812
5.6334 -32.2073 -0.8009 0.8774
7.0339 -33.9861 -0.8501 0.8703
7.3359 -34.3729 -0.8609 0.8688
7.6456 -34.7697 -0.8720 0.8672
8.2899 -35.5948 -0.8952 0.8640
8.6251 -36.0240 -0.9073 0.8622
8.9695 -36.4651 -0.9198 0.8605
9.3235 -36.9186 -0.9327 0.8587
10.4554 -38.3861 -0.9745 0.8528
8.4006 -30.1067 -0.7656 0.8824
8.7279 -29.8484 -0.7618 0.8830
8.9416 -29.8919 -0.7643 0.8826
9.4279 -29.5121 -0.7589 0.8834
9.9076 -29.1374 -0.7538 0.8841
10.0661 -29.0136 -0.7522 0.8844
10.3811 -28.7675 -0.7491 0.8848
10.5376 -28.6452 -0.7476 0.8850
10.8489 -28.4021 -0.7447 0.8855
11.1577 -28.1608 -0.7420 0.8859
11.3113 -28.0408 -0.7406 0.8861
11.7689 -27.6834 -0.7368 0.8866
11.9204 -27.5650 -0.7356 0.8868
12.0714 -27.4471 -0.7345 0.8869
12.2219 -27.3295 -0.7333 0.8871
12.4502 -26.9407 -0.7270 0.8880
12.7749 -26.7688 -0.7265 0.8881
13.0411 -26.4791 -0.7230 0.8886
13.1879 -26.3645 -0.7221 0.8887
13.5577 -26.2861 -0.7245 0.8884
13.8504 -26.0574 -0.7228 0.8886
14.1419 -25.8298 -0.7213 0.8889
14.5769 -25.4900 -0.7193 0.8891
15.0096 -25.1520 -0.7175 0.8894
15.1533 -25.0397 -0.7169 0.8895
15.4402 -24.8156 -0.7159 0.8896
15.5834 -24.7037 -0.7155 0.8897
16.0119 -24.3691 -0.7142 0.8899
16.1544 -24.2578 -0.7139 0.8899
16.2968 -24.1466 -0.7136 0.8900
16.4390 -24.0354 -0.7133 0.8900
16.5812 -23.9244 -0.7130 0.8901
16.7232 -23.8135 -0.7128 0.8901
16.8652 -23.7026 -0.7126 0.8901
16.9100 -23.4571 -0.7083 0.8907
17.1951 -23.2411 -0.7082 0.8908
30.5088 -40.1869 -1.2359 0.8172
30.7548 -39.9948 -1.2358 0.8172
30.9530 -39.7417 -1.2339 0.8175
17.9356 -22.4498 -0.7039 0.8914
18.0756 -22.3404 -0.7039 0.8914
18.2157 -22.2309 -0.7040 0.8914
18.9170 -21.6832 -0.7048 0.8912
33.9637 -37.5023 -1.2393 0.8167
34.2113 -37.3094 -1.2399 0.8167
34.4593 -37.1162 -1.2406 0.8166
36.9536 -35.1691 -1.2496 0.8154
21.4291 -19.8950 -0.7162 0.8896
21.3896 -19.6134 -0.7109 0.8904
21.3507 -19.3361 -0.7056 0.8911
22.1389 -19.0747 -0.7158 0.8897
22.6204 -19.0072 -0.7237 0.8885
22.8651 -18.9729 -0.7278 0.8879
24.4999 -19.8229 -0.7720 0.8815
24.0607 -19.2226 -0.7544 0.8841
23.6720 -18.6733 -0.7385 0.8864
23.2011 -18.0702 -0.7203 0.8890
23.2292 -17.6349 -0.7144 0.8899
23.5243 -17.4045 -0.7168 0.8895
23.6725 -17.2887 -0.7180 0.8893
23.9707 -17.0559 -0.7206 0.8890
24.4220 -16.7034 -0.7248 0.8884
24.7259 -16.4661 -0.7277 0.8879
25.1864 -16.1064 -0.7323 0.8873
25.4631 -15.8431 -0.7346 0.8869
26.9887 -16.5616 -0.7756 0.8810
27.1538 -16.4327 -0.7774 0.8807
27.5027 -16.1825 -0.7816 0.8801
27.6703 -16.0516 -0.7836 0.8799
28.2591 -14.7972 -0.7814 0.8802
28.2092 -13.6771 -0.7679 0.8821
30.2966 -14.0010 -0.8175 0.8750
30.6463 -13.7052 -0.8223 0.8743
30.8321 -13.5601 -0.8250 0.8739
31.1469 -13.2413 -0.8290 0.8733
31.5267 -12.9447 -0.8348 0.8725
31.7186 -12.7948 -0.8378 0.8721
30.5768 -11.8967 -0.8037 0.8770
30.7636 -11.7509 -0.8067 0.8765
31.9147 -10.8519 -0.8257 0.8738
32.3108 -10.5426 -0.8325 0.8729
32.5113 -10.3860 -0.8360 0.8724
59.1756 -17.7012 -1.5130 0.7810
36.3769 -9.4264 -0.9205 0.8604
36.1439 -9.1279 -0.9131 0.8614
35.9582 -8.3745 -0.9044 0.8627
36.4254 -8.0097 -0.9136 0.8614
36.6626 -7.8245 -0.9183 0.8607
36.9022 -7.6373 -0.9231 0.8600
38.8574 -7.2929 -0.9684 0.8537
39.3768 -6.8874 -0.9792 0.8522
39.6409 -6.6812 -0.9847 0.8514
40.1780 -6.2617 -0.9960 0.8498
40.4513 -6.0483 -1.0019 0.8490
40.7278 -5.8324 -1.0078 0.8482
39.2752 -5.1295 -0.9702 0.8534
31.1922 -3.0965 -0.7678 0.8821
31.0427 -2.8879 -0.7637 0.8827
30.9010 -2.6821 -0.7598 0.8833
30.8249 -2.4835 -0.7575 0.8836
31.6377 -1.7627 -0.7762 0.8809
32.1573 -1.3929 -0.7884 0.8792
32.3940 -1.2025 -0.7940 0.8784
32.8752 -0.8134 -0.8055 0.8767
33.3734 -0.4128 -0.8175 0.8750
46.2102 0.2858 -1.1319 0.8312
48.6116 0.6013 -1.1908 0.8232
49.2940 0.9147 -1.2077 0.8210
48.9071 1.2101 -1.1983 0.8222
47.7351 1.4765 -1.1698 0.8261
36.4608 1.8054 -0.8942 0.8641
36.1202 2.2366 -0.8865 0.8652
51.9842 3.5418 -1.2763 0.8118
52.0854 3.8724 -1.2793 0.8114
53.2763 5.2889 -1.3114 0.8072
53.0425 5.9290 -1.3074 0.8077
54.0558 6.7202 -1.3343 0.8042
57.8776 7.5590 -1.4297 0.7917
59.0213 8.4521 -1.4605 0.7878
60.6123 10.9885 -1.5089 0.7816
60.2980 11.3171 -1.5028 0.7823
60.0802 11.6613 -1.4991 0.7828
60.3531 12.1021 -1.5078 0.7817
55.2964 11.8013 -1.3850 0.7975
55.2087 12.1401 -1.3846 0.7976
64.5169 14.6057 -1.6203 0.7675
67.9428 16.7122 -1.7139 0.7558
67.6522 17.0851 -1.7092 0.7564
67.3633 17.4560 -1.7046 0.7570
52.6276 13.9854 -1.3339 0.8042
52.3504 14.2589 -1.3290 0.8049
52.1217 14.5434 -1.3255 0.8053
51.9036 14.8291 -1.3222 0.8057
51.7955 15.1453 -1.3219 0.8058
51.7843 15.4903 -1.3240 0.8055
52.9376 16.1926 -1.3560 0.8013
11.6836 6.5859 -0.3285 0.9478
11.6308 6.6513 -0.3282 0.9478
11.4730 6.8465 -0.3273 0.9479
11.4205 6.9114 -0.3270 0.9480
11.3682 6.9761 -0.3267 0.9480
11.2638 7.1053 -0.3262 0.9481
11.2117 7.1697 -0.3260 0.9481
11.1077 7.2984 -0.3256 0.9482
11.0558 7.3626 -0.3254 0.9482
10.9522 7.4907 -0.3250 0.9483
10.7455 7.7463 -0.3245 0.9484
10.6940 7.8101 -0.3244 0.9484
10.6424 7.8738 -0.3243 0.9484
10.4879 8.0649 -0.3241 0.9484
10.3336 8.2557 -0.3240 0.9485
10.1279 8.5102 -0.3240 0.9484
10.0764 8.5738 -0.3241 0.9484
10.0249 8.6374 -0.3241 0.9484
30.1018 28.2955 -1.0120 0.8476
13.5754 13.9154 -0.4762 0.9252
13.5371 14.0489 -0.4779 0.9249
13.4620 14.1450 -0.4783 0.9248
13.3868 14.2414 -0.4788 0.9248
13.1602 14.5314 -0.4802 0.9246
10.8123 12.2397 -0.4000 0.9367
10.7173 12.2845 -0.3993 0.9369
10.6540 12.3655 -0.3998 0.9368
10.4633 12.6098 -0.4014 0.9365
10.3065 12.7382 -0.4014 0.9365
19.2913 24.4554 -0.7630 0.8828
14.7973 19.7438 -0.6044 0.9060
13.0441 19.0718 -0.5660 0.9117
12.9518 19.1905 -0.5671 0.9115
11.9136 17.8898 -0.5265 0.9176
11.5926 18.1279 -0.5271 0.9175
10.6956 16.9553 -0.4910 0.9229
10.5422 16.9435 -0.4888 0.9233
9.2846 15.1301 -0.4348 0.9314
9.0797 15.0035 -0.4296 0.9322
8.2118 14.7809 -0.4142 0.9346
8.1241 14.8385 -0.4144 0.9346
6.5888 13.1721 -0.3608 0.9428
6.5019 13.2016 -0.3605 0.9428
6.2796 13.1585 -0.3571 0.9433
6.0431 13.0767 -0.3529 0.9440
5.8582 13.0994 -0.3515 0.9442
5.7662 13.1107 -0.3508 0.9443
5.5873 13.1427 -0.3498 0.9445
5.5072 13.1800 -0.3499 0.9444
4.8578 12.4855 -0.3282 0.9478
4.7320 12.3882 -0.3248 0.9483
4.6567 12.4212 -0.3249 0.9483
4.5974 12.4975 -0.3262 0.9481
4.2315 12.9686 -0.3341 0.9469
3.4892 11.6644 -0.2982 0.9525
3.4279 11.7232 -0.2992 0.9523
3.2721 11.7268 -0.2982 0.9525
3.1127 11.7133 -0.2969 0.9527
3.0336 11.7068 -0.2962 0.9528
2.9738 11.7754 -0.2975 0.9526
2.7958 12.0045 -0.3019 0.9519
2.7015 11.9329 -0.2997 0.9522
2.4567 11.8702 -0.2969 0.9527
2.1257 10.6011 -0.2648 0.9577
2.2762 11.7270 -0.2926 0.9533
2.1894 11.6652 -0.2908 0.9536
2.1031 11.6005 -0.2888 0.9539
1.9068 11.3137 -0.2810 0.9551
1.8257 11.2567 -0.2793 0.9554
1.6722 11.1838 -0.2770 0.9558
1.3432 9.3798 -0.2321 0.9628
1.1940 9.1419 -0.2258 0.9638
1.1038 8.8788 -0.2192 0.9648
0.8787 8.8517 -0.2179 0.9650
0.7603 8.7592 -0.2154 0.9654
0.7005 8.6946 -0.2137 0.9657
0.5876 8.6244 -0.2117 0.9660
0.4669 8.3805 -0.2056 0.9670
0.4135 8.3509 -0.2048 0.9671
0.3634 8.3890 -0.2057 0.9670
0.3110 8.3788 -0.2054 0.9670
0.1549 8.3486 -0.2045 0.9671
0.0000 8.3185 -0.2038 0.9673
-0.2603 8.4144 -0.2062 0.9669
-0.4189 8.4599 -0.2075 0.9667
-0.4722 8.4752 -0.2079 0.9666
-0.5231 8.4484 -0.2073 0.9667
-0.5795 8.5060 -0.2088 0.9665
-0.6878 8.5371 -0.2098 0.9663
-0.7971 8.5684 -0.2108 0.9662
-0.9494 8.4939 -0.2094 0.9664
-1.2658 8.8391 -0.2187 0.9649
-1.5484 9.1868 -0.2282 0.9634
-1.6237 9.2832 -0.2308 0.9630
-1.7008 9.3820 -0.2336 0.9626
-1.7798 9.4831 -0.2363 0.9621
-1.4131 7.2805 -0.1817 0.9708
-1.6435 7.0570 -0.1775 0.9714
-2.9179 10.9803 -0.2783 0.9556
-2.9779 10.9334 -0.2776 0.9557
-3.2453 11.3590 -0.2894 0.9538
-3.3670 11.5147 -0.2939 0.9531
-3.4924 11.6753 -0.2985 0.9524
-3.6220 11.8411 -0.3033 0.9517
-4.0369 12.3722 -0.3188 0.9493
-4.1848 12.5616 -0.3243 0.9484
-4.2873 12.6086 -0.3262 0.9481
-4.4441 12.8094 -0.3321 0.9472
-4.6067 13.0175 -0.3382 0.9462
-4.7754 13.2335 -0.3446 0.9453
-4.9506 13.4578 -0.3512 0.9442
-5.1327 13.6908 -0.3581 0.9432
-5.3221 13.9332 -0.3653 0.9421
-5.6232 14.1922 -0.3739 0.9407
-5.7006 14.1318 -0.3733 0.9409
-5.7777 14.0715 -0.3726 0.9410
-5.8546 14.0115 -0.3720 0.9410
-8.2269 18.0951 -0.4869 0.9235
-9.6672 19.9387 -0.5428 0.9152
-10.0805 20.4678 -0.5589 0.9128
-7.7493 15.2555 -0.4191 0.9338
-7.6110 14.7564 -0.4067 0.9357
-7.7068 14.4992 -0.4022 0.9364
-7.9404 14.0865 -0.3961 0.9373
-7.9977 13.9853 -0.3946 0.9376
-8.2469 13.8196 -0.3942 0.9376
-8.5468 13.7365 -0.3963 0.9373
-8.6475 13.7086 -0.3970 0.9372
-9.1228 13.6990 -0.4032 0.9363
-9.5251 13.9266 -0.4133 0.9347
-34.9875 47.9064 -1.4531 0.7887
-35.6154 46.3160 -1.4311 0.7915
-36.4070 45.5703 -1.4287 0.7919
-36.6713 45.3235 -1.4281 0.7919
-37.9847 44.6418 -1.4358 0.7909
-20.7867 21.8414 -0.7386 0.8863
-49.4220 11.1884 -1.2412 0.8165
-48.7483 10.4038 -1.2210 0.8192
-46.3929 7.5244 -1.1512 0.8286
-45.8385 6.8538 -1.1353 0.8307
-44.2627 4.9476 -1.0910 0.8368
-44.0119 4.6441 -1.0840 0.8377
-43.7642 4.3445 -1.0773 0.8386
-43.2784 3.7564 -1.0641 0.8405
-42.8038 3.1823 -1.0514 0.8422
-42.5707 2.9004 -1.0452 0.8431
-42.1127 2.3463 -1.0331 0.8447
-41.8876 2.0740 -1.0273 0.8455
-41.6650 1.8048 -1.0215 0.8463
-41.2273 1.2752 -1.0103 0.8479
-41.0119 1.0146 -1.0049 0.8486
-40.7989 0.7570 -0.9995 0.8494
-40.5881 0.5020 -0.9943 0.8501
-40.3796 0.2496 -0.9891 0.8508
-39.3696 -0.9741 -1.2573 0.8542
-39.1732 -1.2117 -1.2512 0.8548
-38.9787 -1.4470 -1.2453 0.8555
-38.2186 -2.3665 -1.2225 0.8579
-38.0328 -2.5912 -1.2170 0.8585
-37.4853 -3.2536 -1.2012 0.8602
-37.3059 -3.4706 -1.1961 0.8608
-36.9516 -3.8992 -1.1862 0.8618
-36.7766 -4.1108 -1.1814 0.8623
-36.6035 -4.3208 -1.1767 0.8629
-36.0910 -4.9408 -1.1630 0.8643
-35.9228 -5.1443 -1.1585 0.8648
-34.2071 -5.5481 -1.1063 0.8705
-34.9392 -6.3342 -1.1336 0.8675
-34.7793 -6.5276 -1.1297 0.8680
-34.6205 -6.7197 -1.1259 0.8684
-33.6894 -7.8462 -1.1043 0.8707
-33.5376 -8.0298 -1.1010 0.8711
-33.2368 -8.3937 -1.0944 0.8718
-32.9395 -8.7534 -1.0881 0.8725
-32.7921 -8.9317 -1.0850 0.8728
-32.3548 -9.4608 -1.0762 0.8738
-31.5005 -10.4943 -1.0600 0.8756
-31.3606 -10.6635 -1.0575 0.8758
-30.8073 -11.3330 -1.0480 0.8769
-30.5342 -11.6633 -1.0435 0.8774
-30.2635 -11.9908 -1.0392 0.8779
-29.9949 -12.3158 -1.0352 0.8783
-29.5954 -12.7984 -1.0294 0.8789
-29.3317 -13.1174 -1.0258 0.8793
-28.9396 -13.5917 -1.0207 0.8799
-28.6803 -13.9055 -1.0176 0.8802
-27.9113 -14.8358 -1.0091 0.8812
-27.7844 -14.9894 -1.0079 0.8813
-27.5314 -15.2955 -1.0055 0.8816
-27.4053 -15.4481 -1.0044 0.8817
-27.1540 -15.7521 -1.0022 0.8819
-27.0287 -15.9037 -1.0012 0.8821
-26.9037 -16.0549 -1.0002 0.8822
-26.7789 -16.2059 -0.9993 0.8823
-26.5301 -16.5070 -0.9975 0.8825
-26.1585 -16.9569 -0.9952 0.8827
-25.6652 -17.5537 -0.9927 0.8830
-25.4194 -17.8511 -0.9916 0.8831
-25.1742 -18.1478 -0.9908 0.8832
-25.0517 -18.2960 -0.9904 0.8832
-24.9293 -18.4441 -0.9900 0.8833
-24.6847 -18.7400 -0.9894 0.8834
-24.1963 -19.3310 -0.9887 0.8834
-24.0743 -19.4786 -0.9886 0.8834
-23.7083 -19.9215 -0.9886 0.8834
-19.3003 -17.2632 -0.8267 0.9016
-22.9757 -20.8079 -0.9896 0.8833
-22.7312 -21.1039 -0.9902 0.8833
-22.6087 -21.2521 -0.9906 0.8832
-22.3635 -21.5488 -0.9915 0.8831
-22.1179 -21.8461 -0.9925 0.8830
-21.8717 -22.1439 -0.9936 0.8829
-20.9015 -22.2359 -0.9743 0.8850
-20.5277 -22.3866 -0.9697 0.8855
-20.3420 -22.4615 -0.9675 0.8858
-20.1573 -22.5360 -0.9653 0.8860
-19.9733 -22.6102 -0.9631 0.8863
-19.6078 -22.7576 -0.9590 0.8867
-19.4262 -22.8309 -0.9570 0.8869
-18.0072 -21.4303 -0.8936 0.8940
-17.8388 -21.4984 -0.8919 0.8942
-17.5038 -21.6337 -0.8884 0.8946
-17.3373 -21.7010 -0.8868 0.8948
-16.8414 -21.9014 -0.8820 0.8953
-16.5137 -22.0339 -0.8791 0.8957
-16.3506 -22.0998 -0.8777 0.8958
-16.1881 -22.1655 -0.8763 0.8960
-15.8645 -22.2963 -0.8736 0.8963
-15.7034 -22.3613 -0.8723 0.8964
-15.3826 -22.4910 -0.8699 0.8967
-15.2229 -22.5556 -0.8687 0.8968
-15.0636 -22.6199 -0.8676 0.8969
-14.9047 -22.6842 -0.8665 0.8971
-15.1887 -23.7513 -0.9001 0.8933
-15.4243 -24.4517 -0.9230 0.8907
-15.2561 -24.5197 -0.9219 0.8909
-15.0882 -24.5876 -0.9210 0.8910
-14.9975 -24.7822 -0.9248 0.8905
-14.8294 -24.8502 -0.9239 0.8906
-14.6617 -24.9179 -0.9230 0.8907
-14.4942 -24.9856 -0.9222 0.8908
-14.1602 -25.1206 -0.9206 0.8910
-13.7564 -25.1259 -0.9145 0.8917
-13.5912 -25.1926 -0.9139 0.8918
-13.4262 -25.2593 -0.9133 0.8918
-13.1642 -25.5232 -0.9168 0.8914
-12.8338 -25.6568 -0.9159 0.8915
-12.6689 -25.7234 -0.9154 0.8916
-12.5041 -25.7900 -0.9150 0.8916
-12.3395 -25.8566 -0.9147 0.8917
-11.9490 -25.8564 -0.9094 0.8923
-11.7856 -25.9225 -0.9091 0.8923
-10.8729 -24.3131 -0.8503 0.8989
-10.7202 -24.3748 -0.8501 0.8989
-10.5674 -24.4366 -0.8500 0.8989
-10.1520 -24.7250 -0.8533 0.8986
-9.8455 -24.8489 -0.8533 0.8986
-9.5389 -24.9728 -0.8534 0.8985
-9.3856 -25.0348 -0.8536 0.8985
-9.0788 -25.1588 -0.8539 0.8985
-8.4291 -25.3017 -0.8514 0.8988
-8.2758 -25.3636 -0.8518 0.8987
-8.0021 -25.5940 -0.8561 0.8982
-6.6061 -26.1584 -0.8613 0.8977
-5.3506 -22.3477 -0.7336 0.9121
-5.1722 -22.2084 -0.7280 0.9128
-5.0203 -22.1763 -0.7259 0.9130
-4.8546 -22.0774 -0.7217 0.9135
-4.4761 -21.6277 -0.7051 0.9154
-4.3196 -21.5422 -0.7014 0.9158
-3.7801 -20.8511 -0.6765 0.9187
-3.6260 -20.7307 -0.6719 0.9192
-3.4740 -20.6120 -0.6673 0.9198
-3.3371 -20.5751 -0.6655 0.9200
-2.9105 -21.2599 -0.6851 0.9177
-2.7958 -21.4068 -0.6892 0.9172
-2.4433 -21.8583 -0.7022 0.9157
-2.2007 -22.1689 -0.7112 0.9147
-1.9518 -22.4877 -0.7206 0.9136
-1.6962 -22.8150 -0.7304 0.9125
-1.5658 -22.9821 -0.7354 0.9119
-1.1634 -23.4974 -0.7511 0.9101
-1.0255 -23.6741 -0.7565 0.9095
-0.8855 -23.8534 -0.7621 0.9089
-0.7434 -24.0354 -0.7677 0.9082
-0.4528 -24.4075 -0.7794 0.9069
-0.1525 -24.6684 -0.7876 0.9060
0.0000 -24.8490 -0.7933 0.9053
0.1549 -25.0474 -0.7997 0.9046
0.3143 -25.4047 -0.8111 0.9033
0.4752 -25.6109 -0.8178 0.9026
2.6406 -28.3842 -0.9101 0.8922
2.1116 -21.2706 -0.6824 0.9180
3.9201 -30.0150 -0.9664 0.8859
4.3833 -30.6082 -0.9871 0.8836
4.8668 -31.2275 -1.0090 0.8812
5.3724 -31.8750 -1.0320 0.8787
5.6339 -32.2100 -1.0439 0.8773
6.1756 -32.9038 -1.0688 0.8746
6.4167 -33.0595 -1.0752 0.8739
7.3365 -34.3761 -1.1222 0.8688
7.9643 -35.1801 -1.1516 0.8656
8.2907 -35.5982 -1.1669 0.8639
8.6259 -36.0275 -1.1827 0.8622
8.9704 -36.4687 -1.1990 0.8605
9.3244 -36.9222 -1.2158 0.8586
8.5649 -29.9779 -0.9953 0.8827
8.7284 -29.8501 -0.9929 0.8830
9.2671 -29.6397 -0.9914 0.8831
9.5891 -29.3882 -0.9869 0.8836
9.7489 -29.2633 -0.9847 0.8839
9.9081 -29.1390 -0.9826 0.8841
10.0666 -29.0152 -0.9805 0.8843
10.6941 -28.5250 -0.9726 0.8852
10.8495 -28.4036 -0.9707 0.8854
11.1583 -28.1623 -0.9671 0.8858
11.6175 -27.8036 -0.9620 0.8864
12.2226 -27.3310 -0.9558 0.8871
12.3021 -27.0584 -0.9489 0.8878
12.4509 -26.9422 -0.9475 0.8880
12.7758 -26.7708 -0.9470 0.8881
12.9062 -26.6192 -0.9444 0.8883
13.0418 -26.4806 -0.9424 0.8886
13.1886 -26.3659 -0.9412 0.8887
13.5584 -26.2875 -0.9443 0.8884
13.8512 -26.0588 -0.9422 0.8886
13.9970 -25.9449 -0.9412 0.8887
14.1426 -25.8311 -0.9402 0.8888
14.2879 -25.7177 -0.9392 0.8889
14.5777 -25.4913 -0.9375 0.8891
14.8664 -25.2658 -0.9359 0.8893
15.2977 -24.9289 -0.9338 0.8895
15.5842 -24.7051 -0.9325 0.8897
15.7272 -24.5934 -0.9320 0.8897
15.8700 -24.4818 -0.9314 0.8898
16.0127 -24.3704 -0.9310 0.8899
16.1552 -24.2591 -0.9305 0.8899
16.4399 -24.0367 -0.9297 0.8900
16.5820 -23.9257 -0.9294 0.8900
16.7241 -23.8147 -0.9290 0.8901
16.8661 -23.7038 -0.9288 0.8901
16.9109 -23.4584 -0.9232 0.8907
17.3896 -23.2026 -0.9257 0.8904
30.7566 -39.9972 -1.6108 0.8172
17.9365 -22.4509 -0.9174 0.8914
18.0766 -22.3415 -0.9175 0.8914
18.2167 -22.2321 -0.9176 0.8913
18.3568 -22.1227 -0.9178 0.8913
18.4970 -22.0132 -0.9179 0.8913
18.9180 -21.6843 -0.9187 0.8912
19.0585 -21.5746 -0.9190 0.8912
33.7184 -37.6974 -1.6147 0.8168
33.9658 -37.5046 -1.6154 0.8167
34.7096 -36.9253 -1.6179 0.8164
34.8985 -36.6691 -1.6161 0.8166
35.3972 -36.2838 -1.6183 0.8164
35.7034 -36.1477 -1.6220 0.8160
35.9531 -35.9530 -1.6233 0.8159
36.2032 -35.7581 -1.6245 0.8158
36.4537 -35.5629 -1.6259 0.8156
36.7047 -35.3673 -1.6273 0.8155
21.3321 -19.3192 -0.9188 0.8912
21.9040 -19.1096 -0.9280 0.8902
22.6224 -19.0089 -0.9433 0.8885
22.8672 -18.9746 -0.9486 0.8879
25.1236 -20.5858 -1.0369 0.8781
24.5758 -19.8843 -1.0093 0.8812
23.7911 -18.7673 -0.9674 0.8858
23.3018 -18.1487 -0.9429 0.8885
23.0801 -17.7478 -0.9295 0.8900
24.4400 -18.5541 -0.9796 0.8844
23.3944 -17.5333 -0.9334 0.8896
25.5361 -17.6981 -0.9919 0.8831
25.6950 -17.5740 -0.9938 0.8829
24.5925 -16.5976 -0.9472 0.8880
26.3371 -17.0726 -1.0020 0.8820
26.6622 -16.8187 -1.0064 0.8815
27.2913 -16.2862 -1.0146 0.8806
27.6673 -16.0498 -1.0212 0.8798
28.1632 -15.6465 -1.0286 0.8790
24.2413 -13.2721 -0.8823 0.8953
24.4026 -13.1649 -0.8852 0.8950
28.3336 -14.8362 -1.0211 0.8799
27.6180 -13.8149 -0.9859 0.8837
28.3844 -13.9795 -1.0101 0.8811
29.9289 -14.2829 -1.0587 0.8757
30.2922 -13.9989 -1.0654 0.8750
30.4301 -13.8350 -1.0672 0.8748
30.6481 -13.7060 -1.0718 0.8743
31.3989 -13.1197 -1.0864 0.8727
31.5898 -12.9706 -1.0902 0.8723
31.7821 -12.8205 -1.0941 0.8718
30.2024 -11.7510 -1.0346 0.8784
31.1654 -11.4646 -1.0602 0.8756
32.9659 -11.8961 -1.1189 0.8691
33.1685 -11.7379 -1.1233 0.8687
33.7861 -11.2556 -1.1369 0.8672
58.5404 -18.3030 -1.9582 0.7823
41.9919 -11.4375 -1.3894 0.8401
41.7175 -11.0861 -1.3781 0.8413
36.1390 -9.1266 -1.1900 0.8614
35.9097 -8.8329 -1.1806 0.8624
35.7305 -8.5548 -1.1729 0.8633
36.1931 -8.1936 -1.1847 0.8620
36.4279 -8.0103 -1.1908 0.8613
36.6651 -7.8250 -1.1969 0.8607
38.9670 -7.5633 -1.2673 0.8531
37.9296 -6.1518 -1.2268 0.8575
40.1810 -6.2621 -1.2983 0.8498
40.4543 -6.0487 -1.3059 0.8490
41.0107 -5.6143 -1.3215 0.8473
41.2939 -5.3932 -1.3295 0.8465
41.5806 -5.1693 -1.3377 0.8456
31.5171 -3.7204 -1.0132 0.8807
31.3319 -3.5022 -1.0065 0.8815
31.1591 -3.2879 -1.0003 0.8822
30.8641 -2.8713 -0.9896 0.8833
30.7292 -2.6672 -0.9847 0.8839
30.9530 -2.3013 -0.9909 0.8832
31.1584 -2.1229 -0.9971 0.8825
31.5699 -1.7589 -1.0094 0.8811
32.2674 -1.1978 -1.0309 0.8788
32.7527 -0.8104 -1.0460 0.8771
33.0027 -0.6123 -1.0538 0.8763
33.2547 -0.4113 -1.0618 0.8754
46.5531 0.5758 -1.4863 0.8300
46.9309 0.8708 -1.4986 0.8287
47.3150 1.1707 -1.5110 0.8274
47.7055 1.4756 -1.5237 0.8261
36.3498 1.5746 -1.1616 0.8645
36.0926 2.0109 -1.1541 0.8653
35.9247 2.2245 -1.1491 0.8658
35.8892 2.4452 -1.1484 0.8659
36.6438 2.7244 -1.1731 0.8632
37.8086 3.2816 -1.2116 0.8591
53.0336 5.5962 -1.7025 0.8078
53.0479 5.9296 -1.7041 0.8077
54.0613 6.7209 -1.7392 0.8041
54.3941 7.1041 -1.7513 0.8029
56.0680 8.0292 -1.8083 0.7972
57.7890 9.3729 -1.8690 0.7911
57.8493 9.7502 -1.8729 0.7907
57.6968 10.0918 -1.8700 0.7910
59.3968 11.1480 -1.9294 0.7852
60.0452 11.6545 -1.9527 0.7829
61.3898 12.7054 -2.0014 0.7781
55.1960 11.7799 -1.8018 0.7978
65.2469 15.1958 -2.1388 0.7648
51.6216 13.0366 -1.6998 0.8081
50.6890 14.1437 -1.6801 0.8101
50.7708 14.5055 -1.6857 0.8095
53.5338 17.1018 -1.7942 0.7986
11.7864 6.4531 -0.4290 0.9476
11.7333 6.5187 -0.4285 0.9477
11.4696 6.8445 -0.4264 0.9479
11.3648 6.9740 -0.4257 0.9480
11.1041 7.2960 -0.4242 0.9482
11.0003 7.4242 -0.4237 0.9483
10.8968 7.5521 -0.4233 0.9483
10.8451 7.6160 -0.4231 0.9483
10.7934 7.6798 -0.4229 0.9484
10.7418 7.7436 -0.4228 0.9484
10.6902 7.8073 -0.4226 0.9484
10.5356 7.9983 -0.4223 0.9484
10.4326 8.1255 -0.4222 0.9485
10.3812 8.1891 -0.4221 0.9485
10.2783 8.3162 -0.4221 0.9485
10.1754 8.4433 -0.4221 0.9485
10.1239 8.5069 -0.4222 0.9485
10.0725 8.5704 -0.4222 0.9484
10.0210 8.6340 -0.4223 0.9484
30.0990 28.2929 -1.3188 0.8476
13.5749 13.9149 -0.6206 0.9252
13.4615 14.1445 -0.6234 0.9248
13.3862 14.2408 -0.6240 0.9248
13.3109 14.3373 -0.6246 0.9247
10.6536 12.3650 -0.5211 0.9368
10.5902 12.4462 -0.5217 0.9367
10.4628 12.6092 -0.5231 0.9365
10.3864 12.6758 -0.5232 0.9365
10.2420 12.8197 -0.5239 0.9364
19.1767 24.6217 -0.9963 0.8826
15.5914 20.2758 -0.8166 0.9027
14.9815 19.7340 -0.7910 0.9056
14.5743 19.6989 -0.7823 0.9066
14.2784 19.8067 -0.7795 0.9069
13.2952 18.6854 -0.7321 0.9123
13.2040 18.8022 -0.7335 0.9122
13.0435 19.0709 -0.7376 0.9117
11.7423 17.8711 -0.6827 0.9180
9.4097 15.3339 -0.5744 0.9305
8.6614 14.9308 -0.5511 0.9333
8.5231 14.9039 -0.5481 0.9336
8.3862 14.8774 -0.5452 0.9339
7.2869 13.7091 -0.4957 0.9398
6.8751 13.3296 -0.4788 0.9417
6.7303 13.2494 -0.4744 0.9423
6.5013 13.2005 -0.4698 0.9428
6.2791 13.1574 -0.4654 0.9433
5.7454 13.0636 -0.4556 0.9445
5.6541 13.0748 -0.4548 0.9446
5.4083 13.1718 -0.4546 0.9446
5.3284 13.2091 -0.4547 0.9446
5.2484 13.2464 -0.4549 0.9446
4.5529 12.6166 -0.4282 0.9477
4.4924 12.6944 -0.4299 0.9475
4.4315 12.7729 -0.4316 0.9473
4.3700 12.8519 -0.4334 0.9471
3.6573 11.4484 -0.3837 0.9530
3.5952 11.4987 -0.3846 0.9529
3.4928 11.4187 -0.3812 0.9533
3.3925 11.3413 -0.3779 0.9537
3.3146 11.3357 -0.3771 0.9538
3.1591 11.5986 -0.3838 0.9530
3.1018 11.6723 -0.3856 0.9528
3.0440 11.7468 -0.3874 0.9526
2.9856 11.8220 -0.3893 0.9524
2.9266 11.8979 -0.3912 0.9521
2.8670 11.9745 -0.3931 0.9519
2.7013 11.9322 -0.3905 0.9522
2.2859 10.3953 -0.3398 0.9583
2.1455 10.3668 -0.3380 0.9585
2.0923 10.4345 -0.3398 0.9583
2.0386 10.5030 -0.3416 0.9581
1.9842 10.5722 -0.3434 0.9579
1.8738 10.7128 -0.3472 0.9574
1.7034 10.9298 -0.3531 0.9567
1.6453 11.0037 -0.3552 0.9564
1.3431 9.3792 -0.3025 0.9628
1.2753 9.3155 -0.3002 0.9631
1.1939 9.1410 -0.2943 0.9638
1.1037 8.8781 -0.2856 0.9648
0.9772 8.7425 -0.2808 0.9654
0.8549 8.6114 -0.2763 0.9660
0.6298 8.4702 -0.2712 0.9666
0.5208 8.4098 -0.2690 0.9668
0.3634 8.3885 -0.2681 0.9670
0.3110 8.3783 -0.2677 0.9670
0.2068 8.3580 -0.2669 0.9671
0.0515 8.3279 -0.2659 0.9672
0.0000 8.3179 -0.2656 0.9673
-0.1021 8.2539 -0.2635 0.9675
-0.2045 8.2665 -0.2640 0.9674
-0.3073 8.2791 -0.2645 0.9674
-0.3589 8.2854 -0.2648 0.9674
-0.4623 8.2981 -0.2653 0.9673
-0.5665 8.3148 -0.2661 0.9672
-0.7282 8.3902 -0.2689 0.9669
-0.7829 8.4157 -0.2698 0.9667
-0.8380 8.4414 -0.2708 0.9666
-0.8935 8.4673 -0.2718 0.9665
-1.0158 8.6054 -0.2766 0.9659
-1.1389 8.7202 -0.2808 0.9654
-1.4746 9.0917 -0.2941 0.9638
-1.6236 9.2824 -0.3008 0.9630
-1.7007 9.3812 -0.3044 0.9626
-1.7797 9.4822 -0.3080 0.9621
-1.4651 7.0794 -0.2308 0.9715
-1.5551 7.0723 -0.2312 0.9714
-1.6932 7.0719 -0.2322 0.9713
-1.7557 7.1379 -0.2347 0.9710
-2.6570 10.5211 -0.3464 0.9575
-2.8675 10.7904 -0.3564 0.9563
-2.9773 10.9311 -0.3617 0.9557
-3.3666 11.5134 -0.3830 0.9531
-3.4765 11.6219 -0.3873 0.9526
-3.5460 11.5928 -0.3870 0.9526
-3.6705 11.7397 -0.3927 0.9520
-4.2395 12.4680 -0.4204 0.9487
-4.8954 13.3075 -0.4527 0.9448
-5.3843 14.0960 -0.4817 0.9414
-5.5452 14.2521 -0.4882 0.9406
-5.6229 14.1915 -0.4873 0.9407
-5.7774 14.0708 -0.4856 0.9409
-5.8543 14.0107 -0.4848 0.9410
-6.0415 14.2111 -0.4930 0.9401
-6.5188 14.8221 -0.5169 0.9373
-7.9106 17.6890 -0.6186 0.9254
-8.2255 18.0920 -0.6345 0.9235
-9.2752 19.4356 -0.6875 0.9174
-9.6653 19.9349 -0.7073 0.9152
-10.0785 20.4638 -0.7283 0.9128
-10.9831 21.6216 -0.7742 0.9075
-13.0972 23.5744 -0.8610 0.8977
-15.5535 26.8116 -0.9896 0.8833
-30.9408 50.4208 -1.8886 0.7892
-31.8240 49.7649 -1.8858 0.7895
-32.1156 49.5430 -1.8849 0.7896
-32.4070 49.3217 -1.8841 0.7896
-32.9428 48.8107 -1.8800 0.7900
-33.2768 48.6540 -1.8818 0.7899
-34.0631 47.8729 -1.8758 0.7905
-34.7558 47.5892 -1.8814 0.7899
-8.4634 11.2926 -0.4505 0.9451
-35.2823 46.4747 -1.8628 0.7917
-35.8225 45.9938 -1.8612 0.7919
-36.0892 45.7498 -1.8603 0.7920
-36.3531 45.5027 -1.8594 0.7921
-37.1820 45.3779 -1.8729 0.7907
-37.1499 44.7710 -1.8573 0.7923
-37.8803 44.5191 -1.8662 0.7914
-20.7850 21.8396 -0.9625 0.8863
-67.6316 17.5254 -2.2305 0.7561
-48.4765 12.2424 -1.5959 0.8187
-49.0157 11.7356 -1.6091 0.8173
-49.1012 10.7970 -1.6050 0.8177
-46.9895 9.1204 -1.5281 0.8257
-46.9149 8.5052 -1.5222 0.8263
-46.9662 8.2148 -1.5222 0.8263
-46.3958 7.5249 -1.5006 0.8285
-46.1167 7.1872 -1.4901 0.8296
-45.8414 6.8542 -1.4798 0.8307
-45.0377 5.8821 -1.4501 0.8338
-44.7769 5.5666 -1.4405 0.8348
-44.5194 5.2552 -1.4312 0.8358
-44.2654 4.9479 -1.4220 0.8367
-43.7668 4.3448 -1.4041 0.8386
-43.5225 4.0489 -1.3955 0.8395
-43.2809 3.7566 -1.3870 0.8404
-42.8062 3.1825 -1.3704 0.8422
-42.5732 2.9005 -1.3623 0.8430
-42.3428 2.6219 -1.3544 0.8438
-41.6674 1.8049 -1.3315 0.8463
-41.2295 1.2752 -1.3169 0.8478
-40.5903 0.5020 -1.2960 0.8501
-40.3817 0.2496 -1.2892 0.8508
-39.3717 -0.9742 -1.5501 0.8541
-38.7880 -1.6802 -1.5281 0.8561
-38.5971 -1.9111 -1.5210 0.8567
-38.0348 -2.5914 -1.5005 0.8585
-37.6681 -3.0349 -1.4874 0.8596
-37.4872 -3.2538 -1.4810 0.8602
-36.9534 -3.8994 -1.4625 0.8618
-36.6053 -4.3211 -1.4508 0.8628
-36.4331 -4.5293 -1.4450 0.8633
-36.2622 -4.7360 -1.4394 0.8638
-35.7575 -5.3465 -1.4230 0.8653
-35.5918 -5.5470 -1.4178 0.8657
-34.1289 -5.5354 -1.3608 0.8707
-34.0939 -5.7463 -1.3608 0.8707
-34.4644 -6.9108 -1.3835 0.8687
-34.3077 -7.1004 -1.3789 0.8691
-34.1520 -7.2887 -1.3745 0.8695
-33.9973 -7.4758 -1.3701 0.8699
-33.6909 -7.8465 -1.3615 0.8707
-33.5391 -8.0302 -1.3574 0.8711
-33.3882 -8.2127 -1.3533 0.8714
-32.7936 -8.9321 -1.3378 0.8728
-32.6470 -9.1095 -1.3340 0.8731
-32.0686 -9.8092 -1.3199 0.8744
-31.9259 -9.9819 -1.3166 0.8747
-31.7839 -10.1537 -1.3133 0.8750
-31.3620 -10.6640 -1.3038 0.8758
-31.2227 -10.8325 -1.3008 0.8761
-31.0840 -11.0003 -1.2978 0.8763
-30.5356 -11.6638 -1.2866 0.8773
-30.3999 -11.8279 -1.2839 0.8776
-30.2648 -11.9913 -1.2813 0.8778
-30.1302 -12.1541 -1.2788 0.8780
-29.9962 -12.3163 -1.2763 0.8783
-29.7292 -12.6386 -1.2715 0.8787
-29.4646 -12.9587 -1.2669 0.8791
-29.3330 -13.1179 -1.2647 0.8793
-29.0711 -13.4347 -1.2605 0.8797
-28.8110 -13.7494 -1.2565 0.8800
-28.5524 -14.0622 -1.2527 0.8804
-28.2954 -14.3732 -1.2491 0.8807
-28.1674 -14.5280 -1.2474 0.8808
-28.0398 -14.6824 -1.2458 0.8810
-27.9125 -14.8364 -1.2442 0.8811
-27.6589 -15.1433 -1.2411 0.8814
-27.5325 -15.2962 -1.2397 0.8815
-27.4064 -15.4487 -1.2383 0.8817
-27.2806 -15.6009 -1.2369 0.8818
-27.0298 -15.9043 -1.2344 0.8820
-26.7800 -16.2065 -1.2320 0.8822
-26.5312 -16.5077 -1.2299 0.8824
-26.1596 -16.9576 -1.2270 0.8827
-26.0360 -17.1071 -1.2262 0.8828
-25.6663 -17.5545 -1.2239 0.8830
-25.5433 -17.7032 -1.2232 0.8830
-25.1752 -18.1486 -1.2215 0.8832
-25.0527 -18.2968 -1.2210 0.8832
-24.9303 -18.4449 -1.2206 0.8833
-24.8080 -18.5929 -1.2202 0.8833
-24.6858 -18.7408 -1.2199 0.8833
-24.4415 -19.0364 -1.2194 0.8834
-24.3194 -19.1841 -1.2192 0.8834
-24.1973 -19.3318 -1.2190 0.8834
-24.0753 -19.4794 -1.2189 0.8834
-23.8313 -19.7746 -1.2188 0.8834
-23.7093 -19.9223 -1.2189 0.8834
-23.5872 -20.0699 -1.2190 0.8834
-23.4652 -20.2176 -1.2191 0.8834
-23.3431 -20.3653 -1.2193 0.8834
-22.7321 -21.1048 -1.2209 0.8832
-22.4871 -21.4012 -1.2218 0.8831
-22.3645 -21.5497 -1.2224 0.8831
-22.1188 -21.8470 -1.2236 0.8830
-21.8726 -22.1449 -1.2251 0.8829
-21.6258 -22.4435 -1.2267 0.8827
-20.5290 -22.3881 -1.1956 0.8855
-19.9746 -22.6116 -1.1875 0.8862
-19.7914 -22.6855 -1.1849 0.8865
-17.8399 -21.4997 -1.0996 0.8942
-17.6721 -21.5676 -1.0975 0.8944
-17.5050 -21.6351 -1.0954 0.8946
-17.3384 -21.7024 -1.0933 0.8948
-17.1725 -21.7695 -1.0913 0.8949
-17.0072 -21.8363 -1.0894 0.8951
-16.8425 -21.9028 -1.0875 0.8953
-16.6783 -21.9692 -1.0856 0.8955
-16.0270 -22.2324 -1.0787 0.8961
-15.8655 -22.2977 -1.0771 0.8962
-15.7044 -22.3628 -1.0755 0.8964
-15.5438 -22.4277 -1.0740 0.8965
-15.3836 -22.4924 -1.0725 0.8967
-15.2238 -22.5570 -1.0711 0.8968
-15.1865 -23.7480 -1.1095 0.8933
-15.2570 -24.5212 -1.1367 0.8908
-15.0891 -24.5891 -1.1355 0.8909
-14.9984 -24.7838 -1.1402 0.8905
-14.4951 -24.9872 -1.1370 0.8908
-14.3279 -25.0548 -1.1360 0.8909
-14.1611 -25.1222 -1.1351 0.8910
-13.9945 -25.1895 -1.1342 0.8911
-13.7573 -25.1274 -1.1275 0.8917
-13.5920 -25.1942 -1.1267 0.8917
-12.9997 -25.5916 -1.1298 0.8915
-12.6697 -25.7250 -1.1287 0.8916
-12.5049 -25.7916 -1.1282 0.8916
-12.1133 -25.7919 -1.1215 0.8922
-11.7863 -25.9241 -1.1209 0.8923
-10.7208 -24.3763 -1.0481 0.8989
-10.5681 -24.4380 -1.0480 0.8989
-10.4154 -24.4998 -1.0478 0.8989
-9.9993 -24.7885 -1.0520 0.8985
-9.8461 -24.8504 -1.0521 0.8985
-9.6928 -24.9124 -1.0521 0.8985
-9.5395 -24.9743 -1.0522 0.8985
-9.3862 -25.0363 -1.0524 0.8985
-9.0793 -25.1604 -1.0528 0.8985
-8.9258 -25.2224 -1.0531 0.8984
-8.7722 -25.2845 -1.0534 0.8984
-8.5827 -25.2413 -1.0493 0.8988
-8.2763 -25.3652 -1.0502 0.8987
-8.0026 -25.5956 -1.0555 0.8982
-7.6937 -25.7205 -1.0567 0.8981
-7.3842 -25.8456 -1.0580 0.8980
-7.2291 -25.9083 -1.0587 0.8979
-6.9183 -26.0340 -1.0602 0.8978
-6.7625 -26.0970 -1.0611 0.8977
-6.6065 -26.1600 -1.0620 0.8976
-5.5322 -22.4912 -0.9116 0.9115
-5.3510 -22.3496 -0.9045 0.9121
-5.1726 -22.2102 -0.8976 0.9128
-5.0208 -22.1781 -0.8950 0.9130
-4.6835 -21.9452 -0.8832 0.9141
-4.4764 -21.6294 -0.8694 0.9154
-3.9879 -21.2477 -0.8509 0.9171
-3.6263 -20.7324 -0.8284 0.9192
-3.3372 -20.5762 -0.8204 0.9199
-3.2285 -20.7155 -0.8252 0.9195
-2.7960 -21.4080 -0.8498 0.9172
-2.6799 -21.5566 -0.8550 0.9167
-2.5624 -21.7071 -0.8603 0.9162
-2.4434 -21.8596 -0.8657 0.9157
-2.3229 -22.0138 -0.8713 0.9152
-2.2008 -22.1702 -0.8769 0.9147
-2.0772 -22.3285 -0.8826 0.9141
-1.9519 -22.4890 -0.8885 0.9136
-1.6963 -22.8164 -0.9005 0.9125
-1.4336 -23.1528 -0.9130 0.9113
-1.1635 -23.4988 -0.9260 0.9101
-1.0255 -23.6755 -0.9327 0.9095
-0.5993 -24.2215 -0.9536 0.9076
-0.4529 -24.4090 -0.9609 0.9069
0.1549 -25.0490 -0.9859 0.9046
0.3143 -25.4064 -1.0001 0.9033
0.4753 -25.6126 -1.0083 0.9025
0.9746 -26.2521 -1.0340 0.9002
1.6817 -27.1578 -1.0710 0.8968
2.0546 -27.6355 -1.0907 0.8950
2.2464 -27.8811 -1.1009 0.8941
2.4417 -28.1313 -1.1114 0.8931
2.2433 -21.2589 -0.8414 0.9180
