ply
format ascii 1.0
element vertex 1539
property float32 x
property float32 y
property float32 z
property float32 I
end_header
1.0260 2.7890 -0.2944 0.9881
1.0175 2.8753 -0.3021 0.9878
1.0086 2.9663 -0.3104 0.9875
1.0040 3.0137 -0.3147 0.9873
0.9992 3.0624 -0.3191 0.9871
0.9943 3.1125 -0.3237 0.9870
0.9841 3.2171 -0.3333 0.9866
0.9787 3.2718 -0.3383 0.9864
0.9733 3.3286 -0.3435 0.9862
0.9679 3.3876 -0.3490 0.9859
0.9622 3.4486 -0.3547 0.9857
0.9564 3.5115 -0.3605 0.9855
0.9504 3.5766 -0.3666 0.9852
0.9442 3.6438 -0.3729 0.9850
0.9378 3.7135 -0.3794 0.9847
0.9312 3.7856 -0.3862 0.9845
0.9171 3.9379 -0.4005 0.9839
0.9097 4.0183 -0.4081 0.9836
0.8856 4.2791 -0.4329 0.9826
0.8769 4.3733 -0.4418 0.9822
0.8679 4.4714 -0.4512 0.9819
0.8486 4.6807 -0.4712 0.9811
0.8383 4.7925 -0.4819 0.9806
1.8161 10.7750 -1.0824 0.9570
1.7401 10.7289 -1.0767 0.9573
1.6650 10.6833 -1.0710 0.9575
1.2386 10.4922 -1.0466 0.9584
1.1710 10.4763 -1.0442 0.9585
1.0369 10.4447 -1.0397 0.9587
0.9635 10.3569 -1.0304 0.9591
0.8410 10.4383 -1.0374 0.9588
0.6474 10.4544 -1.0376 0.9588
0.4542 10.4858 -1.0397 0.9587
0.3902 10.5125 -1.0421 0.9586
0.2614 10.5665 -1.0470 0.9584
0.1966 10.5937 -1.0496 0.9583
0.1314 10.6209 -1.0522 0.9582
-0.0000 10.7064 -1.0606 0.9579
-0.0666 10.7638 -1.0663 0.9577
-0.2019 10.8802 -1.0780 0.9572
-0.2707 10.9394 -1.0840 0.9570
-0.4145 11.1646 -1.1067 0.9561
-0.4889 11.2872 -1.1191 0.9556
-0.5607 11.3234 -1.1230 0.9555
-0.7297 11.7835 -1.1695 0.9537
-0.8025 11.7779 -1.1694 0.9537
-0.8752 11.7723 -1.1694 0.9537
-1.0936 11.7555 -1.1695 0.9537
-1.2393 11.7446 -1.1699 0.9536
-1.3122 11.7392 -1.1701 0.9536
-1.1890 10.0724 -1.0047 0.9601
-1.2516 10.0676 -1.0050 0.9600
-1.3769 10.0579 -1.0056 0.9600
-1.6738 11.1944 -1.1212 0.9555
-1.8114 11.1686 -1.1208 0.9555
-1.8801 11.1550 -1.1206 0.9555
-2.2218 11.0802 -1.1194 0.9556
-2.3577 11.0471 -1.1189 0.9556
-2.4930 11.0123 -1.1185 0.9556
-2.5605 10.9942 -1.1182 0.9556
-2.6279 10.9757 -1.1180 0.9556
-2.7626 10.9390 -1.1176 0.9557
-2.7627 10.6615 -1.0910 0.9567
-2.7722 9.9352 -1.0218 0.9594
-2.9014 9.9224 -1.0240 0.9593
-3.0313 9.9101 -1.0266 0.9592
-3.1620 9.8978 -1.0293 0.9591
-3.5496 10.8788 -1.1336 0.9550
-3.6223 10.8731 -1.1353 0.9550
-3.7684 10.8616 -1.1388 0.9548
-3.9892 10.8442 -1.1446 0.9546
-4.1377 10.8325 -1.1487 0.9545
-4.2873 10.8206 -1.1529 0.9543
-4.4846 10.5489 -1.1355 0.9550
-4.4681 10.3323 -1.1151 0.9558
-4.4523 10.1233 -1.0955 0.9565
-4.5090 9.7571 -1.0647 0.9577
-4.5071 9.5966 -1.0502 0.9583
-4.6487 9.7411 -1.0692 0.9575
-5.4894 11.1458 -1.2307 0.9513
-5.4675 10.9303 -1.2106 0.9521
-5.5058 10.8388 -1.2043 0.9523
-5.5437 10.7484 -1.1980 0.9526
-5.6184 10.5702 -1.1858 0.9530
-5.6617 10.4945 -1.1812 0.9532
-5.8152 10.3163 -1.1731 0.9535
-5.9164 10.1988 -1.1680 0.9537
-5.9957 10.1899 -1.1712 0.9536
-6.1832 10.0761 -1.1711 0.9536
-6.2457 10.0381 -1.1711 0.9536
-6.3082 10.0002 -1.1712 0.9536
-6.3707 9.9622 -1.1714 0.9536
-6.4127 9.8926 -1.1678 0.9537
-6.4883 9.8748 -1.1704 0.9536
-6.5641 9.8568 -1.1731 0.9535
-6.7169 9.8208 -1.1786 0.9533
-6.7938 9.8026 -1.1814 0.9532
-7.0727 9.8111 -1.1981 0.9525
-7.1713 9.8192 -1.2045 0.9523
-7.4513 9.9421 -1.2307 0.9513
-7.5926 10.0012 -1.2438 0.9508
-7.7370 10.0616 -1.2573 0.9503
-14.9855 18.7571 -2.3782 0.9080
-15.2067 18.5586 -2.3767 0.9081
-16.1696 17.6338 -2.3700 0.9083
-16.2733 17.5281 -2.3692 0.9083
-9.3945 9.9943 -1.3587 0.9464
-9.4532 9.9329 -1.3583 0.9464
-9.5055 9.8649 -1.3570 0.9464
-9.5693 9.8090 -1.3575 0.9464
-17.0770 16.6596 -2.3632 0.9086
-17.1741 16.5484 -2.3625 0.9086
-17.2705 16.4364 -2.3617 0.9086
-18.6447 17.3099 -2.5202 0.9028
-18.7452 17.1886 -2.5193 0.9028
-18.8448 17.0666 -2.5185 0.9029
-18.9436 16.9441 -2.5176 0.9029
-19.0416 16.8209 -2.5168 0.9029
-19.5191 16.1964 -2.5125 0.9031
-19.6121 16.0698 -2.5116 0.9031
-19.7955 15.8149 -2.5098 0.9032
-19.9754 15.5579 -2.5081 0.9032
-20.0641 15.4286 -2.5072 0.9033
-20.2390 15.1684 -2.5054 0.9033
-20.3250 15.0375 -2.5045 0.9034
-20.4946 14.7743 -2.5027 0.9034
-20.5780 14.6419 -2.5018 0.9035
-20.6607 14.5090 -2.5008 0.9035
-20.7423 14.3756 -2.4999 0.9035
-20.8231 14.2419 -2.4990 0.9036
-20.9031 14.1076 -2.4981 0.9036
-20.9822 13.9728 -2.4971 0.9036
-21.4375 13.1551 -2.4915 0.9038
-21.5103 13.0173 -2.4905 0.9039
-21.5820 12.8791 -2.4896 0.9039
-21.7229 12.6015 -2.4877 0.9040
-21.7920 12.4621 -2.4867 0.9040
-21.8601 12.3223 -2.4858 0.9041
-21.9275 12.1821 -2.4848 0.9041
-22.0593 11.9007 -2.4828 0.9042
-22.2499 11.4758 -2.4799 0.9043
-22.3723 11.1909 -2.4779 0.9043
-22.4912 10.9046 -2.4760 0.9044
-22.5491 10.7610 -2.4750 0.9044
-22.6061 10.6171 -2.4740 0.9045
-22.6623 10.4729 -2.4730 0.9045
-22.7174 10.3284 -2.4720 0.9046
-22.7716 10.1835 -2.4710 0.9046
-22.8249 10.0385 -2.4700 0.9046
-22.8773 9.8931 -2.4690 0.9047
-22.9287 9.7475 -2.4680 0.9047
-23.1249 9.1624 -2.4640 0.9049
-23.2173 8.8684 -2.4619 0.9049
-23.3059 8.5734 -2.4599 0.9050
-23.3488 8.4256 -2.4589 0.9050
-23.3907 8.2776 -2.4578 0.9051
-23.5109 7.8325 -2.4548 0.9052
-23.5490 7.6837 -2.4537 0.9052
-23.6577 7.2364 -2.4507 0.9053
-23.7254 6.9374 -2.4486 0.9054
-23.7893 6.6378 -2.4465 0.9055
-23.9323 5.8866 -2.4413 0.9057
-24.0067 5.4347 -2.4382 0.9058
-24.0725 4.9820 -2.4351 0.9059
-24.0925 4.8310 -2.4341 0.9060
-24.1469 4.3776 -2.4309 0.9061
-24.1784 4.0751 -2.4288 0.9061
-24.2301 3.4698 -2.4247 0.9063
-24.2502 3.1672 -2.4226 0.9064
-24.2589 3.0158 -2.4215 0.9064
-24.2665 2.8645 -2.4205 0.9065
-24.2733 2.7132 -2.4194 0.9065
-24.2840 2.4107 -2.4173 0.9066
-24.2931 1.9572 -2.4142 0.9067
-24.2937 1.5043 -2.4111 0.9068
-24.2895 1.2026 -2.4090 0.9069
-24.2698 0.6004 -2.4049 0.9070
-24.2626 0.4502 -2.4038 0.9071
-24.2545 0.2999 -2.4028 0.9071
-24.2454 0.1499 -2.4017 0.9071
-22.5288 -0.0000 -2.4007 0.9134
-22.5194 -0.1393 -2.3997 0.9134
-22.5090 -0.2785 -2.3988 0.9134
-22.4979 -0.4175 -2.3978 0.9135
-22.4730 -0.6951 -2.3959 0.9135
-22.4447 -0.9723 -2.3940 0.9136
-22.3594 -1.6624 -2.3892 0.9138
-22.3398 -1.7999 -2.3883 0.9138
-22.3193 -1.9373 -2.3873 0.9138
-22.1794 -2.7574 -2.3816 0.9140
-22.1531 -2.8934 -2.3807 0.9140
-22.1261 -3.0291 -2.3798 0.9141
-22.0696 -3.2999 -2.3779 0.9141
-21.9468 -3.8388 -2.3742 0.9143
-21.8806 -4.1067 -2.3723 0.9143
-21.8463 -4.2403 -2.3714 0.9144
-21.8112 -4.3736 -2.3705 0.9144
-21.7753 -4.5068 -2.3696 0.9144
-21.7386 -4.6395 -2.3686 0.9145
-21.6628 -4.9042 -2.3668 0.9145
-21.6237 -5.0361 -2.3659 0.9146
-21.5432 -5.2991 -2.3641 0.9146
-21.4596 -5.5609 -2.3623 0.9147
-21.3284 -5.9513 -2.3596 0.9148
-21.2831 -6.0808 -2.3587 0.9148
-21.2370 -6.2099 -2.3578 0.9148
-21.1902 -6.3387 -2.3569 0.9149
-21.0943 -6.5953 -2.3551 0.9149
-21.0452 -6.7231 -2.3543 0.9150
-20.9954 -6.8506 -2.3534 0.9150
-20.9449 -6.9777 -2.3525 0.9150
-20.8935 -7.1044 -2.3516 0.9151
-20.8414 -7.2308 -2.3507 0.9151
-20.7886 -7.3569 -2.3499 0.9151
-20.6808 -7.6078 -2.3481 0.9152
-20.5135 -7.9814 -2.3456 0.9153
-20.3983 -8.2285 -2.3439 0.9153
-20.3396 -8.3513 -2.3430 0.9154
-20.2804 -8.4740 -2.3422 0.9154
-20.2203 -8.5962 -2.3413 0.9154
-20.1595 -8.7179 -2.3405 0.9154
-20.0980 -8.8393 -2.3396 0.9155
-19.9729 -9.0806 -2.3380 0.9155
-19.9093 -9.2008 -2.3371 0.9156
-19.6479 -9.6767 -2.3338 0.9157
-19.5808 -9.7946 -2.3330 0.9157
-19.4447 -10.0291 -2.3314 0.9158
-19.3058 -10.2617 -2.3298 0.9158
-19.0926 -10.6072 -2.3274 0.9159
-18.9471 -10.8352 -2.3258 0.9159
-18.7240 -11.1736 -2.3235 0.9160
-18.6483 -11.2854 -2.3227 0.9161
-18.5720 -11.3968 -2.3220 0.9161
-18.4175 -11.6179 -2.3204 0.9161
-18.3393 -11.7278 -2.3197 0.9162
-18.1810 -11.9459 -2.3182 0.9162
-18.0202 -12.1620 -2.3167 0.9163
-17.8570 -12.3761 -2.3152 0.9163
-17.6077 -12.6932 -2.3130 0.9164
-17.4385 -12.9020 -2.3116 0.9164
-17.1802 -13.2110 -2.3094 0.9165
-17.0930 -13.3130 -2.3087 0.9165
-17.0051 -13.4144 -2.3080 0.9166
-16.9168 -13.5152 -2.3073 0.9166
-16.6482 -13.8143 -2.3053 0.9167
-16.5575 -13.9129 -2.3046 0.9167
-16.4663 -14.0109 -2.3039 0.9167
-16.3746 -14.1083 -2.3032 0.9167
-16.2823 -14.2052 -2.3026 0.9167
-16.0021 -14.4923 -2.3006 0.9168
-15.9077 -14.5868 -2.2999 0.9168
-15.6212 -14.8669 -2.2980 0.9169
-15.3300 -15.1416 -2.2961 0.9170
-15.1333 -15.3217 -2.2948 0.9170
-14.8346 -15.5874 -2.2930 0.9171
-14.5315 -15.8475 -2.2912 0.9171
-14.4295 -15.9329 -2.2906 0.9172
-14.3270 -16.0177 -2.2900 0.9172
-14.2241 -16.1019 -2.2894 0.9172
-14.1206 -16.1855 -2.2889 0.9172
-13.8076 -16.4324 -2.2871 0.9173
-12.9534 -17.0626 -2.2828 0.9174
-12.8385 -17.1302 -2.2812 0.9175
-12.7048 -17.1720 -2.2762 0.9177
-12.5716 -17.2137 -2.2714 0.9178
-12.4390 -17.2551 -2.2667 0.9180
-11.3821 -17.5586 -2.2298 0.9193
-11.2504 -17.5928 -2.2253 0.9194
-10.9885 -17.6609 -2.2165 0.9197
-10.8584 -17.6948 -2.2123 0.9199
-10.7287 -17.7285 -2.2082 0.9200
-10.5995 -17.7620 -2.2041 0.9202
-10.3408 -17.8258 -2.1960 0.9204
-10.0823 -17.8863 -2.1879 0.9207
-9.9538 -17.9164 -2.1840 0.9209
-9.5708 -18.0060 -2.1729 0.9212
-9.3152 -18.0606 -2.1655 0.9215
-9.0607 -18.1137 -2.1582 0.9218
-8.6820 -18.1926 -2.1481 0.9221
-8.5565 -18.2185 -2.1448 0.9222
-8.4300 -18.2417 -2.1414 0.9223
-8.3040 -18.2648 -2.1380 0.9225
-7.6835 -18.3887 -2.1237 0.9230
-7.5600 -18.4123 -2.1210 0.9231
-7.4450 -18.4563 -2.1207 0.9231
-7.3297 -18.4995 -2.1204 0.9231
-7.2142 -18.5419 -2.1201 0.9231
-7.0984 -18.5836 -2.1198 0.9231
-6.8662 -18.6650 -2.1193 0.9231
-6.7497 -18.7046 -2.1190 0.9231
-6.6331 -18.7437 -2.1187 0.9231
-6.3992 -18.8195 -2.1182 0.9232
-6.2819 -18.8565 -2.1179 0.9232
-5.9289 -18.9632 -2.1172 0.9232
-5.5743 -19.0636 -2.1165 0.9232
-5.2181 -19.1578 -2.1158 0.9232
-4.7408 -19.2737 -2.1150 0.9233
-4.6211 -19.3009 -2.1148 0.9233
-4.5013 -19.3274 -2.1147 0.9233
-4.2612 -19.3784 -2.1143 0.9233
-4.1409 -19.4028 -2.1141 0.9233
-3.9000 -19.4496 -2.1138 0.9233
-3.7794 -19.4719 -2.1137 0.9233
-3.6586 -19.4935 -2.1135 0.9233
-3.4168 -19.5346 -2.1132 0.9233
-3.2957 -19.5541 -2.1131 0.9233
-2.9319 -19.6084 -2.1127 0.9233
-2.6888 -19.6410 -2.1125 0.9234
-2.3237 -19.6847 -2.1122 0.9234
-1.7136 -19.7432 -2.1118 0.9234
-1.5915 -19.7529 -2.1117 0.9234
-1.4692 -19.7617 -2.1116 0.9234
-0.9799 -19.7902 -2.1114 0.9234
-0.8575 -19.7954 -2.1114 0.9234
-0.3091 -16.6590 -1.7755 0.9352
-0.1024 -16.5657 -1.7653 0.9355
0.0000 -16.8868 -1.7995 0.9343
0.1024 -16.5603 -1.7647 0.9356
0.2048 -16.5551 -1.7643 0.9356
0.4093 -16.5429 -1.7634 0.9356
0.6163 -16.6012 -1.7703 0.9354
0.7204 -16.6313 -1.7739 0.9352
0.8280 -16.7219 -1.7841 0.9349
1.1375 -16.6962 -1.7833 0.9349
1.6542 -16.6634 -1.7844 0.9349
1.7577 -16.6575 -1.7849 0.9348
1.9649 -16.6455 -1.7861 0.9348
2.0693 -16.6452 -1.7874 0.9348
2.2753 -16.6200 -1.7876 0.9347
2.3648 -16.5135 -1.7776 0.9351
2.4633 -16.4744 -1.7750 0.9352
2.5601 -16.4269 -1.7716 0.9353
2.6623 -16.4147 -1.7720 0.9353
2.7683 -16.4250 -1.7750 0.9352
2.9725 -16.3965 -1.7757 0.9352
3.0792 -16.4059 -1.7788 0.9351
3.1816 -16.3917 -1.7793 0.9350
3.2989 -16.4517 -1.7880 0.9347
4.1408 -19.4021 -2.1141 0.9233
4.2610 -19.3776 -2.1142 0.9233
4.5011 -19.3266 -2.1146 0.9233
4.6209 -19.3001 -2.1148 0.9233
4.7406 -19.2729 -2.1149 0.9233
4.9795 -19.2162 -2.1153 0.9233
5.0987 -19.1870 -2.1155 0.9232
5.2178 -19.1569 -2.1157 0.9232
5.3367 -19.1262 -2.1160 0.9232
5.5740 -19.0627 -2.1164 0.9232
5.6924 -19.0299 -2.1166 0.9232
5.9286 -18.9622 -2.1171 0.9232
6.1641 -18.8917 -2.1176 0.9232
6.3988 -18.8185 -2.1181 0.9232
6.5159 -18.7808 -2.1183 0.9231
6.6327 -18.7425 -2.1186 0.9231
6.7493 -18.7035 -2.1189 0.9231
6.9820 -18.6234 -2.1194 0.9231
7.2137 -18.5406 -2.1200 0.9231
7.4445 -18.4551 -2.1206 0.9231
7.5596 -18.4113 -2.1209 0.9231
7.6744 -18.3669 -2.1212 0.9230
8.0318 -18.2622 -2.1259 0.9229
8.4165 -18.2124 -2.1379 0.9225
8.5471 -18.1986 -2.1425 0.9223
8.6782 -18.1847 -2.1471 0.9221
8.8099 -18.1706 -2.1519 0.9220
8.9422 -18.1566 -2.1567 0.9218
9.0751 -18.1425 -2.1616 0.9216
9.2085 -18.1282 -2.1667 0.9215
9.4774 -18.0995 -2.1771 0.9211
9.6128 -18.0850 -2.1825 0.9209
9.7488 -18.0705 -2.1880 0.9207
9.8856 -18.0558 -2.1935 0.9205
10.0230 -18.0411 -2.1992 0.9203
10.1611 -18.0262 -2.2050 0.9201
10.3000 -18.0113 -2.2110 0.9199
10.4397 -17.9963 -2.2170 0.9197
10.7212 -17.9660 -2.2294 0.9193
10.8632 -17.9507 -2.2358 0.9191
11.0060 -17.9353 -2.2424 0.9188
11.1496 -17.9197 -2.2490 0.9186
11.2940 -17.9041 -2.2557 0.9184
11.4394 -17.8884 -2.2626 0.9181
11.7327 -17.8565 -2.2768 0.9176
11.8467 -17.7894 -2.2775 0.9176
12.0710 -17.6489 -2.2785 0.9176
12.1827 -17.5777 -2.2790 0.9176
12.2935 -17.5058 -2.2795 0.9175
12.5147 -17.3601 -2.2805 0.9175
12.7342 -17.2117 -2.2815 0.9175
12.9520 -17.0607 -2.2825 0.9174
12.3074 -16.0051 -2.1515 0.9220
12.4010 -15.9221 -2.1506 0.9220
13.4890 -16.6716 -2.2852 0.9173
13.5952 -16.5919 -2.2858 0.9173
13.7008 -16.5115 -2.2863 0.9173
13.8060 -16.4305 -2.2869 0.9173
14.0151 -16.2665 -2.2880 0.9173
14.2223 -16.1000 -2.2892 0.9172
14.4277 -15.9310 -2.2903 0.9172
14.5297 -15.8455 -2.2909 0.9172
14.6312 -15.7594 -2.2915 0.9171
14.7322 -15.6727 -2.2921 0.9171
14.9328 -15.4975 -2.2933 0.9171
15.0324 -15.4089 -2.2939 0.9170
15.1314 -15.3198 -2.2945 0.9170
15.3281 -15.1397 -2.2958 0.9170
15.7151 -14.7721 -2.2983 0.9169
16.0939 -14.3952 -2.3009 0.9168
16.1872 -14.2995 -2.3016 0.9168
16.2800 -14.2032 -2.3022 0.9168
16.3723 -14.1063 -2.3029 0.9167
16.4641 -14.0089 -2.3036 0.9167
16.6458 -13.8123 -2.3049 0.9167
16.9143 -13.5132 -2.3070 0.9166
17.0027 -13.4124 -2.3077 0.9166
17.1777 -13.2091 -2.3091 0.9165
17.2644 -13.1067 -2.3098 0.9165
17.5208 -12.7959 -2.3119 0.9164
17.9362 -12.2675 -2.3156 0.9163
18.0982 -12.0524 -2.3171 0.9162
18.1782 -11.9441 -2.3178 0.9162
18.5691 -11.3950 -2.3216 0.9161
18.7210 -11.1719 -2.3231 0.9160
18.8703 -10.9468 -2.3247 0.9160
18.9440 -10.8335 -2.3255 0.9160
19.0895 -10.6055 -2.3270 0.9159
19.1612 -10.4909 -2.3278 0.9159
19.3027 -10.2601 -2.3294 0.9158
19.3724 -10.1440 -2.3302 0.9158
19.4415 -10.0274 -2.3310 0.9158
19.6446 -9.6751 -2.3335 0.9157
19.7766 -9.4380 -2.3351 0.9156
19.8416 -9.3188 -2.3359 0.9156
19.9059 -9.1992 -2.3367 0.9156
19.9695 -9.0792 -2.3376 0.9155
20.0324 -8.9586 -2.3384 0.9155
20.2769 -8.4725 -2.3418 0.9154
20.4528 -8.1037 -2.3443 0.9153
20.5100 -7.9800 -2.3452 0.9153
20.5664 -7.8559 -2.3460 0.9152
20.6771 -7.6064 -2.3477 0.9152
20.7314 -7.4812 -2.3486 0.9152
20.7850 -7.3556 -2.3495 0.9151
20.8378 -7.2296 -2.3503 0.9151
20.8898 -7.1032 -2.3512 0.9151
20.9410 -6.9764 -2.3521 0.9150
20.9917 -6.8494 -2.3530 0.9150
21.0906 -6.5942 -2.3547 0.9149
21.2332 -6.2088 -2.3574 0.9149
21.3245 -5.9502 -2.3592 0.9148
21.3690 -5.8204 -2.3601 0.9148
21.4127 -5.6903 -2.3610 0.9147
21.4557 -5.5599 -2.3619 0.9147
21.4979 -5.4292 -2.3628 0.9147
21.5393 -5.2981 -2.3637 0.9146
21.5799 -5.1668 -2.3646 0.9146
21.6198 -5.0352 -2.3655 0.9146
21.6588 -4.9033 -2.3664 0.9145
21.7346 -4.6386 -2.3682 0.9145
21.8423 -4.2395 -2.3710 0.9144
21.8766 -4.1059 -2.3719 0.9144
21.9100 -3.9721 -2.3728 0.9143
21.9427 -3.8381 -2.3737 0.9143
22.0058 -3.5692 -2.3756 0.9142
22.1752 -2.7569 -2.3812 0.9140
22.2718 -2.2110 -2.3850 0.9139
22.2939 -2.0741 -2.3859 0.9139
22.3739 -1.5244 -2.3897 0.9137
22.3918 -1.3866 -2.3907 0.9137
22.4251 -1.1104 -2.3926 0.9136
22.4405 -0.9721 -2.3935 0.9136
22.4551 -0.8336 -2.3945 0.9136
22.4687 -0.6950 -2.3954 0.9135
22.4816 -0.5563 -2.3964 0.9135
22.5048 -0.2784 -2.3983 0.9134
22.5151 -0.1393 -2.3993 0.9134
22.5331 0.1393 -2.4012 0.9133
22.5408 0.2788 -2.4022 0.9133
22.5538 0.5579 -2.4041 0.9132
22.5632 0.8376 -2.4060 0.9132
22.5692 1.1175 -2.4079 0.9131
22.5710 1.2575 -2.4089 0.9131
22.5718 1.3977 -2.4099 0.9130
22.5718 1.5378 -2.4108 0.9130
22.5709 1.6780 -2.4118 0.9130
22.5535 2.3798 -2.4167 0.9128
22.5404 2.6607 -2.4186 0.9127
22.5325 2.8012 -2.4196 0.9127
22.5037 3.2226 -2.4225 0.9126
22.4924 3.3631 -2.4235 0.9126
22.4801 3.5035 -2.4244 0.9125
22.4670 3.6439 -2.4254 0.9125
22.4530 3.7843 -2.4264 0.9125
22.4224 4.0649 -2.4283 0.9124
22.4058 4.2052 -2.4293 0.9124
22.3882 4.3454 -2.4302 0.9123
22.3698 4.4856 -2.4312 0.9123
20.9829 4.4781 -2.2863 0.9173
20.9579 4.6085 -2.2867 0.9173
22.2875 5.0455 -2.4351 0.9122
22.2646 5.1853 -2.4360 0.9121
9.9795 2.5202 -1.0968 0.9594
9.8828 2.5609 -1.0879 0.9598
8.8812 2.4190 -0.9809 0.9636
8.5630 2.3893 -0.9473 0.9649
8.2659 2.3616 -0.9161 0.9660
7.9877 2.3356 -0.8868 0.9671
7.7267 2.3113 -0.8594 0.9681
6.4664 2.1988 -0.7278 0.9729
6.1272 2.1683 -0.6926 0.9742
5.8191 2.1406 -0.6607 0.9754
5.6754 2.1277 -0.6459 0.9759
5.5381 2.1154 -0.6317 0.9764
5.0439 2.0710 -0.5810 0.9783
4.8253 2.0513 -0.5587 0.9791
4.7222 2.0421 -0.5482 0.9795
4.6229 2.0331 -0.5382 0.9799
4.5271 2.0246 -0.5285 0.9802
4.4348 2.0162 -0.5191 0.9806
4.1763 1.9930 -0.4931 0.9816
4.0958 1.9858 -0.4850 0.9819
3.9424 1.9720 -0.4697 0.9824
3.7975 1.9586 -0.4553 0.9830
3.5973 1.9407 -0.4356 0.9837
3.4732 1.9296 -0.4234 0.9841
3.4137 1.9243 -0.4176 0.9844
3.2447 1.9091 -0.4012 0.9850
3.1912 1.9044 -0.3960 0.9852
3.0883 1.8951 -0.3861 0.9855
3.0388 1.8907 -0.3814 0.9857
2.9904 1.8864 -0.3768 0.9859
2.9432 1.8821 -0.3723 0.9860
2.8972 1.8780 -0.3679 0.9862
2.8522 1.8740 -0.3637 0.9864
2.7652 1.8662 -0.3555 0.9867
2.7231 1.8625 -0.3516 0.9868
2.6820 1.8588 -0.3477 0.9870
2.6024 1.8517 -0.3403 0.9872
2.4178 1.8355 -0.3235 0.9879
2.3493 1.8297 -0.3173 0.9881
2.2833 1.8242 -0.3114 0.9883
2.2512 1.8215 -0.3086 0.9884
2.2197 1.8188 -0.3058 0.9885
2.1888 1.8162 -0.3031 0.9886
2.1584 1.8136 -0.3004 0.9887
2.0991 1.8086 -0.2953 0.9889
2.0703 1.8062 -0.2928 0.9890
2.0419 1.8037 -0.2903 0.9891
2.0140 1.8014 -0.2879 0.9892
1.9865 1.7990 -0.2856 0.9893
1.9595 1.7968 -0.2833 0.9894
1.9329 1.7945 -0.2811 0.9894
1.9067 1.7923 -0.2789 0.9895
1.8306 1.7858 -0.2725 0.9898
1.8059 1.7837 -0.2705 0.9898
1.7342 1.7776 -0.2646 0.9901
1.7110 1.7756 -0.2628 0.9901
1.6432 1.7699 -0.2574 0.9903
1.6212 1.7680 -0.2556 0.9904
1.5995 1.7662 -0.2539 0.9905
1.5781 1.7644 -0.2522 0.9905
1.4953 1.7573 -0.2459 0.9908
1.4553 1.7539 -0.2429 0.9909
1.4358 1.7522 -0.2414 0.9909
1.4164 1.7506 -0.2400 0.9910
1.3784 1.7473 -0.2372 0.9911
1.3597 1.7457 -0.2358 0.9911
1.3412 1.7442 -0.2345 0.9912
1.3229 1.7426 -0.2331 0.9912
1.3049 1.7411 -0.2319 0.9913
1.2870 1.7395 -0.2306 0.9913
1.2518 1.7365 -0.2281 0.9914
1.2174 1.7336 -0.2257 0.9915
1.1837 1.7307 -0.2234 0.9916
1.1344 1.7265 -0.2201 0.9917
1.1273 1.7390 -0.2208 0.9917
1.1253 1.7596 -0.2226 0.9916
1.1212 1.8019 -0.2261 0.9915
1.1125 1.8907 -0.2338 0.9912
1.1008 2.0105 -0.2443 0.9908
1.0906 2.1145 -0.2535 0.9905
1.0825 2.1979 -0.2611 0.9902
1.0614 2.4132 -0.2809 0.9895
1.0581 2.4467 -0.2841 0.9893
1.0547 2.4810 -0.2873 0.9892
1.0513 2.5160 -0.2906 0.9891
1.0442 2.5885 -0.2974 0.9888
1.0289 2.7443 -0.3123 0.9883
1.0248 2.7858 -0.3163 0.9881
1.0206 2.8283 -0.3204 0.9880
1.0119 2.9167 -0.3290 0.9877
1.0074 2.9627 -0.3335 0.9875
1.0027 3.0100 -0.3381 0.9873
0.9982 3.0591 -0.3429 0.9871
0.9935 3.1099 -0.3479 0.9870
0.9837 3.2159 -0.3584 0.9866
0.9786 3.2714 -0.3639 0.9864
0.9733 3.3286 -0.3696 0.9861
0.9622 3.4485 -0.3815 0.9857
0.9564 3.5115 -0.3878 0.9855
0.9504 3.5765 -0.3943 0.9852
0.9311 3.7855 -0.4154 0.9844
0.9171 3.9378 -0.4308 0.9839
0.9097 4.0182 -0.4390 0.9836
0.8856 4.2791 -0.4656 0.9826
0.8769 4.3732 -0.4753 0.9822
0.8486 4.6806 -0.5069 0.9810
0.8382 4.7924 -0.5184 0.9806
1.8159 10.7743 -1.1643 0.9570
1.7400 10.7283 -1.1582 0.9572
1.5170 10.5930 -1.1403 0.9579
1.4441 10.5487 -1.1346 0.9581
1.3673 10.4688 -1.1250 0.9584
1.2320 10.4370 -1.1199 0.9586
1.1649 10.4212 -1.1174 0.9587
0.8410 10.4378 -1.1159 0.9588
0.7119 10.4485 -1.1160 0.9587
0.5827 10.4592 -1.1163 0.9587
0.3260 10.5389 -1.1236 0.9585
0.1314 10.6204 -1.1318 0.9582
0.0658 10.6427 -1.1341 0.9581
0.0000 10.6376 -1.1335 0.9581
-0.1330 10.7520 -1.1458 0.9577
-0.2689 10.8690 -1.1586 0.9572
-0.3384 10.9391 -1.1662 0.9569
-0.4105 11.0578 -1.1791 0.9565
-0.4842 11.1792 -1.1924 0.9560
-0.6568 11.7885 -1.2581 0.9536
-0.7296 11.7829 -1.2580 0.9536
-0.8752 11.7717 -1.2579 0.9536
-1.0208 11.7605 -1.2579 0.9536
-1.0936 11.7550 -1.2580 0.9536
-1.1802 9.9979 -1.0728 0.9603
-1.2841 9.8319 -1.0566 0.9609
-1.3667 9.9835 -1.0738 0.9603
-1.4290 9.9785 -1.0742 0.9603
-1.7853 11.0074 -1.1883 0.9561
-1.8544 11.0026 -1.1890 0.9561
-1.9929 10.9928 -1.1905 0.9561
-2.0623 10.9879 -1.1913 0.9560
-2.1317 10.9830 -1.1922 0.9560
-2.2710 10.9731 -1.1941 0.9559
-2.3408 10.9682 -1.1951 0.9559
-2.5510 10.9534 -1.1984 0.9558
-2.6918 10.9434 -1.2009 0.9557
-2.7624 10.9384 -1.2022 0.9556
-2.7628 10.6618 -1.1737 0.9567
-2.7514 9.8605 -1.0909 0.9597
-2.7791 9.7273 -1.0780 0.9601
-2.9439 9.8413 -1.0946 0.9595
-3.0084 9.8352 -1.0960 0.9595
-3.1380 9.8228 -1.0988 0.9594
-3.5494 10.8783 -1.2193 0.9550
-3.6221 10.8725 -1.2212 0.9549
-3.7682 10.8610 -1.2250 0.9548
-3.9151 10.8494 -1.2291 0.9547
-4.1375 10.8319 -1.2356 0.9544
-4.2871 10.8201 -1.2402 0.9543
-4.3573 10.8018 -1.2412 0.9542
-4.4237 10.7739 -1.2411 0.9542
-4.4899 10.7456 -1.2410 0.9542
-4.4847 10.5490 -1.2215 0.9549
-4.4523 10.1234 -1.1785 0.9565
-4.4369 9.9214 -1.1581 0.9572
-4.4049 9.6887 -1.1341 0.9581
-4.4738 9.6807 -1.1364 0.9580
-4.6122 9.6646 -1.1411 0.9578
-5.5173 10.8614 -1.2982 0.9522
-5.6663 10.8212 -1.3016 0.9521
-5.7580 10.6730 -1.2923 0.9524
-5.8931 10.4546 -1.2789 0.9529
-5.9162 10.1985 -1.2564 0.9537
-6.0579 10.1515 -1.2597 0.9536
-6.3079 9.9997 -1.2599 0.9536
-6.3704 9.9618 -1.2600 0.9535
-6.5664 9.9937 -1.2743 0.9530
-6.6511 9.9874 -1.2787 0.9529
-6.7363 9.9810 -1.2832 0.9527
-6.8221 9.9746 -1.2877 0.9526
-6.9085 9.9681 -1.2924 0.9524
-6.9956 9.9616 -1.2971 0.9522
-7.0833 9.9550 -1.3019 0.9520
-7.1717 9.9484 -1.3069 0.9519
-7.1973 9.8549 -1.3004 0.9521
-7.5919 10.0003 -1.3379 0.9507
-8.2995 10.6560 -1.4393 0.9471
-14.1809 17.0900 -2.3664 0.9145
-14.3832 16.9040 -2.3651 0.9146
-14.4834 16.8100 -2.3645 0.9146
-14.5830 16.7154 -2.3638 0.9146
-14.9740 16.3300 -2.3610 0.9147
-15.0703 16.2323 -2.3603 0.9148
-9.3689 9.9670 -1.4577 0.9465
-9.4244 9.9026 -1.4567 0.9465
-9.4798 9.8383 -1.4559 0.9465
-9.5352 9.7740 -1.4551 0.9466
-9.6001 9.7196 -1.4558 0.9465
-15.7265 15.5332 -2.3555 0.9149
-16.0864 15.1211 -2.3526 0.9150
-16.1747 15.0168 -2.3519 0.9150
-16.3491 14.8064 -2.3504 0.9151
-16.4353 14.7005 -2.3497 0.9151
-17.9979 15.1231 -2.5051 0.9098
-18.0853 15.0067 -2.5042 0.9098
-18.1719 14.8897 -2.5034 0.9098
-18.2577 14.7723 -2.5026 0.9099
-18.4270 14.5359 -2.5010 0.9099
-18.7561 14.0571 -2.4977 0.9100
-18.8364 13.9362 -2.4969 0.9100
-18.9159 13.8148 -2.4960 0.9101
-18.9946 13.6929 -2.4952 0.9101
-19.1495 13.4478 -2.4935 0.9102
-19.2257 13.3246 -2.4926 0.9102
-19.3011 13.2009 -2.4918 0.9102
-19.3758 13.0768 -2.4909 0.9103
-19.4496 12.9523 -2.4901 0.9103
-20.2065 11.5554 -2.4804 0.9106
-20.2703 11.4261 -2.4796 0.9106
-20.3953 11.1664 -2.4778 0.9107
-20.5169 10.9054 -2.4760 0.9108
-20.5765 10.7744 -2.4751 0.9108
-20.7499 10.3793 -2.4723 0.9109
-20.8060 10.2471 -2.4714 0.9109
-20.9156 9.9815 -2.4696 0.9110
-20.9692 9.8483 -2.4687 0.9110
-21.0218 9.7148 -2.4677 0.9111
-21.0736 9.5810 -2.4668 0.9111
-21.1746 9.3127 -2.4650 0.9111
-21.2237 9.1781 -2.4640 0.9112
-21.2722 9.0431 -2.4631 0.9112
-21.3196 8.9081 -2.4622 0.9112
-21.3661 8.7728 -2.4612 0.9113
-21.5437 8.2291 -2.4575 0.9114
-21.6272 7.9559 -2.4556 0.9115
-21.8919 6.9935 -2.4490 0.9117
-21.9595 6.7170 -2.4471 0.9118
-22.0238 6.4398 -2.4451 0.9118
-22.0545 6.3010 -2.4442 0.9119
-22.0844 6.1621 -2.4432 0.9119
-22.1134 6.0230 -2.4423 0.9119
-22.1687 5.7446 -2.4403 0.9120
-22.1951 5.6052 -2.4394 0.9120
-22.2205 5.4656 -2.4384 0.9121
-22.2451 5.3260 -2.4375 0.9121
-22.2688 5.1863 -2.4365 0.9121
-22.2917 5.0465 -2.4355 0.9122
-22.3346 4.7666 -2.4336 0.9122
-22.3925 4.3463 -2.4307 0.9123
-22.4100 4.2060 -2.4297 0.9124
-22.4266 4.0657 -2.4288 0.9124
-22.4573 3.7850 -2.4268 0.9125
-22.4713 3.6446 -2.4258 0.9125
-22.4844 3.5041 -2.4249 0.9125
-22.4966 3.3637 -2.4239 0.9126
-22.5368 2.8017 -2.4200 0.9127
-22.5447 2.6612 -2.4191 0.9127
-22.5516 2.5207 -2.4181 0.9128
-22.5578 2.3803 -2.4171 0.9128
-22.5674 2.0994 -2.4152 0.9129
-22.5752 1.6784 -2.4123 0.9130
-22.5761 1.5381 -2.4113 0.9130
-22.5710 0.9777 -2.4074 0.9131
-22.5520 0.4184 -2.4036 0.9133
-22.5451 0.2788 -2.4026 0.9133
-22.5374 0.1393 -2.4016 0.9133
-21.0445 -0.0000 -2.4007 0.9188
-21.0363 -0.1301 -2.3998 0.9188
-21.0272 -0.2601 -2.3989 0.9188
-20.9699 -0.9083 -2.3944 0.9190
-20.9560 -1.0377 -2.3935 0.9190
-20.8751 -1.6819 -2.3891 0.9191
-20.8372 -1.9385 -2.3873 0.9192
-20.8171 -2.0666 -2.3864 0.9192
-20.7962 -2.1945 -2.3855 0.9193
-20.7746 -2.3222 -2.3846 0.9193
-20.7290 -2.5771 -2.3829 0.9193
-20.6803 -2.8312 -2.3811 0.9194
-20.6547 -2.9579 -2.3802 0.9194
-20.6285 -3.0845 -2.3794 0.9195
-20.5737 -3.3369 -2.3776 0.9195
-20.5158 -3.5885 -2.3759 0.9196
-20.4858 -3.7139 -2.3750 0.9196
-20.4550 -3.8391 -2.3742 0.9196
-20.3911 -4.0889 -2.3724 0.9197
-20.3580 -4.2134 -2.3716 0.9197
-20.3242 -4.3376 -2.3707 0.9197
-20.2544 -4.5853 -2.3690 0.9198
-20.2184 -4.7088 -2.3682 0.9198
-20.1441 -4.9549 -2.3665 0.9199
-20.1059 -5.0776 -2.3656 0.9199
-20.0669 -5.2000 -2.3648 0.9199
-20.0272 -5.3221 -2.3639 0.9200
-19.9457 -5.5654 -2.3622 0.9200
-19.9038 -5.6867 -2.3614 0.9200
-19.8613 -5.8076 -2.3606 0.9201
-19.8180 -5.9282 -2.3597 0.9201
-19.7740 -6.0485 -2.3589 0.9201
-19.5908 -6.5266 -2.3556 0.9202
-19.5433 -6.6454 -2.3548 0.9203
-19.4461 -6.8818 -2.3531 0.9203
-19.2951 -7.2338 -2.3507 0.9204
-19.2434 -7.3505 -2.3499 0.9204
-19.0842 -7.6984 -2.3475 0.9205
-18.9747 -7.9285 -2.3459 0.9205
-18.8625 -8.1571 -2.3443 0.9206
-18.8054 -8.2708 -2.3435 0.9206
-18.7476 -8.3841 -2.3428 0.9206
-18.6891 -8.4971 -2.3420 0.9207
-18.5703 -8.7218 -2.3404 0.9207
-18.5099 -8.8335 -2.3397 0.9207
-18.3248 -9.1663 -2.3374 0.9208
-18.1982 -9.3862 -2.3358 0.9209
-18.1340 -9.4955 -2.3351 0.9209
-18.0036 -9.7128 -2.3336 0.9209
-17.9374 -9.8208 -2.3328 0.9210
-17.8706 -9.9284 -2.3321 0.9210
-17.7352 -10.1422 -2.3306 0.9210
-17.6666 -10.2485 -2.3299 0.9211
-17.5973 -10.3543 -2.3292 0.9211
-17.4570 -10.5645 -2.3277 0.9211
-17.2421 -10.8765 -2.3255 0.9212
-17.0958 -11.0821 -2.3241 0.9213
-16.9471 -11.2859 -2.3227 0.9213
-16.8719 -11.3871 -2.3220 0.9213
-16.5654 -11.7869 -2.3192 0.9214
-16.4087 -11.9838 -2.3179 0.9215
-16.3295 -12.0815 -2.3172 0.9215
-16.2498 -12.1788 -2.3165 0.9215
-16.0886 -12.3716 -2.3152 0.9215
-16.0072 -12.4673 -2.3145 0.9216
-15.9253 -12.5625 -2.3139 0.9216
-15.8428 -12.6572 -2.3132 0.9216
-15.6763 -12.8450 -2.3119 0.9216
-15.0768 -13.4855 -2.3075 0.9218
-14.6333 -13.9267 -2.3045 0.9219
-14.3613 -14.1848 -2.3027 0.9219
-14.2696 -14.2697 -2.3021 0.9220
-14.0849 -14.4378 -2.3009 0.9220
-13.8983 -14.6036 -2.2998 0.9220
-13.8044 -14.6856 -2.2992 0.9221
-13.5197 -14.9283 -2.2975 0.9221
-12.9383 -15.3978 -2.2943 0.9222
-12.8398 -15.4739 -2.2938 0.9222
-12.7410 -15.5495 -2.2932 0.9223
-12.5421 -15.6988 -2.2922 0.9223
-12.4420 -15.7726 -2.2917 0.9223
-12.3415 -15.8457 -2.2912 0.9223
-12.2406 -15.9182 -2.2907 0.9223
-12.0375 -16.0615 -2.2897 0.9224
-11.9354 -16.1322 -2.2892 0.9224
-11.4191 -16.4763 -2.2868 0.9225
-11.2099 -16.6096 -2.2859 0.9225
-11.1048 -16.6753 -2.2854 0.9225
-10.9993 -16.7404 -2.2850 0.9225
-10.8934 -16.8047 -2.2845 0.9225
-10.7872 -16.8685 -2.2841 0.9226
-10.2509 -17.1778 -2.2820 0.9226
-9.9251 -17.3557 -2.2807 0.9227
-9.7063 -17.4710 -2.2799 0.9227
-9.0424 -17.8012 -2.2777 0.9228
-8.8187 -17.9059 -2.2769 0.9228
-8.7065 -17.9573 -2.2766 0.9228
-8.4811 -18.0581 -2.2759 0.9228
-8.3680 -18.1075 -2.2755 0.9228
-8.2547 -18.1562 -2.2752 0.9228
-8.0271 -18.2516 -2.2745 0.9229
-7.4206 -18.3956 -2.2628 0.9232
-7.2964 -18.4153 -2.2596 0.9234
-6.8030 -18.4933 -2.2479 0.9237
-6.5576 -18.5303 -2.2423 0.9239
-6.3120 -18.5631 -2.2367 0.9241
-6.1896 -18.5794 -2.2340 0.9242
-5.9457 -18.6119 -2.2289 0.9244
-5.7029 -18.6441 -2.2241 0.9245
-5.5813 -18.6584 -2.2217 0.9246
-5.4597 -18.6716 -2.2192 0.9247
-5.3383 -18.6848 -2.2168 0.9247
-5.2172 -18.6979 -2.2145 0.9248
-4.9757 -18.7240 -2.2101 0.9250
-4.8553 -18.7371 -2.2080 0.9250
-4.6148 -18.7613 -2.2040 0.9252
-4.3741 -18.7815 -2.1998 0.9253
-3.8953 -18.8215 -2.1926 0.9255
-3.6567 -18.8400 -2.1893 0.9256
-3.4181 -18.8541 -2.1859 0.9258
-3.2990 -18.8611 -2.1843 0.9258
-3.0614 -18.8751 -2.1813 0.9259
-2.8243 -18.8890 -2.1787 0.9260
-2.7059 -18.8952 -2.1775 0.9260
-2.3506 -18.9075 -2.1735 0.9262
-2.2324 -18.9116 -2.1723 0.9262
-2.1144 -18.9156 -2.1712 0.9262
-1.8786 -18.9236 -2.1693 0.9263
-1.7608 -18.9276 -2.1685 0.9263
-1.5252 -18.9301 -2.1665 0.9264
-1.4075 -18.9313 -2.1656 0.9264
-0.8203 -18.9368 -2.1623 0.9265
-0.5857 -18.9344 -2.1610 0.9266
-0.4154 -16.7906 -1.9160 0.9346
0.0000 -16.5712 -1.8904 0.9355
0.2048 -16.5552 -1.8887 0.9355
0.3071 -16.5494 -1.8882 0.9355
0.6361 -17.1364 -1.9562 0.9333
0.8265 -16.6925 -1.9065 0.9349
0.9327 -16.7407 -1.9127 0.9347
1.0360 -16.7303 -1.9122 0.9347
1.4499 -16.7052 -1.9128 0.9347
1.8646 -16.6812 -1.9148 0.9347
1.9684 -16.6755 -1.9155 0.9346
2.1767 -16.6667 -1.9174 0.9346
2.2698 -16.5801 -1.9090 0.9348
2.5593 -16.4213 -1.8959 0.9353
2.6651 -16.4318 -1.8990 0.9352
2.8720 -16.4200 -1.9016 0.9351
2.9728 -16.3979 -1.9011 0.9351
3.1290 -16.6714 -1.9350 0.9340
3.8620 -18.6606 -2.1738 0.9262
3.9800 -18.6486 -2.1753 0.9261
4.2163 -18.6244 -2.1784 0.9260
4.4533 -18.6002 -2.1818 0.9259
4.6912 -18.5757 -2.1856 0.9258
4.8104 -18.5635 -2.1876 0.9257
4.9298 -18.5512 -2.1897 0.9256
5.0495 -18.5389 -2.1919 0.9256
5.1694 -18.5265 -2.1942 0.9255
5.4100 -18.5016 -2.1990 0.9253
5.5307 -18.4891 -2.2015 0.9252
5.6516 -18.4765 -2.2041 0.9252
6.0163 -18.4387 -2.2125 0.9249
6.2610 -18.4132 -2.2186 0.9247
6.7546 -18.3615 -2.2318 0.9243
7.1287 -18.3222 -2.2427 0.9239
7.3802 -18.2957 -2.2505 0.9236
7.5066 -18.2824 -2.2545 0.9235
7.7608 -18.2555 -2.2629 0.9232
8.0169 -18.2284 -2.2716 0.9230
8.3675 -18.1062 -2.2754 0.9228
8.4804 -18.0568 -2.2757 0.9228
8.5933 -18.0068 -2.2761 0.9228
8.8181 -17.9046 -2.2768 0.9228
8.9302 -17.8525 -2.2771 0.9228
9.0418 -17.7998 -2.2775 0.9228
9.1534 -17.7464 -2.2778 0.9228
9.5956 -17.5262 -2.2794 0.9227
10.1418 -17.2363 -2.2814 0.9226
10.2500 -17.1763 -2.2818 0.9226
10.3579 -17.1158 -2.2822 0.9226
10.6796 -16.9301 -2.2835 0.9226
10.7862 -16.8670 -2.2839 0.9226
10.9982 -16.7388 -2.2848 0.9225
11.2089 -16.6080 -2.2857 0.9225
11.4180 -16.4746 -2.2866 0.9225
11.6256 -16.3389 -2.2875 0.9224
11.8317 -16.2006 -2.2885 0.9224
12.0363 -16.0598 -2.2895 0.9224
12.3402 -15.8440 -2.2909 0.9223
12.7396 -15.5478 -2.2930 0.9223
12.8385 -15.4723 -2.2935 0.9222
13.7083 -14.7654 -2.2984 0.9221
13.8028 -14.6839 -2.2989 0.9221
13.8967 -14.6019 -2.2995 0.9221
13.9902 -14.5193 -2.3001 0.9220
14.3595 -14.1830 -2.3024 0.9220
14.5413 -14.0115 -2.3036 0.9219
14.6315 -13.9249 -2.3042 0.9219
14.9872 -13.5730 -2.3066 0.9218
15.1620 -13.3938 -2.3078 0.9218
15.2486 -13.3034 -2.3085 0.9218
15.4205 -13.1209 -2.3097 0.9217
15.5056 -13.0289 -2.3103 0.9217
15.5901 -12.9364 -2.3110 0.9217
15.7577 -12.7497 -2.3123 0.9216
15.8407 -12.6555 -2.3129 0.9216
16.0864 -12.3699 -2.3149 0.9216
16.2475 -12.1771 -2.3162 0.9215
16.3272 -12.0798 -2.3169 0.9215
16.4064 -11.9821 -2.3176 0.9215
16.5630 -11.7852 -2.3189 0.9214
16.6405 -11.6860 -2.3196 0.9214
16.7174 -11.5862 -2.3203 0.9214
16.9447 -11.2843 -2.3224 0.9213
17.0193 -11.1826 -2.3231 0.9213
17.0933 -11.0805 -2.3238 0.9213
17.1667 -10.9780 -2.3245 0.9212
17.2395 -10.8749 -2.3252 0.9212
17.3118 -10.7714 -2.3259 0.9212
17.3834 -10.6674 -2.3266 0.9212
17.4545 -10.5630 -2.3274 0.9211
17.5249 -10.4581 -2.3281 0.9211
17.6640 -10.2469 -2.3295 0.9211
18.0008 -9.7113 -2.3332 0.9210
18.0663 -9.6029 -2.3340 0.9209
18.1954 -9.3847 -2.3355 0.9209
18.5674 -8.7204 -2.3401 0.9207
18.6271 -8.6082 -2.3408 0.9207
18.8024 -8.2694 -2.3432 0.9206
18.9159 -8.0416 -2.3447 0.9206
18.9716 -7.9271 -2.3455 0.9206
19.0267 -7.8123 -2.3463 0.9205
19.2403 -7.3493 -2.3495 0.9204
19.2920 -7.2327 -2.3503 0.9204
19.3430 -7.1156 -2.3511 0.9204
19.4919 -6.7626 -2.3536 0.9203
19.5401 -6.6442 -2.3544 0.9203
19.5876 -6.5255 -2.3552 0.9202
19.7260 -6.1675 -2.3577 0.9202
19.8147 -5.9272 -2.3593 0.9201
19.8579 -5.8066 -2.3602 0.9201
20.0239 -5.3212 -2.3635 0.9200
20.1025 -5.0767 -2.3652 0.9199
20.1407 -4.9541 -2.3661 0.9199
20.2509 -4.5846 -2.3686 0.9198
20.2862 -4.4608 -2.3695 0.9198
20.3545 -4.2127 -2.3712 0.9197
20.3876 -4.0882 -2.3720 0.9197
20.5122 -3.5878 -2.3755 0.9196
20.5699 -3.3363 -2.3772 0.9195
20.6249 -3.0839 -2.3790 0.9195
20.6512 -2.9574 -2.3798 0.9194
20.7014 -2.7037 -2.3816 0.9194
20.7709 -2.3218 -2.3842 0.9193
20.8528 -1.8100 -2.3878 0.9192
20.9061 -1.4244 -2.3904 0.9191
20.9523 -1.0375 -2.3931 0.9190
20.9662 -0.9082 -2.3940 0.9190
20.9915 -0.6493 -2.3958 0.9189
21.0325 -0.1301 -2.3993 0.9188
21.0549 0.2604 -2.4020 0.9187
21.0608 0.3907 -2.4029 0.9187
21.0736 0.7823 -2.4056 0.9186
21.0781 1.0437 -2.4075 0.9185
21.0794 1.3052 -2.4093 0.9185
21.0774 1.5670 -2.4111 0.9184
21.0723 1.8290 -2.4129 0.9184
21.0638 2.0910 -2.4147 0.9183
21.0521 2.3531 -2.4165 0.9183
21.0450 2.4842 -2.4174 0.9182
21.0189 2.8774 -2.4201 0.9181
20.9590 3.5325 -2.4246 0.9180
20.9445 3.6634 -2.4255 0.9180
20.9293 3.7943 -2.4264 0.9179
20.8963 4.0559 -2.4282 0.9179
20.8786 4.1865 -2.4292 0.9178
20.8600 4.3172 -2.4301 0.9178
20.8205 4.5783 -2.4319 0.9178
20.7776 4.8390 -2.4337 0.9177
20.7550 4.9692 -2.4346 0.9177
8.8924 2.4220 -1.0514 0.9636
8.2717 2.3632 -0.9814 0.9660
7.9931 2.3372 -0.9500 0.9670
7.4862 2.2899 -0.8930 0.9690
6.8380 2.2312 -0.8205 0.9715
6.6479 2.2147 -0.7993 0.9722
6.4666 2.1988 -0.7792 0.9729
6.2942 2.1837 -0.7600 0.9735
5.6771 2.1283 -0.6916 0.9759
5.1612 2.0820 -0.6349 0.9778
5.0452 2.0715 -0.6222 0.9783
4.8265 2.0519 -0.5983 0.9791
4.6240 2.0337 -0.5762 0.9799
4.3466 2.0087 -0.5462 0.9809
4.1772 1.9935 -0.5280 0.9815
4.0967 1.9862 -0.5194 0.9818
3.8699 1.9658 -0.4951 0.9827
3.7980 1.9589 -0.4875 0.9829
3.6626 1.9468 -0.4732 0.9834
3.5349 1.9353 -0.4597 0.9839
3.4737 1.9299 -0.4533 0.9841
3.3563 1.9193 -0.4411 0.9846
3.2999 1.9143 -0.4352 0.9848
3.2451 1.9094 -0.4295 0.9850
3.1395 1.8999 -0.4186 0.9853
3.0887 1.8954 -0.4134 0.9855
3.0391 1.8910 -0.4083 0.9857
2.9908 1.8866 -0.4034 0.9859
2.9436 1.8824 -0.3986 0.9860
2.8525 1.8742 -0.3894 0.9864
2.8085 1.8703 -0.3849 0.9865
2.7655 1.8664 -0.3806 0.9867
2.6823 1.8590 -0.3723 0.9869
2.6026 1.8519 -0.3644 0.9872
2.5263 1.8450 -0.3569 0.9875
2.4893 1.8417 -0.3532 0.9876
2.4530 1.8385 -0.3497 0.9877
2.3149 1.8261 -0.3364 0.9882
2.2498 1.8203 -0.3301 0.9884
2.2183 1.8176 -0.3272 0.9885
2.1272 1.8100 -0.3186 0.9888
2.0979 1.8075 -0.3159 0.9889
2.0690 1.8051 -0.3132 0.9890
2.0407 1.8027 -0.3106 0.9891
2.0128 1.8003 -0.3081 0.9892
1.9853 1.7980 -0.3056 0.9893
1.9583 1.7957 -0.3031 0.9894
1.9318 1.7935 -0.3007 0.9894
1.9056 1.7912 -0.2983 0.9895
1.7807 1.7807 -0.2873 0.9899
1.7568 1.7787 -0.2852 0.9900
1.7333 1.7767 -0.2831 0.9901
1.7101 1.7747 -0.2811 0.9901
1.6872 1.7728 -0.2792 0.9902
1.6646 1.7708 -0.2772 0.9903
1.6204 1.7671 -0.2735 0.9904
1.5987 1.7652 -0.2717 0.9905
1.5354 1.7599 -0.2664 0.9906
1.4945 1.7564 -0.2631 0.9908
1.4546 1.7530 -0.2599 0.9909
1.4350 1.7514 -0.2583 0.9909
1.3966 1.7481 -0.2552 0.9910
1.3590 1.7449 -0.2523 0.9911
1.3406 1.7433 -0.2509 0.9912
1.3223 1.7418 -0.2495 0.9912
1.3043 1.7402 -0.2481 0.9913
1.2340 1.7342 -0.2428 0.9915
1.1999 1.7313 -0.2403 0.9916
1.1666 1.7285 -0.2379 0.9916
1.1501 1.7271 -0.2367 0.9917
1.1264 1.7376 -0.2362 0.9917
1.1244 1.7582 -0.2381 0.9916
1.1223 1.7791 -0.2400 0.9916
1.1181 1.8220 -0.2439 0.9914
1.1046 1.9596 -0.2566 0.9910
1.0998 2.0087 -0.2612 0.9908
1.0814 2.1958 -0.2792 0.9902
1.0786 2.2246 -0.2820 0.9901
1.0757 2.2540 -0.2849 0.9900
1.0697 2.3147 -0.2909 0.9898
1.0635 2.3780 -0.2972 0.9896
1.0603 2.4107 -0.3004 0.9895
1.0570 2.4442 -0.3038 0.9893
1.0536 2.4784 -0.3072 0.9892
1.0502 2.5133 -0.3107 0.9891
1.0430 2.5856 -0.3181 0.9888
1.0317 2.7009 -0.3298 0.9884
1.0237 2.7827 -0.3382 0.9881
0.9935 3.1098 -0.3724 0.9869
0.9837 3.2159 -0.3836 0.9866
0.9733 3.3285 -0.3956 0.9861
0.9678 3.3876 -0.4019 0.9859
0.9622 3.4485 -0.4084 0.9857
0.9564 3.5114 -0.4152 0.9855
0.9311 3.7855 -0.4447 0.9844
0.9242 3.8602 -0.4528 0.9841
0.8856 4.2790 -0.4985 0.9826
0.8769 4.3731 -0.5088 0.9822
0.8485 4.6805 -0.5426 0.9810
1.7399 10.7276 -1.2398 0.9572
1.6648 10.6821 -1.2333 0.9574
1.5905 10.6370 -1.2269 0.9576
1.5169 10.5923 -1.2207 0.9578
1.4440 10.5481 -1.2145 0.9580
1.2320 10.4364 -1.1988 0.9586
1.1648 10.4206 -1.1961 0.9587
1.0979 10.4048 -1.1935 0.9588
1.0314 10.3891 -1.1910 0.9588
0.9010 10.3803 -1.1886 0.9589
0.8368 10.3857 -1.1886 0.9589
0.6441 10.4016 -1.1888 0.9589
0.5798 10.4069 -1.1890 0.9589
0.5155 10.4123 -1.1892 0.9589
0.3902 10.5115 -1.1999 0.9585
0.1965 10.5925 -1.2086 0.9582
0.1314 10.6198 -1.2116 0.9581
0.0000 10.6370 -1.2134 0.9581
-0.0661 10.6939 -1.2199 0.9579
-0.1330 10.7514 -1.2266 0.9576
-0.2040 10.9935 -1.2543 0.9567
-0.4189 11.2833 -1.2880 0.9556
-0.5596 11.3027 -1.2909 0.9555
-0.6568 11.7879 -1.3468 0.9536
-0.7296 11.7823 -1.3466 0.9536
-0.8752 11.7711 -1.3465 0.9536
-1.0207 11.7599 -1.3466 0.9536
-1.2392 11.7436 -1.3471 0.9536
-1.3121 11.7381 -1.3474 0.9536
-1.1715 9.9244 -1.1400 0.9606
-1.2332 9.9196 -1.1403 0.9606
-1.4185 9.9051 -1.1415 0.9605
-1.6219 10.8477 -1.2512 0.9568
-1.8259 10.8332 -1.2532 0.9567
-1.8940 10.8284 -1.2540 0.9567
-1.9622 10.8236 -1.2548 0.9567
-2.0305 10.8188 -1.2557 0.9567
-2.0989 10.8140 -1.2566 0.9566
-2.7199 10.7701 -1.2672 0.9563
-2.7347 10.2908 -1.2147 0.9580
-2.6674 9.7932 -1.1579 0.9600
-2.9217 9.7674 -1.1630 0.9598
-2.9858 9.7613 -1.1645 0.9597
-3.0022 9.6023 -1.1477 0.9603
-3.1144 9.7488 -1.1675 0.9596
-3.4949 10.7111 -1.2853 0.9557
-3.5665 10.7055 -1.2872 0.9556
-3.7825 10.6884 -1.2934 0.9554
-4.0739 10.6654 -1.3024 0.9551
-4.1474 10.6596 -1.3048 0.9550
-4.3696 10.6421 -1.3124 0.9547
-4.4847 10.5492 -1.3076 0.9549
-4.4524 10.1236 -1.2616 0.9565
-4.4390 9.6054 -1.2071 0.9583
-4.5075 9.5973 -1.2096 0.9582
-4.5047 9.4393 -1.1931 0.9588
-5.4893 11.1456 -1.4173 0.9512
-5.4672 10.9297 -1.3941 0.9520
-5.5169 10.8606 -1.3896 0.9521
-5.6198 10.8958 -1.3985 0.9518
-5.6661 10.8209 -1.3934 0.9520
-5.7578 10.6727 -1.3834 0.9524
-5.7972 10.5884 -1.3770 0.9526
-5.8482 10.5266 -1.3737 0.9527
-5.8929 10.4543 -1.3690 0.9528
-5.9374 10.3824 -1.3644 0.9530
-5.9952 10.1890 -1.3486 0.9535
-6.0577 10.1511 -1.3485 0.9535
-6.1202 10.1131 -1.3485 0.9535
-6.2451 10.0372 -1.3485 0.9535
-6.3076 9.9993 -1.3487 0.9535
-6.3701 9.9613 -1.3488 0.9535
-6.5661 9.9932 -1.3640 0.9530
-6.7359 9.9804 -1.3736 0.9527
-6.8217 9.9740 -1.3785 0.9525
-6.9081 9.9675 -1.3834 0.9523
-7.0829 9.9544 -1.3937 0.9520
-7.2699 9.8261 -1.3944 0.9520
-7.4499 9.9402 -1.4171 0.9512
-7.7356 10.0597 -1.4476 0.9502
-8.2991 10.6555 -1.5407 0.9471
-12.8157 16.2463 -2.3605 0.9201
-12.9127 16.1626 -2.3599 0.9201
-13.0091 16.0785 -2.3593 0.9201
-13.1050 15.9937 -2.3588 0.9201
-13.2003 15.9083 -2.3582 0.9201
-13.2951 15.8223 -2.3575 0.9202
-13.3892 15.7357 -2.3569 0.9202
-13.5757 15.5608 -2.3557 0.9202
-13.7599 15.3836 -2.3545 0.9203
-13.8511 15.2941 -2.3538 0.9203
-14.5587 14.5586 -2.3487 0.9205
-14.6444 14.4643 -2.3481 0.9205
-14.7294 14.3695 -2.3474 0.9205
-14.8139 14.2741 -2.3468 0.9205
-14.8977 14.1782 -2.3461 0.9205
-15.0633 13.9849 -2.3448 0.9206
-15.3069 13.6913 -2.3427 0.9206
-15.6226 13.2929 -2.3400 0.9207
-15.7764 13.0908 -2.3386 0.9208
-17.0073 13.7606 -2.4956 0.9157
-17.0869 13.6510 -2.4949 0.9157
-17.1657 13.5410 -2.4941 0.9157
-17.4739 13.0961 -2.4911 0.9158
-17.5491 12.9837 -2.4903 0.9159
-17.6973 12.7577 -2.4887 0.9159
-17.7702 12.6440 -2.4879 0.9159
-17.8424 12.5299 -2.4871 0.9160
-17.9139 12.4154 -2.4864 0.9160
-17.9846 12.3004 -2.4856 0.9160
-18.1921 11.9532 -2.4832 0.9161
-18.2598 11.8366 -2.4824 0.9161
-18.3267 11.7197 -2.4816 0.9161
-18.3928 11.6023 -2.4807 0.9162
-18.5865 11.2480 -2.4783 0.9163
-18.6496 11.1291 -2.4775 0.9163
-18.7733 10.8904 -2.4758 0.9163
-18.8939 10.6503 -2.4742 0.9164
-19.1257 10.1660 -2.4708 0.9165
-19.1817 10.0441 -2.4700 0.9165
-19.2368 9.9218 -2.4692 0.9165
-19.2912 9.7993 -2.4683 0.9166
-19.3448 9.6765 -2.4675 0.9166
-19.3976 9.5534 -2.4666 0.9166
-19.5008 9.3063 -2.4649 0.9167
-19.5512 9.1823 -2.4641 0.9167
-19.6008 9.0581 -2.4632 0.9167
-19.6496 8.9336 -2.4623 0.9168
-19.6976 8.8088 -2.4615 0.9168
-19.7447 8.6838 -2.4606 0.9168
-19.8367 8.4330 -2.4589 0.9169
-19.9254 8.1812 -2.4571 0.9169
-20.0108 7.9286 -2.4554 0.9170
-20.1329 7.5479 -2.4528 0.9171
-20.2476 7.1654 -2.4501 0.9172
-20.2843 7.0374 -2.4493 0.9172
-20.3201 6.9093 -2.4484 0.9172
-20.3550 6.7811 -2.4475 0.9172
-20.4225 6.5242 -2.4457 0.9173
-20.5769 5.8789 -2.4413 0.9175
-20.6054 5.7494 -2.4404 0.9175
-20.6330 5.6198 -2.4395 0.9175
-20.6597 5.4901 -2.4386 0.9175
-20.6857 5.3602 -2.4377 0.9176
-20.8031 4.7095 -2.4332 0.9177
-20.8637 4.3179 -2.4305 0.9178
-20.8823 4.1873 -2.4296 0.9178
-20.9000 4.0566 -2.4287 0.9179
-20.9330 3.7949 -2.4269 0.9179
-20.9482 3.6640 -2.4260 0.9179
-20.9891 3.2711 -2.4233 0.9180
-21.0011 3.1401 -2.4224 0.9181
-21.0123 3.0090 -2.4214 0.9181
-21.0409 2.6158 -2.4187 0.9182
-21.0488 2.4846 -2.4178 0.9182
-21.0558 2.3535 -2.4169 0.9182
-21.0621 2.2225 -2.4160 0.9183
-21.0722 1.9603 -2.4142 0.9183
-21.0790 1.6983 -2.4124 0.9184
-21.0826 1.4364 -2.4106 0.9184
-21.0832 1.3055 -2.4097 0.9185
-21.0829 1.1746 -2.4088 0.9185
-21.0819 1.0438 -2.4079 0.9185
-21.0774 0.7824 -2.4061 0.9186
-21.0739 0.6518 -2.4052 0.9186
-21.0646 0.3908 -2.4034 0.9187
-21.0520 0.1301 -2.4016 0.9187
-19.7417 0.0000 -2.4007 0.9235
-19.7344 -0.1221 -2.3998 0.9236
-19.7263 -0.2440 -2.3990 0.9236
-19.6491 -1.0948 -2.3931 0.9238
-19.6351 -1.2158 -2.3923 0.9238
-19.5886 -1.5783 -2.3898 0.9239
-19.5539 -1.8192 -2.3881 0.9239
-19.5356 -1.9394 -2.3873 0.9239
-19.5164 -2.0595 -2.3864 0.9240
-19.4965 -2.1793 -2.3856 0.9240
-19.3371 -3.0137 -2.3798 0.9242
-19.3115 -3.1322 -2.3790 0.9242
-19.2851 -3.2504 -2.3782 0.9242
-19.2017 -3.6039 -2.3758 0.9243
-19.1726 -3.7214 -2.3750 0.9243
-19.1426 -3.8385 -2.3742 0.9243
-19.1120 -3.9555 -2.3733 0.9244
-19.0807 -4.0722 -2.3725 0.9244
-18.8421 -4.8826 -2.3669 0.9246
-18.8052 -4.9974 -2.3661 0.9246
-18.6906 -5.3400 -2.3638 0.9247
-18.5282 -5.7930 -2.3607 0.9248
-18.4430 -6.0178 -2.3591 0.9248
-18.3551 -6.2414 -2.3576 0.9249
-18.3102 -6.3526 -2.3568 0.9249
-18.2646 -6.4637 -2.3560 0.9249
-18.2184 -6.5743 -2.3553 0.9249
-18.1240 -6.7948 -2.3537 0.9250
-17.9775 -7.1229 -2.3515 0.9250
-17.8765 -7.3401 -2.3500 0.9251
-17.6672 -7.7702 -2.3470 0.9252
-17.4478 -8.1945 -2.3441 0.9253
-17.3343 -8.4045 -2.3426 0.9253
-17.2767 -8.5089 -2.3419 0.9253
-17.2185 -8.6129 -2.3412 0.9254
-17.1596 -8.7166 -2.3405 0.9254
-17.1002 -8.8199 -2.3397 0.9254
-17.0401 -8.9227 -2.3390 0.9254
-16.9795 -9.0252 -2.3383 0.9254
-16.9182 -9.1273 -2.3376 0.9255
-16.7940 -9.3302 -2.3362 0.9255
-16.7310 -9.4311 -2.3355 0.9255
-16.6674 -9.5315 -2.3348 0.9256
-16.6032 -9.6316 -2.3341 0.9256
-16.3407 -10.0275 -2.3314 0.9257
-15.9300 -10.6085 -2.3274 0.9258
-15.8596 -10.7038 -2.3267 0.9258
-15.7886 -10.7987 -2.3261 0.9258
-15.7171 -10.8930 -2.3254 0.9258
-15.5725 -11.0804 -2.3241 0.9259
-15.4994 -11.1734 -2.3235 0.9259
-15.2769 -11.4496 -2.3216 0.9260
-15.1259 -11.6314 -2.3203 0.9260
-15.0497 -11.7215 -2.3197 0.9260
-14.9729 -11.8112 -2.3191 0.9260
-14.8956 -11.9004 -2.3184 0.9261
-14.6607 -12.1651 -2.3166 0.9261
-14.5016 -12.3391 -2.3154 0.9261
-14.1774 -12.6810 -2.3131 0.9262
-14.0952 -12.7653 -2.3125 0.9262
-14.0125 -12.8490 -2.3119 0.9263
-13.8456 -13.0148 -2.3107 0.9263
-13.7615 -13.0970 -2.3102 0.9263
-13.5918 -13.2597 -2.3091 0.9263
-13.4203 -13.4204 -2.3079 0.9264
-13.3339 -13.4999 -2.3074 0.9264
-12.9837 -13.8127 -2.3052 0.9265
-12.8951 -13.8895 -2.3047 0.9265
-12.7165 -14.0415 -2.3036 0.9265
-12.6266 -14.1167 -2.3031 0.9265
-12.3543 -14.3389 -2.3016 0.9266
-12.0783 -14.5561 -2.3001 0.9266
-11.9854 -14.6274 -2.2996 0.9266
-11.7046 -14.8378 -2.2981 0.9267
-11.6102 -14.9068 -2.2977 0.9267
-11.4203 -15.0431 -2.2967 0.9267
-10.9388 -15.3737 -2.2944 0.9268
-10.8414 -15.4379 -2.2940 0.9268
-10.4483 -15.6896 -2.2922 0.9269
-10.2497 -15.8117 -2.2914 0.9269
-10.0497 -15.9315 -2.2906 0.9269
-9.7473 -16.1067 -2.2894 0.9269
-9.6458 -16.1639 -2.2890 0.9270
-9.5440 -16.2204 -2.2886 0.9270
-9.4419 -16.2764 -2.2882 0.9270
-9.0305 -16.4940 -2.2867 0.9270
-8.7188 -16.6508 -2.2856 0.9271
-7.9817 -16.9948 -2.2832 0.9271
-7.8754 -17.0415 -2.2829 0.9271
-7.7688 -17.0875 -2.2826 0.9272
-7.6619 -17.1328 -2.2823 0.9272
-7.5548 -17.1776 -2.2819 0.9272
-7.4474 -17.2216 -2.2816 0.9272
-7.3398 -17.2651 -2.2813 0.9272
-7.2319 -17.3079 -2.2810 0.9272
-7.1238 -17.3500 -2.2807 0.9272
-7.0155 -17.3916 -2.2805 0.9272
-6.9070 -17.4325 -2.2802 0.9272
-6.5800 -17.5513 -2.2794 0.9273
-6.4706 -17.5896 -2.2791 0.9273
-6.0308 -17.7363 -2.2781 0.9273
-5.9204 -17.7714 -2.2778 0.9273
-5.8098 -17.8058 -2.2776 0.9273
-5.6990 -17.8395 -2.2774 0.9273
-5.5880 -17.8726 -2.2771 0.9273
-5.4768 -17.9051 -2.2769 0.9273
-5.2539 -17.9680 -2.2765 0.9273
-5.1422 -17.9985 -2.2762 0.9273
-5.0304 -18.0283 -2.2760 0.9274
-4.6938 -18.1138 -2.2754 0.9274
-4.5813 -18.1410 -2.2753 0.9274
-4.4687 -18.1674 -2.2751 0.9274
-4.2430 -18.2185 -2.2747 0.9274
-4.0168 -18.2669 -2.2744 0.9274
-3.9035 -18.2901 -2.2742 0.9274
-3.7900 -18.3126 -2.2741 0.9274
-3.5627 -18.3557 -2.2738 0.9274
-2.9927 -18.4516 -2.2731 0.9274
-2.8784 -18.4688 -2.2730 0.9274
-2.7640 -18.4853 -2.2729 0.9275
-2.0758 -18.5703 -2.2723 0.9275
-1.8458 -18.5932 -2.2721 0.9275
-1.7307 -18.6037 -2.2720 0.9275
-1.6156 -18.6134 -2.2720 0.9275
-1.2699 -18.6388 -2.2718 0.9275
-1.1546 -18.6458 -2.2717 0.9275
-0.8084 -18.6630 -2.2716 0.9275
-0.5775 -18.6712 -2.2716 0.9275
-0.4620 -18.6742 -2.2715 0.9275
-0.2050 -16.5737 -2.0156 0.9354
-0.1155 -18.6792 -2.2715 0.9275
0.1024 -16.5620 -2.0140 0.9354
0.2050 -16.5731 -2.0155 0.9354
0.3071 -16.5503 -2.0129 0.9355
0.5116 -16.5384 -2.0121 0.9355
0.9340 -16.7629 -2.0416 0.9346
1.0374 -16.7534 -2.0412 0.9346
1.2450 -16.7451 -2.0419 0.9346
1.5561 -16.7273 -2.0429 0.9345
1.7639 -16.7156 -2.0440 0.9345
1.8678 -16.7094 -2.0446 0.9345
2.0758 -16.6975 -2.0461 0.9344
2.1800 -16.6916 -2.0470 0.9344
2.7686 -16.4268 -2.0257 0.9351
2.8722 -16.4209 -2.0272 0.9350
2.9729 -16.3988 -2.0266 0.9350
3.1872 -16.4208 -2.0341 0.9348
3.3002 -16.4584 -2.0412 0.9346
4.0167 -18.2663 -2.2743 0.9274
4.4686 -18.1668 -2.2750 0.9274
4.8060 -18.0852 -2.2755 0.9274
5.2537 -17.9672 -2.2764 0.9273
5.3652 -17.9360 -2.2766 0.9273
5.5877 -17.8718 -2.2770 0.9273
6.1408 -17.6997 -2.2782 0.9273
6.2508 -17.6633 -2.2784 0.9273
6.3606 -17.6262 -2.2787 0.9273
6.5796 -17.5503 -2.2792 0.9273
6.6889 -17.5113 -2.2795 0.9272
6.7978 -17.4717 -2.2798 0.9272
6.9065 -17.4314 -2.2800 0.9272
7.0151 -17.3905 -2.2803 0.9272
7.2315 -17.3068 -2.2809 0.9272
7.3393 -17.2640 -2.2812 0.9272
7.5543 -17.1765 -2.2818 0.9272
7.6614 -17.1317 -2.2821 0.9272
7.9812 -16.9937 -2.2831 0.9271
8.0873 -16.9464 -2.2834 0.9271
8.1931 -16.8985 -2.2837 0.9271
8.4040 -16.8008 -2.2844 0.9271
8.5090 -16.7511 -2.2847 0.9271
8.6137 -16.7007 -2.2851 0.9271
8.7182 -16.6496 -2.2854 0.9271
8.8223 -16.5980 -2.2858 0.9271
8.9262 -16.5457 -2.2861 0.9270
9.0298 -16.4928 -2.2865 0.9270
9.5433 -16.2191 -2.2884 0.9270
9.6450 -16.1626 -2.2888 0.9270
9.7465 -16.1054 -2.2892 0.9270
10.0489 -15.9302 -2.2904 0.9269
10.4474 -15.6881 -2.2920 0.9269
10.5462 -15.6261 -2.2925 0.9269
10.6446 -15.5636 -2.2929 0.9268
10.7427 -15.5003 -2.2933 0.9268
11.1315 -15.2417 -2.2951 0.9268
11.2277 -15.1756 -2.2956 0.9268
11.4192 -15.0417 -2.2965 0.9267
11.7034 -14.8363 -2.2979 0.9267
11.7974 -14.7668 -2.2984 0.9267
11.8910 -14.6966 -2.2989 0.9267
11.9842 -14.6259 -2.2994 0.9266
12.0770 -14.5546 -2.2999 0.9266
12.3530 -14.3374 -2.3013 0.9266
12.4441 -14.2638 -2.3019 0.9266
13.0705 -13.7337 -2.3055 0.9264
13.3324 -13.4984 -2.3071 0.9264
13.4188 -13.4188 -2.3077 0.9264
13.8440 -13.0133 -2.3105 0.9263
14.0108 -12.8474 -2.3116 0.9263
14.4195 -12.4238 -2.3145 0.9262
14.4998 -12.3376 -2.3151 0.9262
14.6589 -12.1636 -2.3163 0.9261
14.7377 -12.0759 -2.3169 0.9261
14.8159 -11.9877 -2.3175 0.9261
15.0478 -11.7201 -2.3194 0.9260
15.3496 -11.3565 -2.3219 0.9259
15.7151 -10.8916 -2.3251 0.9258
15.7865 -10.7972 -2.3258 0.9258
15.9278 -10.6071 -2.3271 0.9258
16.1357 -10.3186 -2.3291 0.9257
16.2714 -10.1241 -2.3304 0.9257
16.3384 -10.0262 -2.3311 0.9257
16.6009 -9.6302 -2.3338 0.9256
16.7286 -9.4297 -2.3352 0.9255
16.7916 -9.3289 -2.3359 0.9255
17.0977 -8.8186 -2.3394 0.9254
17.2742 -8.5077 -2.3415 0.9253
17.3318 -8.4033 -2.3423 0.9253
17.3888 -8.2985 -2.3430 0.9253
17.5561 -7.9819 -2.3452 0.9252
17.6106 -7.8756 -2.3459 0.9252
17.6645 -7.7690 -2.3466 0.9252
17.8739 -7.3389 -2.3496 0.9251
17.9245 -7.2306 -2.3504 0.9251
17.9747 -7.1219 -2.3511 0.9251
18.0242 -7.0128 -2.3519 0.9250
