ply
format ascii 1.0
element vertex 1594
property float32 x
property float32 y
property float32 z
property float32 I
end_header
-0.6285 1.7416 -0.7897 0.9920
-0.6406 1.7415 -0.7914 0.9920
-0.6529 1.7415 -0.7932 0.9919
-0.6900 1.7414 -0.7989 0.9919
-0.7402 1.7412 -0.8070 0.9918
-0.7530 1.7412 -0.8091 0.9918
-0.7658 1.7412 -0.8113 0.9918
-0.8046 1.7410 -0.8180 0.9917
-0.8177 1.7410 -0.8204 0.9917
-0.8441 1.7409 -0.8252 0.9916
-0.8574 1.7409 -0.8277 0.9916
-0.8708 1.7409 -0.8302 0.9916
-0.9253 1.7408 -0.8408 0.9915
-0.9530 1.7407 -0.8464 0.9914
-0.9671 1.7407 -0.8493 0.9914
-0.9954 1.7406 -0.8552 0.9913
-1.0097 1.7406 -0.8582 0.9913
-1.0387 1.7405 -0.8645 0.9912
-1.0829 1.7404 -0.8742 0.9911
-1.1434 1.7402 -0.8881 0.9910
-1.1744 1.7401 -0.8954 0.9909
-1.1901 1.7401 -0.8991 0.9909
-1.2060 1.7401 -0.9030 0.9908
-1.2219 1.7400 -0.9068 0.9908
-1.2872 1.7398 -0.9231 0.9906
-1.3039 1.7398 -0.9273 0.9906
-1.3208 1.7398 -0.9316 0.9905
-1.3378 1.7397 -0.9360 0.9905
-1.3550 1.7397 -0.9405 0.9905
-1.3723 1.7396 -0.9450 0.9904
-1.4075 1.7395 -0.9544 0.9903
-1.4253 1.7395 -0.9591 0.9903
-1.4434 1.7395 -0.9640 0.9902
-1.4616 1.7394 -0.9690 0.9902
-1.4986 1.7393 -0.9792 0.9901
-1.5174 1.7393 -0.9844 0.9900
-1.5364 1.7392 -0.9898 0.9900
-1.5750 1.7391 -1.0007 0.9898
-1.5947 1.7391 -1.0063 0.9898
-1.6145 1.7390 -1.0121 0.9897
-1.6346 1.7390 -1.0179 0.9897
-1.7174 1.7388 -1.0424 0.9894
-1.7822 1.7386 -1.0619 0.9892
-1.8268 1.7386 -1.0756 0.9891
-1.8725 1.7384 -1.0897 0.9890
-1.9194 1.7383 -1.1045 0.9888
-2.1571 1.7899 -1.1955 0.9879
-2.1841 1.7896 -1.2043 0.9878
-2.3256 1.7883 -1.2512 0.9873
-2.4160 1.7875 -1.2818 0.9870
-2.4471 1.7872 -1.2924 0.9869
-2.4788 1.7869 -1.3033 0.9868
-2.5109 1.7866 -1.3143 0.9867
-2.5770 1.7860 -1.3372 0.9865
-2.6804 1.7850 -1.3735 0.9861
-2.7162 1.7847 -1.3862 0.9860
-2.9054 1.7829 -1.4539 0.9853
-3.1030 1.8258 -1.5356 0.9845
-3.1001 1.7729 -1.5231 0.9846
-3.1532 1.7263 -1.5332 0.9845
-3.2943 1.7250 -1.5860 0.9840
-3.6081 1.7219 -1.7051 0.9828
-3.7235 1.7207 -1.7495 0.9823
-3.8451 1.7196 -1.7965 0.9818
-3.9084 1.7189 -1.8210 0.9816
-3.9734 1.7183 -1.8464 0.9814
-5.2256 2.1079 -2.4032 0.9758
-5.2758 1.9779 -2.4031 0.9758
-5.2878 1.9452 -2.4030 0.9758
-5.3227 1.8467 -2.4029 0.9758
-5.3558 1.7475 -2.4028 0.9758
-5.3970 1.6144 -2.4026 0.9758
-5.4068 1.5809 -2.4026 0.9758
-5.4349 1.4803 -2.4024 0.9758
-5.4438 1.4466 -2.4024 0.9758
-5.4526 1.4129 -2.4023 0.9758
-5.4611 1.3791 -2.4023 0.9758
-5.4855 1.2775 -2.4022 0.9758
-5.5006 1.2095 -2.4021 0.9758
-5.5079 1.1754 -2.4020 0.9758
-5.5585 0.9015 -2.4017 0.9758
-5.5639 0.8671 -2.4016 0.9758
-5.5690 0.8326 -2.4016 0.9758
-5.5739 0.7982 -2.4016 0.9758
-5.5832 0.7292 -2.4015 0.9758
-5.5954 0.6254 -2.4013 0.9758
-5.5991 0.5908 -2.4013 0.9758
-5.6142 0.4174 -2.4011 0.9758
-5.6187 0.3479 -2.4010 0.9758
-5.6224 0.2784 -2.4009 0.9758
-5.6239 0.2436 -2.4008 0.9758
-5.6252 0.2088 -2.4008 0.9758
-5.6277 0.1044 -2.4007 0.9758
-5.6282 0.0696 -2.4006 0.9758
-5.5144 -0.0342 -2.4005 0.9762
-5.5133 -0.1023 -2.4004 0.9762
-5.5125 -0.1364 -2.4003 0.9762
-5.5102 -0.2046 -2.4003 0.9762
-5.5087 -0.2387 -2.4002 0.9762
-5.5070 -0.2727 -2.4002 0.9762
-5.4954 -0.4428 -2.3999 0.9762
-5.4893 -0.5107 -2.3999 0.9762
-5.4786 -0.6124 -2.3997 0.9762
-5.4746 -0.6463 -2.3997 0.9762
-5.4704 -0.6801 -2.3996 0.9762
-5.4660 -0.7139 -2.3996 0.9762
-5.4614 -0.7477 -2.3996 0.9762
-5.4515 -0.8152 -2.3995 0.9762
-5.4408 -0.8825 -2.3994 0.9762
-5.4293 -0.9497 -2.3993 0.9762
-5.4170 -1.0167 -2.3992 0.9762
-5.4038 -1.0836 -2.3991 0.9762
-5.3969 -1.1170 -2.3991 0.9762
-5.3898 -1.1503 -2.3990 0.9762
-5.3825 -1.1836 -2.3990 0.9762
-5.3428 -1.3493 -2.3988 0.9762
-5.3343 -1.3823 -2.3987 0.9762
-5.3166 -1.4481 -2.3986 0.9762
-5.2885 -1.5464 -2.3985 0.9762
-5.2788 -1.5791 -2.3985 0.9762
-5.2688 -1.6117 -2.3984 0.9762
-5.2483 -1.6766 -2.3984 0.9763
-5.2270 -1.7413 -2.3983 0.9763
-5.1819 -1.8699 -2.3981 0.9763
-5.1461 -1.9657 -2.3980 0.9763
-5.1212 -2.0291 -2.3979 0.9763
-5.1085 -2.0607 -2.3979 0.9763
-5.0691 -2.1550 -2.3977 0.9763
-5.0556 -2.1863 -2.3977 0.9763
-5.0139 -2.2796 -2.3976 0.9763
-4.9996 -2.3105 -2.3975 0.9763
-4.9852 -2.3413 -2.3975 0.9763
-4.9705 -2.3721 -2.3974 0.9763
-4.9406 -2.4333 -2.3974 0.9763
-4.9100 -2.4942 -2.3973 0.9763
-4.8626 -2.5847 -2.3972 0.9763
-4.8301 -2.6445 -2.3971 0.9763
-4.7969 -2.7040 -2.3970 0.9763
-4.7800 -2.7336 -2.3970 0.9763
-4.7629 -2.7630 -2.3969 0.9763
-4.7283 -2.8216 -2.3969 0.9763
-4.6928 -2.8798 -2.3968 0.9763
-4.6749 -2.9087 -2.3968 0.9763
-4.6199 -2.9948 -2.3966 0.9763
-4.6012 -3.0233 -2.3966 0.9763
-4.5824 -3.0517 -2.3966 0.9763
-4.5248 -3.1360 -2.3965 0.9763
-4.4049 -3.3014 -2.3962 0.9763
-4.3843 -3.3285 -2.3962 0.9763
-4.3217 -3.4091 -2.3961 0.9763
-4.3004 -3.4357 -2.3961 0.9763
-4.2575 -3.4886 -2.3960 0.9763
-4.1919 -3.5668 -2.3959 0.9763
-4.1697 -3.5926 -2.3959 0.9763
-4.1248 -3.6438 -2.3958 0.9763
-4.1021 -3.6692 -2.3958 0.9763
-4.0793 -3.6944 -2.3957 0.9763
-4.0563 -3.7195 -2.3957 0.9763
-4.0332 -3.7445 -2.3957 0.9763
-3.9152 -3.8671 -2.3955 0.9763
-3.8912 -3.8912 -2.3955 0.9763
-3.8670 -3.9152 -2.3954 0.9763
-3.8182 -3.9626 -2.3954 0.9763
-3.7936 -3.9861 -2.3954 0.9763
-3.7439 -4.0326 -2.3953 0.9763
-3.6936 -4.0784 -2.3952 0.9763
-3.6683 -4.1012 -2.3952 0.9763
-3.6428 -4.1237 -2.3952 0.9763
-3.6172 -4.1461 -2.3951 0.9763
-3.5914 -4.1684 -2.3951 0.9763
-3.5656 -4.1905 -2.3951 0.9763
-3.5395 -4.2124 -2.3951 0.9763
-3.5134 -4.2341 -2.3950 0.9763
-3.4871 -4.2558 -2.3950 0.9763
-3.4341 -4.2985 -2.3949 0.9763
-3.4074 -4.3195 -2.3949 0.9763
-3.2994 -4.4023 -2.3948 0.9763
-3.2720 -4.4226 -2.3948 0.9763
-3.2446 -4.4427 -2.3948 0.9763
-3.1615 -4.5020 -2.3947 0.9763
-3.1336 -4.5214 -2.3947 0.9763
-3.0774 -4.5597 -2.3946 0.9763
-3.0491 -4.5786 -2.3946 0.9763
-3.0207 -4.5973 -2.3946 0.9763
-2.9921 -4.6158 -2.3945 0.9763
-2.9059 -4.6704 -2.3945 0.9763
-2.8187 -4.7234 -2.3944 0.9763
-2.7894 -4.7407 -2.3944 0.9763
-2.7305 -4.7747 -2.3943 0.9763
-2.6414 -4.8244 -2.3943 0.9763
-2.5815 -4.8567 -2.3942 0.9763
-2.5514 -4.8725 -2.3942 0.9763
-2.4909 -4.9036 -2.3941 0.9763
-2.4605 -4.9188 -2.3941 0.9763
-2.4300 -4.9339 -2.3941 0.9763
-2.3687 -4.9635 -2.3941 0.9763
-2.3380 -4.9780 -2.3941 0.9763
-2.2762 -5.0065 -2.3940 0.9763
-2.2452 -5.0204 -2.3940 0.9763
-2.2141 -5.0342 -2.3940 0.9763
-2.1829 -5.0478 -2.3940 0.9763
-2.1516 -5.0611 -2.3939 0.9763
-2.1202 -5.0743 -2.3939 0.9763
-2.0573 -5.1000 -2.3939 0.9763
-1.9940 -5.1250 -2.3939 0.9763
-1.9304 -5.1492 -2.3938 0.9763
-1.8664 -5.1727 -2.3938 0.9763
-1.8023 -5.1953 -2.3938 0.9763
-1.7702 -5.2063 -2.3938 0.9763
-1.6734 -5.2382 -2.3937 0.9763
-1.6084 -5.2584 -2.3937 0.9763
-1.5433 -5.2778 -2.3937 0.9763
-1.4779 -5.2964 -2.3936 0.9763
-1.4122 -5.3143 -2.3936 0.9763
-1.3134 -5.3395 -2.3936 0.9763
-1.1809 -5.3702 -2.3935 0.9763
-1.1476 -5.3774 -2.3935 0.9763
-1.0810 -5.3912 -2.3935 0.9763
-1.0477 -5.3977 -2.3935 0.9763
-0.9808 -5.4102 -2.3935 0.9763
-0.9473 -5.4162 -2.3935 0.9763
-0.8131 -5.4379 -2.3934 0.9763
-0.6783 -5.4562 -2.3934 0.9763
-0.6446 -5.4604 -2.3934 0.9763
-0.6108 -5.4642 -2.3934 0.9763
-0.5768 -5.4679 -2.3934 0.9763
-0.5431 -5.4713 -2.3934 0.9763
-0.4415 -5.4804 -2.3934 0.9763
-0.4077 -5.4831 -2.3934 0.9763
-0.2719 -5.4914 -2.3934 0.9763
-0.2379 -5.4930 -2.3934 0.9763
-0.1360 -5.4965 -2.3934 0.9763
-0.1020 -5.4972 -2.3934 0.9763
-0.0680 -5.4977 -2.3934 0.9763
-0.0340 -5.4980 -2.3934 0.9763
0.0340 -5.4980 -2.3934 0.9763
0.0680 -5.4977 -2.3934 0.9763
0.1020 -5.4972 -2.3934 0.9763
0.1700 -5.4955 -2.3934 0.9763
0.2040 -5.4944 -2.3934 0.9763
0.3059 -5.4896 -2.3934 0.9763
0.3398 -5.4877 -2.3934 0.9763
0.4076 -5.4830 -2.3934 0.9763
0.5431 -5.4713 -2.3934 0.9763
0.6446 -5.4603 -2.3934 0.9763
0.6783 -5.4562 -2.3934 0.9763
0.7121 -5.4519 -2.3934 0.9763
0.7457 -5.4474 -2.3934 0.9763
0.8467 -5.4327 -2.3934 0.9763
0.8803 -5.4274 -2.3934 0.9763
0.9473 -5.4161 -2.3934 0.9763
0.9808 -5.4102 -2.3935 0.9763
1.0142 -5.4040 -2.3935 0.9763
1.0477 -5.3976 -2.3935 0.9763
1.1143 -5.3843 -2.3935 0.9763
1.1476 -5.3774 -2.3935 0.9763
1.2472 -5.3552 -2.3935 0.9763
1.3133 -5.3394 -2.3935 0.9763
1.3463 -5.3312 -2.3936 0.9763
1.3794 -5.3228 -2.3936 0.9763
1.4123 -5.3142 -2.3936 0.9763
1.4778 -5.2964 -2.3936 0.9763
1.5105 -5.2872 -2.3936 0.9763
1.5432 -5.2777 -2.3936 0.9763
1.6084 -5.2583 -2.3936 0.9763
1.6409 -5.2483 -2.3937 0.9763
1.7380 -5.2170 -2.3937 0.9763
1.7702 -5.2062 -2.3937 0.9763
1.8024 -5.1952 -2.3937 0.9763
1.9304 -5.1491 -2.3938 0.9763
1.9940 -5.1250 -2.3938 0.9763
2.0574 -5.0999 -2.3938 0.9763
2.1200 -5.0742 -2.3939 0.9763
2.1828 -5.0477 -2.3939 0.9763
2.2451 -5.0204 -2.3939 0.9763
2.3071 -4.9923 -2.3940 0.9763
2.3379 -4.9779 -2.3940 0.9763
2.3687 -4.9634 -2.3940 0.9763
2.3993 -4.9487 -2.3940 0.9763
2.4299 -4.9338 -2.3941 0.9763
2.4604 -4.9187 -2.3941 0.9763
2.4908 -4.9035 -2.3941 0.9763
2.6711 -4.8079 -2.3942 0.9763
2.7008 -4.7914 -2.3942 0.9763
2.7599 -4.7577 -2.3943 0.9763
2.7893 -4.7406 -2.3943 0.9763
2.8478 -4.7058 -2.3943 0.9763
2.8769 -4.6881 -2.3944 0.9763
2.9347 -4.6523 -2.3944 0.9763
2.9921 -4.6157 -2.3945 0.9763
3.0490 -4.5785 -2.3945 0.9763
3.0773 -4.5596 -2.3945 0.9763
3.1054 -4.5405 -2.3946 0.9763
3.1614 -4.5018 -2.3946 0.9763
3.2445 -4.4425 -2.3947 0.9763
3.4340 -4.2983 -2.3949 0.9763
3.5394 -4.2122 -2.3950 0.9763
3.5654 -4.1903 -2.3950 0.9763
3.5913 -4.1682 -2.3950 0.9763
3.7187 -4.0555 -2.3952 0.9763
3.7437 -4.0324 -2.3952 0.9763
3.8180 -3.9624 -2.3953 0.9763
3.8425 -3.9388 -2.3953 0.9763
3.9151 -3.8670 -2.3954 0.9763
3.9390 -3.8428 -2.3954 0.9763
3.9863 -3.7938 -2.3955 0.9763
4.0330 -3.7444 -2.3956 0.9763
4.0561 -3.7194 -2.3956 0.9763
4.0791 -3.6943 -2.3956 0.9763
4.1019 -3.6690 -2.3957 0.9763
4.1471 -3.6181 -2.3957 0.9763
4.1695 -3.5924 -2.3958 0.9763
4.1917 -3.5666 -2.3958 0.9763
4.2356 -3.5146 -2.3959 0.9763
4.2573 -3.4884 -2.3959 0.9763
4.2789 -3.4621 -2.3959 0.9763
4.3002 -3.4356 -2.3960 0.9763
4.3425 -3.3822 -2.3960 0.9763
4.3841 -3.3284 -2.3961 0.9763
4.4047 -3.3012 -2.3961 0.9763
4.4654 -3.2191 -2.3962 0.9763
4.5050 -3.1637 -2.3963 0.9763
4.5246 -3.1359 -2.3964 0.9763
4.5439 -3.1078 -2.3964 0.9763
4.5821 -3.0515 -2.3965 0.9763
4.6010 -3.0231 -2.3965 0.9763
4.7280 -2.8215 -2.3968 0.9763
4.7455 -2.7922 -2.3968 0.9763
4.8134 -2.6742 -2.3969 0.9763
4.8299 -2.6445 -2.3970 0.9763
4.8624 -2.5846 -2.3971 0.9763
4.9097 -2.4940 -2.3972 0.9763
4.9252 -2.4637 -2.3972 0.9763
4.9849 -2.3412 -2.3974 0.9763
4.9994 -2.3104 -2.3974 0.9763
5.0137 -2.2795 -2.3975 0.9763
5.0277 -2.2484 -2.3975 0.9763
5.0553 -2.1862 -2.3976 0.9763
5.1082 -2.0606 -2.3977 0.9763
5.1209 -2.0290 -2.3978 0.9763
5.1335 -1.9974 -2.3978 0.9763
5.1458 -1.9656 -2.3979 0.9763
5.1580 -1.9338 -2.3979 0.9763
5.1699 -1.9019 -2.3979 0.9763
5.1817 -1.8699 -2.3980 0.9763
5.1932 -1.8378 -2.3980 0.9763
5.2046 -1.8057 -2.3981 0.9763
5.2267 -1.7413 -2.3982 0.9763
5.2374 -1.7090 -2.3982 0.9763
5.2480 -1.6766 -2.3982 0.9763
5.2685 -1.6116 -2.3983 0.9763
5.2882 -1.5463 -2.3984 0.9763
5.2978 -1.5137 -2.3984 0.9762
5.3072 -1.4809 -2.3985 0.9762
5.3163 -1.4481 -2.3985 0.9762
5.3252 -1.4152 -2.3986 0.9762
5.3425 -1.3492 -2.3987 0.9762
5.3590 -1.2831 -2.3987 0.9762
5.3669 -1.2500 -2.3988 0.9762
5.3746 -1.2168 -2.3988 0.9762
5.3895 -1.1503 -2.3989 0.9762
5.4035 -1.0835 -2.3990 0.9762
5.4229 -0.9832 -2.3991 0.9762
5.4290 -0.9496 -2.3992 0.9762
5.4405 -0.8825 -2.3993 0.9762
5.4513 -0.8151 -2.3993 0.9762
5.4563 -0.7814 -2.3994 0.9762
5.4611 -0.7477 -2.3994 0.9762
5.4821 -0.5785 -2.3997 0.9762
5.4890 -0.5107 -2.3997 0.9762
5.4922 -0.4768 -2.3998 0.9762
5.5004 -0.3748 -2.3999 0.9762
5.5027 -0.3408 -2.4000 0.9762
5.5048 -0.3067 -2.4000 0.9762
5.5084 -0.2387 -2.4001 0.9762
5.5099 -0.2046 -2.4001 0.9762
5.5130 -0.1023 -2.4003 0.9762
5.5143 -0.0000 -2.4004 0.9762
5.5098 0.2386 -2.4007 0.9762
5.5083 0.2727 -2.4008 0.9762
5.5066 0.3068 -2.4008 0.9762
5.5026 0.3749 -2.4009 0.9762
5.4921 0.5109 -2.4011 0.9762
5.4655 0.7482 -2.4014 0.9762
5.4609 0.7820 -2.4014 0.9762
5.4560 0.8158 -2.4015 0.9762
5.4510 0.8495 -2.4015 0.9762
5.4457 0.8832 -2.4015 0.9762
5.4287 0.9841 -2.4017 0.9762
5.4163 1.0512 -2.4018 0.9762
5.4098 1.0847 -2.4018 0.9762
5.3962 1.1516 -2.4019 0.9762
5.3890 1.1850 -2.4019 0.9762
5.3742 1.2516 -2.4020 0.9762
5.3664 1.2848 -2.4021 0.9762
5.3419 1.3843 -2.4022 0.9762
5.3334 1.4173 -2.4022 0.9762
5.3246 1.4502 -2.4023 0.9762
5.3064 1.5160 -2.4024 0.9762
5.2575 1.6795 -2.4026 0.9762
5.2257 1.7769 -2.4027 0.9762
5.2147 1.8092 -2.4027 0.9762
5.2035 1.8414 -2.4028 0.9762
5.1921 1.8736 -2.4028 0.9762
5.1805 1.9057 -2.4029 0.9762
5.1567 1.9697 -2.4029 0.9762
5.1322 2.0334 -2.4030 0.9762
5.1196 2.0651 -2.4031 0.9762
5.1068 2.0968 -2.4031 0.9762
5.0938 2.1284 -2.4032 0.9762
5.0806 2.1599 -2.4032 0.9762
5.0537 2.2226 -2.4033 0.9762
5.0119 2.3161 -2.4034 0.9762
3.7438 1.8152 -1.8112 0.9820
3.5156 1.8133 -1.7219 0.9829
3.4620 1.8128 -1.7012 0.9831
3.3586 1.8120 -1.6612 0.9835
3.3087 1.8115 -1.6421 0.9837
3.2123 1.8107 -1.6052 0.9840
3.1657 1.8104 -1.5875 0.9842
3.0754 1.8096 -1.5533 0.9846
2.9471 1.8085 -1.5052 0.9850
2.9061 1.8082 -1.4899 0.9852
2.8659 1.8078 -1.4750 0.9853
2.7878 1.8072 -1.4462 0.9856
2.7221 1.8371 -1.4296 0.9858
2.5276 1.7750 -1.3445 0.9866
2.4938 1.7744 -1.3323 0.9867
2.4606 1.7738 -1.3204 0.9869
2.4280 1.7733 -1.3088 0.9870
2.3960 1.7727 -1.2974 0.9871
2.3645 1.7721 -1.2863 0.9872
2.2438 1.7700 -1.2441 0.9876
2.1864 1.7690 -1.2243 0.9878
2.1308 1.7681 -1.2053 0.9880
2.1036 1.7676 -1.1961 0.9881
2.0504 1.7666 -1.1781 0.9883
2.0244 1.7661 -1.1695 0.9883
1.9988 1.7657 -1.1609 0.9884
1.9735 1.7652 -1.1526 0.9885
1.9486 1.7647 -1.1444 0.9886
1.8760 1.7635 -1.1208 0.9888
1.8293 1.7626 -1.1058 0.9890
1.8063 1.7621 -1.0985 0.9891
1.7835 1.7615 -1.0912 0.9891
1.6746 1.7596 -1.0574 0.9895
1.6537 1.7593 -1.0511 0.9895
1.6331 1.7590 -1.0448 0.9896
1.6126 1.7587 -1.0387 0.9896
1.5725 1.7581 -1.0268 0.9898
1.5528 1.7578 -1.0210 0.9898
1.5140 1.7572 -1.0097 0.9899
1.4761 1.7567 -0.9988 0.9900
1.4574 1.7564 -0.9935 0.9901
1.4389 1.7561 -0.9883 0.9901
1.3847 1.7553 -0.9732 0.9903
1.3494 1.7548 -0.9636 0.9904
1.3320 1.7546 -0.9589 0.9904
1.2978 1.7541 -0.9498 0.9905
1.2476 1.7534 -0.9367 0.9907
1.1828 1.7525 -0.9204 0.9908
1.1512 1.7520 -0.9126 0.9909
1.1201 1.7516 -0.9051 0.9910
1.1048 1.7514 -0.9014 0.9910
1.0595 1.7508 -0.8908 0.9911
1.0447 1.7506 -0.8874 0.9911
1.0153 1.7502 -0.8808 0.9912
0.9864 1.7498 -0.8744 0.9913
0.9720 1.7496 -0.8713 0.9913
0.9578 1.7495 -0.8682 0.9913
0.9297 1.7491 -0.8623 0.9914
0.9019 1.7487 -0.8565 0.9915
0.8882 1.7486 -0.8537 0.9915
0.8746 1.7484 -0.8510 0.9915
0.8475 1.7480 -0.8457 0.9916
0.8341 1.7479 -0.8431 0.9916
0.8208 1.7477 -0.8405 0.9916
0.8076 1.7476 -0.8381 0.9916
0.7686 1.7475 -0.8310 0.9917
0.7301 1.7473 -0.8244 0.9918
0.7174 1.7473 -0.8222 0.9918
0.6304 1.7469 -0.8084 0.9919
0.6061 1.7468 -0.8049 0.9920
0.5699 1.7467 -0.7998 0.9920
0.4757 1.7463 -0.7879 0.9921
0.4525 1.7462 -0.7853 0.9922
0.4410 1.7462 -0.7840 0.9922
0.4181 1.7461 -0.7816 0.9922
0.3953 1.7460 -0.7793 0.9922
0.3839 1.7460 -0.7782 0.9922
0.3726 1.7459 -0.7771 0.9922
0.3613 1.7458 -0.7761 0.9923
0.3165 1.7456 -0.7723 0.9923
0.3053 1.7456 -0.7714 0.9923
0.2831 1.7455 -0.7697 0.9923
0.2720 1.7454 -0.7690 0.9923
0.2610 1.7454 -0.7682 0.9923
0.2389 1.7453 -0.7668 0.9923
0.2279 1.7452 -0.7662 0.9924
0.2170 1.7452 -0.7655 0.9924
0.1732 1.7450 -0.7633 0.9924
0.1514 1.7449 -0.7624 0.9924
0.1406 1.7448 -0.7620 0.9924
0.1189 1.7447 -0.7613 0.9924
0.1080 1.7447 -0.7609 0.9924
0.0972 1.7446 -0.7606 0.9924
0.0864 1.7446 -0.7604 0.9924
0.0432 1.7444 -0.7596 0.9924
0.0324 1.7444 -0.7595 0.9924
0.0216 1.7443 -0.7594 0.9924
-0.0108 1.7442 -0.7593 0.9924
-0.0216 1.7441 -0.7593 0.9924
-0.0324 1.7441 -0.7593 0.9924
-0.0539 1.7440 -0.7595 0.9924
-0.0647 1.7439 -0.7597 0.9924
-0.0755 1.7439 -0.7598 0.9924
-0.0863 1.7438 -0.7600 0.9924
-0.1080 1.7437 -0.7605 0.9924
-0.1188 1.7437 -0.7608 0.9924
-0.1513 1.7436 -0.7619 0.9924
-0.1622 1.7436 -0.7623 0.9924
-0.1731 1.7435 -0.7627 0.9924
-0.1840 1.7435 -0.7632 0.9924
-0.2277 1.7433 -0.7653 0.9924
-0.2387 1.7433 -0.7659 0.9924
-0.2496 1.7432 -0.7666 0.9923
-0.2827 1.7431 -0.7687 0.9923
-0.2938 1.7430 -0.7695 0.9923
-0.3160 1.7429 -0.7711 0.9923
-0.3383 1.7429 -0.7728 0.9923
-0.3495 1.7428 -0.7738 0.9923
-0.4172 1.7426 -0.7800 0.9922
-0.4286 1.7425 -0.7811 0.9922
-0.4401 1.7425 -0.7823 0.9922
-0.4515 1.7424 -0.7835 0.9922
-0.4746 1.7423 -0.7861 0.9922
-0.4862 1.7423 -0.7874 0.9921
-0.4978 1.7423 -0.7888 0.9921
-0.5447 1.7421 -0.7946 0.9921
-0.5803 1.7420 -0.7993 0.9920
-0.6043 1.7419 -0.8026 0.9920
-0.6164 1.7419 -0.8043 0.9920
-0.6286 1.7418 -0.8061 0.9920
-0.6653 1.7417 -0.8116 0.9919
-0.6901 1.7416 -0.8155 0.9919
-0.7025 1.7416 -0.8175 0.9918
-0.7277 1.7415 -0.8216 0.9918
-0.7531 1.7415 -0.8259 0.9918
-0.7917 1.7414 -0.8327 0.9917
-0.8047 1.7413 -0.8350 0.9917
-0.8178 1.7413 -0.8374 0.9916
-0.8310 1.7412 -0.8399 0.9916
-0.8442 1.7412 -0.8423 0.9916
-0.8575 1.7412 -0.8449 0.9916
-0.8709 1.7411 -0.8475 0.9915
-0.8844 1.7411 -0.8501 0.9915
-0.9116 1.7410 -0.8555 0.9915
-0.9671 1.7408 -0.8669 0.9913
-0.9813 1.7408 -0.8699 0.9913
-1.0242 1.7407 -0.8792 0.9912
-1.0681 1.7405 -0.8890 0.9911
-1.0829 1.7405 -0.8923 0.9911
-1.0979 1.7405 -0.8958 0.9911
-1.1130 1.7404 -0.8993 0.9910
-1.1745 1.7403 -0.9139 0.9909
-1.1902 1.7402 -0.9178 0.9908
-1.2061 1.7402 -0.9217 0.9908
-1.2220 1.7401 -0.9256 0.9908
-1.2381 1.7401 -0.9297 0.9907
-1.2544 1.7400 -0.9338 0.9907
-1.2708 1.7400 -0.9379 0.9906
-1.2873 1.7400 -0.9422 0.9906
-1.3040 1.7399 -0.9465 0.9906
-1.3209 1.7399 -0.9509 0.9905
-1.4076 1.7397 -0.9741 0.9903
-1.4617 1.7395 -0.9891 0.9901
-1.4801 1.7395 -0.9942 0.9901
-1.4987 1.7395 -0.9995 0.9900
-1.5557 1.7393 -1.0158 0.9899
-1.5948 1.7392 -1.0272 0.9898
-1.6147 1.7392 -1.0330 0.9897
-1.6348 1.7391 -1.0390 0.9896
-1.6757 1.7390 -1.0513 0.9895
-1.7176 1.7389 -1.0640 0.9894
-1.7389 1.7389 -1.0705 0.9893
-1.8045 1.7387 -1.0908 0.9891
-1.8269 1.7387 -1.0979 0.9891
-1.8726 1.7386 -1.1123 0.9889
-1.8960 1.7385 -1.1198 0.9888
-2.0815 1.8851 -1.2224 0.9878
-2.1023 1.8113 -1.2080 0.9880
-2.1571 1.7899 -1.2201 0.9878
-2.2677 1.7888 -1.2573 0.9875
-2.2964 1.7886 -1.2671 0.9874
-2.3854 1.7877 -1.2976 0.9871
-2.4471 1.7872 -1.3191 0.9869
-2.4787 1.7869 -1.3301 0.9868
-2.5109 1.7866 -1.3414 0.9866
-2.5436 1.7863 -1.3530 0.9865
-2.7162 1.7847 -1.4147 0.9859
-2.7897 1.7840 -1.4414 0.9857
-2.9054 1.7829 -1.4839 0.9852
-2.9455 1.7825 -1.4987 0.9851
-3.1101 1.8300 -1.5708 0.9844
-3.1086 1.8033 -1.5644 0.9844
-3.1071 1.7768 -1.5581 0.9845
-3.1531 1.7263 -1.5648 0.9844
-3.2942 1.7249 -1.6187 0.9839
-3.3938 1.7239 -1.6570 0.9835
-3.4983 1.7229 -1.6975 0.9831
-3.5525 1.7224 -1.7186 0.9829
-3.6080 1.7218 -1.7403 0.9827
-3.7234 1.7207 -1.7855 0.9823
-3.7834 1.7201 -1.8092 0.9820
-5.0540 2.2227 -2.4034 0.9762
-5.0675 2.1914 -2.4034 0.9762
-5.0809 2.1600 -2.4033 0.9762
-5.0941 2.1285 -2.4033 0.9762
-5.1071 2.0969 -2.4032 0.9762
-5.1198 2.0652 -2.4032 0.9762
-5.1324 2.0335 -2.4031 0.9762
-5.2150 1.8093 -2.4029 0.9762
-5.2368 1.7446 -2.4028 0.9762
-5.2474 1.7121 -2.4027 0.9762
-5.2578 1.6796 -2.4027 0.9762
-5.2680 1.6471 -2.4026 0.9762
-5.2780 1.6144 -2.4026 0.9762
-5.2878 1.5817 -2.4026 0.9762
-5.3067 1.5161 -2.4025 0.9762
-5.3159 1.4832 -2.4024 0.9762
-5.3337 1.4174 -2.4024 0.9762
-5.3422 1.3843 -2.4023 0.9762
-5.3506 1.3512 -2.4023 0.9762
-5.3587 1.3181 -2.4022 0.9762
-5.3745 1.2517 -2.4021 0.9762
-5.3820 1.2184 -2.4021 0.9762
-5.4101 1.0848 -2.4019 0.9762
-5.4166 1.0513 -2.4019 0.9762
-5.4229 1.0178 -2.4018 0.9762
-5.4290 0.9842 -2.4018 0.9762
-5.4406 0.9169 -2.4017 0.9762
-5.4460 0.8833 -2.4017 0.9762
-5.4563 0.8158 -2.4016 0.9762
-5.4658 0.7482 -2.4015 0.9762
-5.4702 0.7144 -2.4014 0.9762
-5.4744 0.6805 -2.4014 0.9762
-5.4784 0.6466 -2.4014 0.9762
-5.4822 0.6128 -2.4013 0.9762
-5.4892 0.5449 -2.4012 0.9762
-5.4981 0.4429 -2.4011 0.9762
-5.5006 0.4089 -2.4011 0.9762
-5.5029 0.3749 -2.4010 0.9762
-5.5050 0.3408 -2.4010 0.9762
-5.5101 0.2387 -2.4008 0.9762
-5.5146 0.0341 -2.4006 0.9762
-5.4046 -0.0001 -2.4005 0.9766
-5.4044 -0.0334 -2.4005 0.9766
-5.4040 -0.0669 -2.4004 0.9766
-5.4033 -0.1003 -2.4004 0.9766
-5.4015 -0.1671 -2.4003 0.9766
-5.3988 -0.2339 -2.4002 0.9766
-5.3910 -0.3673 -2.4000 0.9766
-5.3858 -0.4340 -2.4000 0.9766
-5.3830 -0.4673 -2.3999 0.9766
-5.3799 -0.5005 -2.3999 0.9766
-5.3694 -0.6002 -2.3997 0.9766
-5.3655 -0.6334 -2.3997 0.9766
-5.3613 -0.6665 -2.3997 0.9766
-5.3570 -0.6997 -2.3996 0.9766
-5.3478 -0.7659 -2.3995 0.9766
-5.3377 -0.8319 -2.3994 0.9766
-5.3090 -0.9965 -2.3992 0.9766
-5.3026 -1.0292 -2.3992 0.9766
-5.2823 -1.1274 -2.3991 0.9766
-5.2678 -1.1926 -2.3990 0.9766
-5.2524 -1.2576 -2.3989 0.9766
-5.2363 -1.3224 -2.3988 0.9766
-5.2279 -1.3548 -2.3988 0.9766
-5.2016 -1.4515 -2.3986 0.9766
-5.1925 -1.4836 -2.3986 0.9766
-5.1735 -1.5476 -2.3985 0.9766
-5.1638 -1.5795 -2.3985 0.9766
-5.1538 -1.6114 -2.3984 0.9766
-5.1333 -1.6750 -2.3984 0.9766
-5.1011 -1.7698 -2.3982 0.9766
-5.0900 -1.8013 -2.3982 0.9766
-5.0787 -1.8327 -2.3981 0.9766
-5.0671 -1.8641 -2.3981 0.9766
-5.0435 -1.9265 -2.3980 0.9766
-5.0314 -1.9576 -2.3980 0.9766
-5.0067 -2.0197 -2.3979 0.9766
-4.9940 -2.0506 -2.3979 0.9766
-4.9681 -2.1121 -2.3978 0.9766
-4.9549 -2.1428 -2.3977 0.9766
-4.9278 -2.2037 -2.3977 0.9767
-4.9000 -2.2645 -2.3976 0.9767
-4.8569 -2.3549 -2.3975 0.9767
-4.8422 -2.3848 -2.3974 0.9767
-4.8273 -2.4147 -2.3974 0.9767
-4.8122 -2.4445 -2.3974 0.9767
-4.7814 -2.5037 -2.3973 0.9767
-4.7499 -2.5626 -2.3972 0.9767
-4.7339 -2.5919 -2.3972 0.9767
-4.7014 -2.6501 -2.3971 0.9767
-4.6681 -2.7080 -2.3970 0.9767
-4.6512 -2.7368 -2.3970 0.9767
-4.6341 -2.7654 -2.3969 0.9767
-4.6168 -2.7940 -2.3969 0.9767
-4.5994 -2.8224 -2.3969 0.9767
-4.5640 -2.8790 -2.3968 0.9767
-4.5279 -2.9352 -2.3967 0.9767
-4.5096 -2.9631 -2.3967 0.9767
-4.4911 -2.9908 -2.3966 0.9767
-4.4536 -3.0461 -2.3966 0.9767
-4.4155 -3.1009 -2.3965 0.9767
-4.3570 -3.1821 -2.3964 0.9767
-4.2767 -3.2887 -2.3963 0.9767
-4.2562 -3.3150 -2.3962 0.9767
-4.2356 -3.3412 -2.3962 0.9767
-4.2148 -3.3673 -2.3962 0.9767
-4.1514 -3.4448 -2.3961 0.9767
-4.1084 -3.4958 -2.3960 0.9767
-4.0866 -3.5211 -2.3960 0.9767
-4.0427 -3.5712 -2.3959 0.9767
-4.0204 -3.5961 -2.3959 0.9767
-3.9756 -3.6455 -2.3958 0.9767
-3.9529 -3.6699 -2.3958 0.9767
-3.8607 -3.7664 -2.3956 0.9767
-3.8137 -3.8138 -2.3956 0.9767
-3.7900 -3.8372 -2.3955 0.9767
-3.7422 -3.8837 -2.3955 0.9767
-3.7180 -3.9067 -2.3955 0.9767
-3.6938 -3.9296 -2.3954 0.9767
-3.6694 -3.9523 -2.3954 0.9767
-3.6201 -3.9973 -2.3953 0.9767
-3.5703 -4.0417 -2.3953 0.9767
-3.5452 -4.0636 -2.3952 0.9767
-3.4946 -4.1071 -2.3952 0.9767
-3.4434 -4.1499 -2.3951 0.9767
-3.2869 -4.2744 -2.3950 0.9767
-3.2604 -4.2947 -2.3949 0.9767
-3.2337 -4.3147 -2.3949 0.9767
-3.0712 -4.4314 -2.3948 0.9767
-3.0437 -4.4503 -2.3947 0.9767
-3.0161 -4.4689 -2.3947 0.9767
-2.9884 -4.4875 -2.3947 0.9767
-2.9606 -4.5058 -2.3947 0.9767
-2.9326 -4.5240 -2.3946 0.9767
-2.8764 -4.5598 -2.3946 0.9767
-2.8481 -4.5775 -2.3946 0.9767
-2.7912 -4.6123 -2.3945 0.9767
-2.7626 -4.6294 -2.3945 0.9767
-2.7339 -4.6464 -2.3945 0.9767
-2.7051 -4.6632 -2.3945 0.9767
-2.6762 -4.6797 -2.3944 0.9767
-2.5006 -4.7755 -2.3943 0.9767
-2.4413 -4.8060 -2.3943 0.9767
-2.4115 -4.8210 -2.3943 0.9767
-2.3517 -4.8504 -2.3942 0.9767
-2.2914 -4.8790 -2.3942 0.9767
-2.2309 -4.9069 -2.3941 0.9767
-2.1394 -4.9473 -2.3941 0.9767
-2.0781 -4.9734 -2.3941 0.9767
-2.0472 -4.9861 -2.3940 0.9767
-2.0164 -4.9986 -2.3940 0.9767
-1.9543 -5.0231 -2.3940 0.9767
-1.9232 -5.0350 -2.3940 0.9767
-1.8608 -5.0584 -2.3939 0.9767
-1.8295 -5.0697 -2.3939 0.9767
-1.7981 -5.0809 -2.3939 0.9767
-1.7035 -5.1133 -2.3939 0.9767
-1.6402 -5.1339 -2.3938 0.9767
-1.5763 -5.1538 -2.3938 0.9767
-1.5444 -5.1634 -2.3938 0.9767
-1.4805 -5.1821 -2.3938 0.9767
-1.4484 -5.1911 -2.3938 0.9767
-1.4164 -5.1999 -2.3938 0.9767
-1.3518 -5.2170 -2.3937 0.9767
-1.3195 -5.2252 -2.3937 0.9767
-1.2872 -5.2333 -2.3937 0.9767
-1.2546 -5.2411 -2.3937 0.9767
-1.1899 -5.2562 -2.3937 0.9767
-1.1574 -5.2634 -2.3937 0.9767
-1.0595 -5.2839 -2.3936 0.9767
-1.0268 -5.2903 -2.3936 0.9767
-0.9613 -5.3026 -2.3936 0.9767
-0.9285 -5.3084 -2.3936 0.9767
-0.8956 -5.3140 -2.3936 0.9767
-0.8628 -5.3195 -2.3936 0.9767
-0.8299 -5.3247 -2.3936 0.9767
-0.7639 -5.3345 -2.3936 0.9767
-0.7309 -5.3391 -2.3936 0.9767
-0.6979 -5.3435 -2.3936 0.9767
-0.6648 -5.3477 -2.3936 0.9767
-0.5984 -5.3555 -2.3935 0.9767
-0.5324 -5.3625 -2.3935 0.9767
-0.4660 -5.3687 -2.3935 0.9767
-0.3663 -5.3763 -2.3935 0.9767
-0.3330 -5.3785 -2.3935 0.9767
-0.2665 -5.3822 -2.3935 0.9767
-0.2332 -5.3837 -2.3935 0.9767
-0.1333 -5.3871 -2.3935 0.9767
-0.0667 -5.3883 -2.3935 0.9767
0.0666 -5.3883 -2.3935 0.9767
0.1666 -5.3862 -2.3935 0.9767
0.1999 -5.3851 -2.3935 0.9767
0.2332 -5.3837 -2.3935 0.9767
0.2665 -5.3822 -2.3935 0.9767
0.2998 -5.3804 -2.3935 0.9767
0.3330 -5.3785 -2.3935 0.9767
0.4328 -5.3714 -2.3935 0.9767
0.4992 -5.3656 -2.3935 0.9767
0.5323 -5.3625 -2.3935 0.9767
0.5655 -5.3591 -2.3935 0.9767
0.6317 -5.3517 -2.3935 0.9767
0.6648 -5.3477 -2.3935 0.9767
0.6979 -5.3435 -2.3935 0.9767
0.7311 -5.3391 -2.3936 0.9767
0.7640 -5.3345 -2.3936 0.9767
0.9287 -5.3084 -2.3936 0.9767
0.9941 -5.2966 -2.3936 0.9767
1.0268 -5.2903 -2.3936 0.9767
1.0595 -5.2838 -2.3936 0.9767
1.1248 -5.2704 -2.3936 0.9767
1.1574 -5.2633 -2.3936 0.9767
1.2224 -5.2487 -2.3937 0.9767
1.3519 -5.2170 -2.3937 0.9767
1.3841 -5.2085 -2.3937 0.9767
1.4805 -5.1820 -2.3937 0.9767
1.5126 -5.1727 -2.3938 0.9767
1.5762 -5.1537 -2.3938 0.9767
1.6401 -5.1338 -2.3938 0.9767
1.6716 -5.1237 -2.3938 0.9767
1.7033 -5.1133 -2.3938 0.9767
1.7352 -5.1026 -2.3938 0.9767
1.7981 -5.0808 -2.3939 0.9767
1.8920 -5.0467 -2.3939 0.9767
1.9543 -5.0230 -2.3939 0.9767
1.9853 -5.0109 -2.3940 0.9767
2.0163 -4.9985 -2.3940 0.9767
2.0472 -4.9859 -2.3940 0.9767
2.1087 -4.9603 -2.3940 0.9767
2.1700 -4.9339 -2.3941 0.9767
2.2004 -4.9204 -2.3941 0.9767
2.2914 -4.8789 -2.3941 0.9767
2.3516 -4.8502 -2.3942 0.9767
2.3816 -4.8356 -2.3942 0.9767
2.4709 -4.7908 -2.3942 0.9767
2.5300 -4.7599 -2.3943 0.9767
2.5594 -4.7442 -2.3943 0.9767
2.6180 -4.7123 -2.3943 0.9767
2.6761 -4.6796 -2.3944 0.9767
2.7338 -4.6462 -2.3944 0.9767
2.8480 -4.5773 -2.3945 0.9767
2.8763 -4.5597 -2.3945 0.9767
2.9883 -4.4873 -2.3946 0.9767
3.0160 -4.4688 -2.3947 0.9767
3.0711 -4.4313 -2.3947 0.9767
3.1529 -4.3737 -2.3948 0.9767
3.1799 -4.3541 -2.3948 0.9767
3.2068 -4.3344 -2.3948 0.9767
3.2336 -4.3146 -2.3948 0.9767
3.2868 -4.2743 -2.3949 0.9767
3.3132 -4.2539 -2.3949 0.9767
3.3395 -4.2334 -2.3950 0.9767
3.4689 -4.1284 -2.3951 0.9767
3.5198 -4.0853 -2.3951 0.9767
3.5451 -4.0635 -2.3952 0.9767
3.5951 -4.0194 -2.3952 0.9767
3.6447 -3.9747 -2.3953 0.9767
3.6692 -3.9521 -2.3953 0.9767
3.6936 -3.9294 -2.3953 0.9767
3.7179 -3.9066 -2.3954 0.9767
3.7420 -3.8836 -2.3954 0.9767
3.7660 -3.8604 -2.3954 0.9767
3.8606 -3.7663 -2.3955 0.9767
3.8838 -3.7424 -2.3956 0.9767
3.9299 -3.6941 -2.3956 0.9767
3.9754 -3.6453 -2.3957 0.9767
4.0203 -3.5960 -2.3958 0.9767
4.0425 -3.5711 -2.3958 0.9767
4.1298 -3.4702 -2.3959 0.9767
4.1937 -3.3931 -2.3960 0.9767
4.2146 -3.3672 -2.3961 0.9767
4.2354 -3.3411 -2.3961 0.9767
4.2765 -3.2885 -2.3962 0.9767
4.3170 -3.2355 -2.3962 0.9767
4.3370 -3.2088 -2.3963 0.9767
4.3960 -3.1279 -2.3964 0.9767
4.4153 -3.1007 -2.3964 0.9767
4.4909 -2.9907 -2.3965 0.9767
4.5277 -2.9351 -2.3966 0.9767
4.5458 -2.9070 -2.3967 0.9767
4.5638 -2.8789 -2.3967 0.9767
4.5816 -2.8506 -2.3967 0.9767
4.5992 -2.8223 -2.3968 0.9767
4.6339 -2.7653 -2.3968 0.9767
4.6509 -2.7367 -2.3969 0.9767
4.7337 -2.5918 -2.3971 0.9767
4.7812 -2.5036 -2.3972 0.9767
4.7967 -2.4740 -2.3972 0.9767
4.8119 -2.4444 -2.3972 0.9767
4.8270 -2.4146 -2.3973 0.9767
4.8420 -2.3847 -2.3973 0.9767
4.8567 -2.3548 -2.3974 0.9767
4.8712 -2.3247 -2.3974 0.9767
4.8998 -2.2644 -2.3975 0.9767
4.9138 -2.2341 -2.3975 0.9767
4.9276 -2.2037 -2.3976 0.9767
4.9678 -2.1120 -2.3977 0.9767
4.9809 -2.0813 -2.3977 0.9766
4.9938 -2.0504 -2.3978 0.9766
5.0312 -1.9576 -2.3979 0.9766
5.0433 -1.9264 -2.3979 0.9766
5.0784 -1.8326 -2.3980 0.9766
5.0897 -1.8012 -2.3981 0.9766
5.1225 -1.7066 -2.3982 0.9766
5.1331 -1.6749 -2.3982 0.9766
5.1733 -1.5475 -2.3984 0.9766
5.1828 -1.5155 -2.3984 0.9766
5.1922 -1.4835 -2.3985 0.9766
5.2014 -1.4513 -2.3985 0.9766
5.2191 -1.3870 -2.3986 0.9766
5.2277 -1.3547 -2.3987 0.9766
5.2360 -1.3223 -2.3987 0.9766
5.2442 -1.2900 -2.3987 0.9766
5.2599 -1.2251 -2.3988 0.9766
5.2749 -1.1600 -2.3989 0.9766
5.2820 -1.1273 -2.3989 0.9766
5.2890 -1.0947 -2.3990 0.9766
5.2958 -1.0620 -2.3990 0.9766
5.3023 -1.0292 -2.3991 0.9766
5.3087 -0.9964 -2.3991 0.9766
5.3208 -0.9307 -2.3992 0.9766
5.3374 -0.8319 -2.3993 0.9766
5.3522 -0.7328 -2.3995 0.9766
5.3691 -0.6002 -2.3996 0.9766
5.3763 -0.5337 -2.3997 0.9766
5.3796 -0.5005 -2.3998 0.9766
5.3827 -0.4672 -2.3998 0.9766
5.3856 -0.4339 -2.3998 0.9766
5.3882 -0.4006 -2.3999 0.9766
5.3907 -0.3673 -2.3999 0.9766
5.3950 -0.3006 -2.4000 0.9766
5.3969 -0.2673 -2.4001 0.9766
5.3985 -0.2339 -2.4001 0.9766
5.4000 -0.2005 -2.4001 0.9766
5.4012 -0.1671 -2.4002 0.9766
5.4037 -0.0669 -2.4003 0.9766
5.4041 -0.0335 -2.4004 0.9766
5.4043 0.0334 -2.4004 0.9766
5.4041 0.0668 -2.4005 0.9766
5.4030 0.1337 -2.4006 0.9766
5.3999 0.2339 -2.4007 0.9766
5.3984 0.2673 -2.4007 0.9766
5.3854 0.4674 -2.4010 0.9766
5.3825 0.5007 -2.4010 0.9766
5.3794 0.5340 -2.4011 0.9766
5.3726 0.6005 -2.4012 0.9766
5.3688 0.6337 -2.4012 0.9766
5.3649 0.6670 -2.4013 0.9766
5.3608 0.7001 -2.4013 0.9766
5.3564 0.7333 -2.4013 0.9766
5.3519 0.7664 -2.4014 0.9766
5.3371 0.8656 -2.4015 0.9766
5.3317 0.8986 -2.4016 0.9766
5.3204 0.9645 -2.4016 0.9766
5.3144 0.9974 -2.4017 0.9766
5.3082 1.0303 -2.4017 0.9766
5.3018 1.0631 -2.4018 0.9766
5.2743 1.1940 -2.4019 0.9766
5.2593 1.2592 -2.4020 0.9766
5.2435 1.3242 -2.4021 0.9766
5.2353 1.3566 -2.4022 0.9766
5.2269 1.3890 -2.4022 0.9766
5.2005 1.4858 -2.4023 0.9766
5.1913 1.5179 -2.4024 0.9766
5.1625 1.6141 -2.4025 0.9766
5.1525 1.6460 -2.4025 0.9766
5.1214 1.7414 -2.4027 0.9766
5.0996 1.8047 -2.4027 0.9766
5.0771 1.8677 -2.4028 0.9766
5.0418 1.9616 -2.4029 0.9766
5.0173 2.0239 -2.4030 0.9766
4.9528 2.1782 -2.4032 0.9766
4.9118 2.2698 -2.4033 0.9766
4.8977 2.3002 -2.4034 0.9766
3.8045 1.8156 -1.8724 0.9817
3.6268 1.8142 -1.8012 0.9824
3.4619 1.8128 -1.7357 0.9830
3.3086 1.8115 -1.6754 0.9836
3.1656 1.8103 -1.6197 0.9842
3.1200 1.8099 -1.6021 0.9843
3.0754 1.8095 -1.5849 0.9845
3.0317 1.8092 -1.5681 0.9847
2.9889 1.8088 -1.5518 0.9848
2.9471 1.8085 -1.5358 0.9850
2.8658 1.8078 -1.5050 0.9853
2.7878 1.8071 -1.4756 0.9856
2.7499 1.8068 -1.4615 0.9857
2.7047 1.8499 -1.4554 0.9858
2.7015 1.8723 -1.4599 0.9857
2.5286 1.7758 -1.3724 0.9866
2.3970 1.7734 -1.3244 0.9870
2.3345 1.7723 -1.3019 0.9873
2.2741 1.7712 -1.2803 0.9875
2.2447 1.7707 -1.2699 0.9876
2.2157 1.7702 -1.2597 0.9877
2.1872 1.7697 -1.2497 0.9878
2.1315 1.7687 -1.2303 0.9880
2.1044 1.7682 -1.2208 0.9880
2.0776 1.7678 -1.2116 0.9881
2.0512 1.7673 -1.2026 0.9882
1.9995 1.7663 -1.1850 0.9884
1.9743 1.7659 -1.1765 0.9885
1.8767 1.7641 -1.1440 0.9888
1.8532 1.7637 -1.1363 0.9889
1.8070 1.7629 -1.1213 0.9890
1.7844 1.7624 -1.1140 0.9891
1.7620 1.7621 -1.1068 0.9892
1.7398 1.7615 -1.0997 0.9892
1.7179 1.7609 -1.0927 0.9893
1.6963 1.7604 -1.0859 0.9894
1.6131 1.7592 -1.0601 0.9896
1.5929 1.7589 -1.0540 0.9897
1.5729 1.7586 -1.0480 0.9897
1.5532 1.7583 -1.0420 0.9898
1.4578 1.7569 -1.0140 0.9901
1.4393 1.7566 -1.0087 0.9901
1.4029 1.7561 -0.9983 0.9902
1.3673 1.7555 -0.9883 0.9903
1.3497 1.7553 -0.9835 0.9904
1.3324 1.7550 -0.9787 0.9904
1.2981 1.7545 -0.9694 0.9905
1.2812 1.7543 -0.9649 0.9905
1.1515 1.7525 -0.9314 0.9909
1.1204 1.7520 -0.9237 0.9909
1.1051 1.7518 -0.9200 0.9910
1.0899 1.7516 -0.9163 0.9910
1.0748 1.7514 -0.9127 0.9910
1.0598 1.7512 -0.9092 0.9911
1.0449 1.7510 -0.9057 0.9911
0.9866 1.7502 -0.8924 0.9912
0.9160 1.7493 -0.8771 0.9914
0.9022 1.7491 -0.8742 0.9914
0.8884 1.7490 -0.8713 0.9915
0.8612 1.7486 -0.8658 0.9915
0.8343 1.7483 -0.8604 0.9916
0.7557 1.7475 -0.8456 0.9917
0.7048 1.7473 -0.8368 0.9918
0.6923 1.7472 -0.8348 0.9918
0.6550 1.7471 -0.8287 0.9919
0.6427 1.7470 -0.8268 0.9919
0.6061 1.7469 -0.8213 0.9919
0.5819 1.7468 -0.8178 0.9920
0.5699 1.7467 -0.8161 0.9920
0.5224 1.7465 -0.8097 0.9921
0.4757 1.7464 -0.8039 0.9921
0.4181 1.7462 -0.7975 0.9922
0.4067 1.7461 -0.7963 0.9922
0.3953 1.7461 -0.7952 0.9922
0.3501 1.7459 -0.7909 0.9922
0.3389 1.7458 -0.7899 0.9922
0.3277 1.7458 -0.7890 0.9923
0.3165 1.7457 -0.7880 0.9923
0.3053 1.7457 -0.7871 0.9923
0.2720 1.7455 -0.7847 0.9923
0.2610 1.7455 -0.7839 0.9923
0.2500 1.7454 -0.7832 0.9923
0.2389 1.7454 -0.7825 0.9923
0.2170 1.7453 -0.7812 0.9923
0.1951 1.7452 -0.7800 0.9923
0.1732 1.7451 -0.7789 0.9924
0.1623 1.7450 -0.7784 0.9924
0.1515 1.7450 -0.7780 0.9924
0.1297 1.7449 -0.7772 0.9924
0.1189 1.7448 -0.7768 0.9924
0.0756 1.7446 -0.7756 0.9924
0.0648 1.7446 -0.7754 0.9924
0.0540 1.7445 -0.7752 0.9924
0.0432 1.7445 -0.7751 0.9924
0.0324 1.7445 -0.7750 0.9924
0.0216 1.7444 -0.7749 0.9924
-0.0000 1.7443 -0.7748 0.9924
-0.0108 1.7443 -0.7748 0.9924
-0.0216 1.7442 -0.7748 0.9924
-0.0324 1.7442 -0.7748 0.9924
-0.0432 1.7441 -0.7749 0.9924
-0.0755 1.7440 -0.7754 0.9924
-0.1188 1.7438 -0.7763 0.9924
-0.1296 1.7438 -0.7767 0.9924
-0.1513 1.7437 -0.7774 0.9924
-0.1731 1.7436 -0.7783 0.9924
-0.1949 1.7435 -0.7792 0.9924
-0.2058 1.7435 -0.7798 0.9923
-0.2277 1.7434 -0.7809 0.9923
-0.2387 1.7434 -0.7816 0.9923
-0.2827 1.7432 -0.7844 0.9923
-0.3160 1.7430 -0.7868 0.9923
-0.3383 1.7430 -0.7886 0.9923
-0.3832 1.7428 -0.7926 0.9922
-0.4059 1.7427 -0.7948 0.9922
-0.4172 1.7427 -0.7959 0.9922
-0.4286 1.7427 -0.7971 0.9922
-0.4401 1.7426 -0.7983 0.9922
-0.4516 1.7426 -0.7996 0.9922
-0.4631 1.7425 -0.8008 0.9921
-0.5095 1.7424 -0.8063 0.9921
-0.5212 1.7423 -0.8078 0.9921
-0.5329 1.7423 -0.8093 0.9921
-0.5447 1.7422 -0.8108 0.9920
-0.5566 1.7422 -0.8124 0.9920
-0.5684 1.7422 -0.8140 0.9920
-0.6286 1.7420 -0.8226 0.9919
-0.6408 1.7419 -0.8244 0.9919
-0.6530 1.7419 -0.8263 0.9919
-0.6777 1.7418 -0.8302 0.9919
-0.6901 1.7418 -0.8322 0.9918
-0.7026 1.7417 -0.8342 0.9918
-0.7277 1.7417 -0.8384 0.9918
-0.7404 1.7416 -0.8406 0.9918
-0.7531 1.7416 -0.8428 0.9917
-0.7788 1.7415 -0.8473 0.9917
-0.8179 1.7414 -0.8545 0.9916
-0.8310 1.7413 -0.8570 0.9916
-0.8443 1.7413 -0.8595 0.9916
-0.8576 1.7413 -0.8621 0.9915
-0.8845 1.7412 -0.8674 0.9915
-0.9393 1.7410 -0.8787 0.9914
-0.9532 1.7410 -0.8816 0.9914
-0.9672 1.7409 -0.8846 0.9913
-0.9813 1.7409 -0.8876 0.9913
-0.9955 1.7409 -0.8907 0.9913
-1.0243 1.7408 -0.8971 0.9912
-1.0534 1.7407 -0.9037 0.9911
-1.0682 1.7407 -0.9071 0.9911
-1.0830 1.7406 -0.9106 0.9911
-1.1131 1.7405 -0.9177 0.9910
-1.1746 1.7404 -0.9326 0.9909
-1.1903 1.7403 -0.9365 0.9908
-1.2061 1.7403 -0.9405 0.9908
-1.2221 1.7403 -0.9445 0.9907
-1.2382 1.7402 -0.9486 0.9907
-1.2874 1.7401 -0.9614 0.9906
-1.3210 1.7400 -0.9703 0.9905
-1.3551 1.7399 -0.9796 0.9904
-1.3725 1.7399 -0.9843 0.9903
-1.4255 1.7397 -0.9990 0.9902
-1.4436 1.7397 -1.0041 0.9902
-1.4802 1.7396 -1.0145 0.9901
-1.5176 1.7395 -1.0254 0.9899
-1.5753 1.7394 -1.0423 0.9898
-1.5949 1.7394 -1.0482 0.9897
-1.6966 1.7391 -1.0792 0.9894
-1.7177 1.7391 -1.0857 0.9894
-2.0563 1.8856 -1.2392 0.9879
-2.0617 1.8672 -1.2355 0.9879
-2.0670 1.8489 -1.2318 0.9879
-2.0775 1.8125 -1.2246 0.9880
-2.0826 1.7944 -1.2210 0.9880
-2.2394 1.7891 -1.2731 0.9875
-2.3552 1.7880 -1.3134 0.9871
-2.5436 1.7862 -1.3805 0.9865
-2.6452 1.7853 -1.4175 0.9861
-2.6803 1.7850 -1.4303 0.9860
-2.7896 1.7839 -1.4708 0.9856
-2.8275 1.7836 -1.4849 0.9855
-2.8660 1.7832 -1.4993 0.9853
-2.9454 1.7825 -1.5292 0.9850
-3.1142 1.7809 -1.5934 0.9844
-3.1530 1.7263 -1.5966 0.9844
-3.2460 1.7254 -1.6328 0.9840
-3.2941 1.7249 -1.6516 0.9839
-3.3433 1.7244 -1.6709 0.9837
-3.3937 1.7239 -1.6907 0.9835
-3.4453 1.7234 -1.7111 0.9833
-3.6079 1.7218 -1.7756 0.9827
-3.6649 1.7212 -1.7984 0.9824
-4.9395 2.2090 -2.4034 0.9766
-4.9663 2.1476 -2.4033 0.9766
-4.9794 2.1169 -2.4033 0.9766
-5.0421 1.9617 -2.4031 0.9766
-5.0658 1.8991 -2.4030 0.9766
-5.0773 1.8678 -2.4029 0.9766
-5.0887 1.8363 -2.4029 0.9766
-5.0999 1.8047 -2.4029 0.9766
-5.1322 1.7097 -2.4027 0.9766
-5.1426 1.6779 -2.4027 0.9766
-5.1726 1.5821 -2.4026 0.9766
-5.1916 1.5180 -2.4025 0.9766
-5.2098 1.4537 -2.4024 0.9766
-5.2272 1.3890 -2.4023 0.9766
-5.2438 1.3242 -2.4022 0.9766
-5.2518 1.2917 -2.4022 0.9766
-5.2596 1.2592 -2.4021 0.9766
-5.2818 1.1613 -2.4020 0.9766
-5.2887 1.1287 -2.4020 0.9766
-5.3021 1.0631 -2.4019 0.9766
-5.3147 0.9975 -2.4018 0.9766
-5.3206 0.9646 -2.4018 0.9766
-5.3264 0.9316 -2.4017 0.9766
-5.3320 0.8986 -2.4017 0.9766
-5.3373 0.8656 -2.4016 0.9766
-5.3425 0.8326 -2.4016 0.9766
-5.3522 0.7664 -2.4015 0.9766
-5.3611 0.7001 -2.4014 0.9766
-5.3652 0.6670 -2.4014 0.9766
-5.3691 0.6337 -2.4013 0.9766
-5.3728 0.6005 -2.4013 0.9766
-5.3797 0.5340 -2.4012 0.9766
-5.3828 0.5007 -2.4012 0.9766
-5.3884 0.4341 -2.4011 0.9766
-5.3931 0.3674 -2.4010 0.9766
-5.4002 0.2339 -2.4008 0.9766
-5.4014 0.2005 -2.4008 0.9766
-5.4033 0.1337 -2.4007 0.9766
-5.4039 0.1002 -2.4007 0.9766
-5.4043 0.0668 -2.4006 0.9766
-5.4046 0.0334 -2.4006 0.9766
-5.2980 -0.0328 -2.4005 0.9770
-5.2976 -0.0656 -2.4004 0.9770
-5.2970 -0.0983 -2.4004 0.9770
-5.2940 -0.1966 -2.4003 0.9770
-5.2926 -0.2293 -2.4002 0.9770
-5.2770 -0.4580 -2.3999 0.9770
-5.2558 -0.6534 -2.3997 0.9770
-5.2516 -0.6859 -2.3996 0.9770
-5.2327 -0.8156 -2.3995 0.9770
-5.2274 -0.8479 -2.3994 0.9770
-5.2164 -0.9125 -2.3993 0.9770
-5.2105 -0.9446 -2.3993 0.9770
-5.1983 -1.0091 -2.3992 0.9770
-5.1784 -1.1052 -2.3991 0.9770
-5.1642 -1.1691 -2.3990 0.9770
-5.1491 -1.2329 -2.3989 0.9770
-5.1251 -1.3281 -2.3988 0.9770
-5.1081 -1.3913 -2.3987 0.9770
-5.0903 -1.4544 -2.3986 0.9770
-5.0812 -1.4858 -2.3986 0.9770
-5.0425 -1.6109 -2.3984 0.9770
-5.0324 -1.6420 -2.3984 0.9770
-5.0008 -1.7350 -2.3983 0.9770
-4.9788 -1.7967 -2.3982 0.9770
-4.9675 -1.8274 -2.3982 0.9770
-4.9444 -1.8886 -2.3981 0.9770
-4.9325 -1.9191 -2.3980 0.9770
-4.8958 -2.0103 -2.3979 0.9770
-4.8443 -2.1306 -2.3978 0.9770
-4.8309 -2.1604 -2.3977 0.9770
-4.8037 -2.2200 -2.3976 0.9770
-4.7614 -2.3086 -2.3975 0.9770
-4.7324 -2.3672 -2.3975 0.9770
-4.7176 -2.3964 -2.3974 0.9770
-4.6721 -2.4834 -2.3973 0.9770
-4.6409 -2.5409 -2.3972 0.9770
-4.6250 -2.5696 -2.3972 0.9770
-4.6089 -2.5980 -2.3972 0.9770
-4.5927 -2.6265 -2.3971 0.9770
-4.5430 -2.7111 -2.3970 0.9770
-4.5261 -2.7391 -2.3970 0.9770
-4.5090 -2.7670 -2.3969 0.9770
-4.4209 -2.9048 -2.3968 0.9770
-4.4028 -2.9321 -2.3967 0.9770
-4.3845 -2.9592 -2.3967 0.9770
-4.3098 -3.0666 -2.3965 0.9770
-4.2520 -3.1458 -2.3964 0.9770
-4.1927 -3.2240 -2.3963 0.9770
-4.1320 -3.3012 -2.3962 0.9770
-4.0907 -3.3519 -2.3962 0.9770
-3.9632 -3.5011 -2.3960 0.9770
-3.9415 -3.5254 -2.3959 0.9770
-3.8975 -3.5739 -2.3959 0.9770
-3.8077 -3.6690 -2.3958 0.9770
-3.7619 -3.7157 -2.3957 0.9770
-3.7156 -3.7618 -2.3956 0.9770
-3.6922 -3.7847 -2.3956 0.9770
-3.6450 -3.8300 -2.3956 0.9770
-3.6212 -3.8524 -2.3955 0.9770
-3.5973 -3.8746 -2.3955 0.9770
-3.5002 -3.9623 -2.3954 0.9771
-3.4259 -4.0264 -2.3953 0.9771
-3.4009 -4.0475 -2.3953 0.9771
-3.3758 -4.0683 -2.3952 0.9771
-3.2996 -4.1302 -2.3952 0.9771
-3.2223 -4.1905 -2.3951 0.9771
-3.1963 -4.2103 -2.3951 0.9771
-3.0377 -4.3257 -2.3949 0.9771
-3.0109 -4.3444 -2.3949 0.9771
-2.9840 -4.3629 -2.3949 0.9771
-2.9569 -4.3812 -2.3948 0.9771
-2.9297 -4.3993 -2.3948 0.9771
-2.9024 -4.4173 -2.3948 0.9771
-2.8750 -4.4352 -2.3948 0.9771
-2.8475 -4.4528 -2.3947 0.9771
-2.8199 -4.4703 -2.3947 0.9771
-2.7364 -4.5217 -2.3946 0.9771
-2.5666 -4.6199 -2.3945 0.9771
-2.5380 -4.6356 -2.3945 0.9771
-2.4515 -4.6818 -2.3944 0.9771
-2.3934 -4.7117 -2.3944 0.9771
-2.3642 -4.7263 -2.3944 0.9771
-2.2465 -4.7832 -2.3943 0.9771
-2.2168 -4.7970 -2.3943 0.9771
-2.1573 -4.8239 -2.3942 0.9771
-2.0674 -4.8630 -2.3942 0.9771
-2.0071 -4.8882 -2.3942 0.9771
-1.9160 -4.9244 -2.3941 0.9771
-1.8855 -4.9362 -2.3941 0.9771
-1.8549 -4.9477 -2.3941 0.9771
-1.7936 -4.9702 -2.3941 0.9771
-1.7628 -4.9812 -2.3940 0.9771
-1.6390 -5.0231 -2.3940 0.9771
-1.6079 -5.0332 -2.3940 0.9771
-1.5455 -5.0526 -2.3939 0.9771
-1.4829 -5.0713 -2.3939 0.9771
-1.4515 -5.0804 -2.3939 0.9771
-1.3885 -5.0978 -2.3939 0.9771
-1.3570 -5.1063 -2.3939 0.9771
-1.2937 -5.1227 -2.3939 0.9771
-1.2302 -5.1382 -2.3938 0.9771
-1.1984 -5.1457 -2.3938 0.9771
-1.1666 -5.1530 -2.3938 0.9771
-1.1346 -5.1601 -2.3938 0.9771
-1.1026 -5.1670 -2.3938 0.9771
-1.0388 -5.1802 -2.3938 0.9771
-0.9746 -5.1926 -2.3938 0.9771
-0.8781 -5.2098 -2.3937 0.9771
-0.8135 -5.2202 -2.3937 0.9771
-0.7489 -5.2298 -2.3937 0.9771
-0.6518 -5.2428 -2.3937 0.9771
-0.5869 -5.2504 -2.3937 0.9771
-0.5544 -5.2539 -2.3937 0.9771
-0.5219 -5.2573 -2.3937 0.9771
-0.4243 -5.2660 -2.3937 0.9771
-0.3591 -5.2708 -2.3937 0.9771
-0.2613 -5.2766 -2.3936 0.9771
-0.2286 -5.2781 -2.3936 0.9771
-0.1633 -5.2805 -2.3936 0.9771
-0.1307 -5.2814 -2.3936 0.9771
-0.0653 -5.2826 -2.3936 0.9771
-0.0327 -5.2829 -2.3936 0.9771
-0.0000 -5.2830 -2.3936 0.9771
0.0327 -5.2829 -2.3936 0.9771
0.0980 -5.2821 -2.3936 0.9771
0.2286 -5.2780 -2.3936 0.9771
0.2939 -5.2748 -2.3936 0.9771
0.3917 -5.2685 -2.3936 0.9771
0.4243 -5.2660 -2.3936 0.9771
0.4568 -5.2633 -2.3937 0.9771
0.4894 -5.2604 -2.3937 0.9771
0.5219 -5.2572 -2.3937 0.9771
0.5544 -5.2539 -2.3937 0.9771
0.6193 -5.2467 -2.3937 0.9771
0.6518 -5.2427 -2.3937 0.9771
0.6842 -5.2386 -2.3937 0.9771
0.7166 -5.2343 -2.3937 0.9771
0.7489 -5.2298 -2.3937 0.9771
0.8458 -5.2150 -2.3937 0.9771
0.8781 -5.2097 -2.3937 0.9771
0.9102 -5.2042 -2.3937 0.9771
0.9426 -5.1985 -2.3937 0.9771
0.9746 -5.1926 -2.3937 0.9771
1.0387 -5.1801 -2.3938 0.9771
1.0709 -5.1736 -2.3938 0.9771
1.1346 -5.1600 -2.3938 0.9771
1.1985 -5.1456 -2.3938 0.9771
1.3254 -5.1145 -2.3938 0.9771
1.3570 -5.1062 -2.3938 0.9771
1.3883 -5.0978 -2.3939 0.9771
1.4200 -5.0891 -2.3939 0.9771
1.4828 -5.0712 -2.3939 0.9771
1.5455 -5.0525 -2.3939 0.9771
1.5767 -5.0429 -2.3939 0.9771
1.6700 -5.0129 -2.3940 0.9771
1.7627 -4.9811 -2.3940 0.9771
1.8242 -4.9590 -2.3940 0.9771
1.9159 -4.9244 -2.3941 0.9771
1.9464 -4.9124 -2.3941 0.9771
1.9767 -4.9004 -2.3941 0.9771
2.0070 -4.8881 -2.3941 0.9771
2.0372 -4.8756 -2.3941 0.9771
2.0974 -4.8501 -2.3942 0.9771
2.1273 -4.8371 -2.3942 0.9771
2.1572 -4.8238 -2.3942 0.9771
2.1870 -4.8104 -2.3942 0.9771
2.2760 -4.7692 -2.3943 0.9771
2.3054 -4.7550 -2.3943 0.9771
2.3641 -4.7262 -2.3943 0.9771
2.4514 -4.6817 -2.3944 0.9771
2.5666 -4.6198 -2.3945 0.9771
2.5951 -4.6038 -2.3945 0.9771
2.6235 -4.5877 -2.3945 0.9771
2.6801 -4.5550 -2.3945 0.9771
2.8198 -4.4702 -2.3947 0.9771
2.8474 -4.4527 -2.3947 0.9771
2.9023 -4.4172 -2.3947 0.9771
2.9296 -4.3992 -2.3947 0.9771
2.9568 -4.3810 -2.3948 0.9771
2.9839 -4.3627 -2.3948 0.9771
3.0108 -4.3442 -2.3948 0.9771
3.0910 -4.2878 -2.3949 0.9771
3.1701 -4.2298 -2.3950 0.9771
3.2739 -4.1503 -2.3951 0.9771
3.3250 -4.1096 -2.3951 0.9771
3.3504 -4.0890 -2.3951 0.9771
3.3757 -4.0682 -2.3952 0.9771
3.4507 -4.0050 -2.3952 0.9771
3.5000 -3.9621 -2.3953 0.9771
3.5489 -3.9186 -2.3954 0.9771
3.5971 -3.8745 -2.3954 0.9771
3.6685 -3.8073 -2.3955 0.9770
3.6920 -3.7846 -2.3955 0.9770
3.7154 -3.7617 -2.3956 0.9770
3.7387 -3.7387 -2.3956 0.9770
3.7618 -3.7156 -2.3956 0.9770
3.7847 -3.6923 -2.3956 0.9770
3.8527 -3.6216 -2.3957 0.9770
3.8751 -3.5977 -2.3958 0.9770
3.8973 -3.5737 -2.3958 0.9770
3.9413 -3.5253 -2.3959 0.9770
4.0062 -3.4518 -2.3960 0.9770
4.0487 -3.4020 -2.3960 0.9770
4.0697 -3.3770 -2.3960 0.9770
4.1113 -3.3264 -2.3961 0.9770
4.1522 -3.2754 -2.3962 0.9770
4.1724 -3.2497 -2.3962 0.9770
4.2322 -3.1719 -2.3963 0.9770
4.2518 -3.1457 -2.3963 0.9770
4.2712 -3.1194 -2.3964 0.9770
4.3096 -3.0664 -2.3964 0.9770
4.3285 -3.0398 -2.3965 0.9770
4.4387 -2.8774 -2.3967 0.9770
4.4565 -2.8499 -2.3967 0.9770
4.4741 -2.8223 -2.3968 0.9770
4.5428 -2.7110 -2.3969 0.9770
4.5595 -2.6829 -2.3969 0.9770
4.5925 -2.6264 -2.3970 0.9770
4.6087 -2.5979 -2.3971 0.9770
4.6248 -2.5694 -2.3971 0.9770
4.6406 -2.5408 -2.3971 0.9770
4.6872 -2.4544 -2.3972 0.9770
4.7173 -2.3963 -2.3973 0.9770
4.7321 -2.3671 -2.3973 0.9770
4.7468 -2.3378 -2.3974 0.9770
4.7612 -2.3085 -2.3974 0.9770
4.7755 -2.2790 -2.3975 0.9770
4.7895 -2.2495 -2.3975 0.9770
4.8034 -2.2199 -2.3975 0.9770
4.8172 -2.1902 -2.3976 0.9770
4.8307 -2.1604 -2.3976 0.9770
4.8440 -2.1305 -2.3977 0.9770
4.9080 -1.9799 -2.3978 0.9770
4.9202 -1.9495 -2.3979 0.9770
4.9322 -1.9191 -2.3979 0.9770
4.9441 -1.8886 -2.3980 0.9770
4.9896 -1.7658 -2.3981 0.9770
5.0005 -1.7349 -2.3982 0.9770
5.0218 -1.6730 -2.3982 0.9770
5.0522 -1.5796 -2.3984 0.9770
5.0620 -1.5484 -2.3984 0.9770
5.0901 -1.4543 -2.3985 0.9770
5.1078 -1.3913 -2.3986 0.9770
5.1330 -1.2963 -2.3987 0.9770
5.1488 -1.2328 -2.3988 0.9770
5.1565 -1.2009 -2.3989 0.9770
5.1639 -1.1691 -2.3989 0.9770
5.1711 -1.1371 -2.3989 0.9770
5.1781 -1.1051 -2.3990 0.9770
5.1980 -1.0089 -2.3991 0.9770
5.2161 -0.9124 -2.3992 0.9770
5.2217 -0.8801 -2.3993 0.9770
5.2272 -0.8479 -2.3993 0.9770
5.2324 -0.8155 -2.3993 0.9770
5.2374 -0.7831 -2.3994 0.9770
5.2423 -0.7507 -2.3994 0.9770
5.2556 -0.6534 -2.3996 0.9770
5.2596 -0.6209 -2.3996 0.9770
5.2705 -0.5233 -2.3997 0.9770
5.2737 -0.4906 -2.3998 0.9770
5.2796 -0.4254 -2.3999 0.9770
5.2822 -0.3928 -2.3999 0.9770
5.2846 -0.3601 -2.3999 0.9770
5.2907 -0.2620 -2.4001 0.9770
5.2949 -0.1638 -2.4002 0.9770
5.2979 -0.0000 -2.4004 0.9770
5.2977 0.0655 -2.4005 0.9770
5.2973 0.0983 -2.4005 0.9770
5.2966 0.1311 -2.4006 0.9770
5.2948 0.1965 -2.4007 0.9770
5.2905 0.2947 -2.4008 0.9770
5.2887 0.3274 -2.4008 0.9770
5.2844 0.3929 -2.4009 0.9770
5.2820 0.4255 -2.4010 0.9770
5.2794 0.4582 -2.4010 0.9770
5.2765 0.4909 -2.4010 0.9770
5.2702 0.5561 -2.4011 0.9770
5.2668 0.5887 -2.4012 0.9770
5.2631 0.6212 -2.4012 0.9770
5.2593 0.6538 -2.4012 0.9770
5.2552 0.6863 -2.4013 0.9770
5.2510 0.7188 -2.4013 0.9770
5.2465 0.7513 -2.4014 0.9770
5.2212 0.9132 -2.4016 0.9770
5.2156 0.9455 -2.4016 0.9770
5.2097 0.9778 -2.4017 0.9770
5.2037 1.0100 -2.4017 0.9770
5.1974 1.0422 -2.4017 0.9770
5.1704 1.1705 -2.4019 0.9770
5.1557 1.2344 -2.4020 0.9770
5.1481 1.2663 -2.4020 0.9770
5.1402 1.2981 -2.4021 0.9770
5.1069 1.4249 -2.4022 0.9770
5.0981 1.4565 -2.4023 0.9770
5.0510 1.6136 -2.4025 0.9770
5.0205 1.7071 -2.4026 0.9770
5.0099 1.7381 -2.4027 0.9770
4.9991 1.7691 -2.4027 0.9770
4.9882 1.8000 -2.4027 0.9770
4.9770 1.8308 -2.4028 0.9770
4.9657 1.8616 -2.4028 0.9770
4.9542 1.8923 -2.4029 0.9770
4.9425 1.9229 -2.4029 0.9770
4.9306 1.9536 -2.4029 0.9770
4.8682 2.1052 -2.4031 0.9770
4.8419 2.1653 -2.4032 0.9770
4.8285 2.1952 -2.4032 0.9770
3.8044 1.8156 -1.9100 0.9817
3.7436 1.8151 -1.8850 0.9819
3.6844 1.8146 -1.8608 0.9821
3.6267 1.8141 -1.8373 0.9824
3.4096 1.8123 -1.7495 0.9832
3.3086 1.8115 -1.7090 0.9836
3.2598 1.8110 -1.6896 0.9838
3.2121 1.8106 -1.6707 0.9839
3.1199 1.8099 -1.6342 0.9843
2.9889 1.8088 -1.5829 0.9848
2.9470 1.8084 -1.5666 0.9849
2.9060 1.8081 -1.5507 0.9851
2.8658 1.8078 -1.5352 0.9852
2.8263 1.8074 -1.5200 0.9854
2.7498 1.8068 -1.4908 0.9857
2.7126 1.8065 -1.4767 0.9858
2.6905 1.8401 -1.4769 0.9858
2.4958 1.7759 -1.3879 0.9866
2.3979 1.7741 -1.3515 0.9870
2.3354 1.7730 -1.3285 0.9872
2.1880 1.7703 -1.2752 0.9877
2.1323 1.7694 -1.2554 0.9879
2.1051 1.7689 -1.2458 0.9880
2.0519 1.7679 -1.2272 0.9882
2.0003 1.7670 -1.2093 0.9883
1.9750 1.7666 -1.2006 0.9884
1.9013 1.7652 -1.1755 0.9887
1.8774 1.7648 -1.1675 0.9887
1.8539 1.7644 -1.1596 0.9888
1.8077 1.7635 -1.1442 0.9890
1.7850 1.7631 -1.1368 0.9890
1.7627 1.7627 -1.1295 0.9891
1.7188 1.7619 -1.1153 0.9892
1.6973 1.7614 -1.1083 0.9893
1.6547 1.7603 -1.0946 0.9894
1.6340 1.7600 -1.0881 0.9895
1.6135 1.7597 -1.0817 0.9896
1.5734 1.7590 -1.0693 0.9897
1.5536 1.7587 -1.0633 0.9897
1.5341 1.7585 -1.0573 0.9898
1.5148 1.7582 -1.0515 0.9899
1.4582 1.7573 -1.0346 0.9900
1.4214 1.7568 -1.0239 0.9901
1.3854 1.7562 -1.0135 0.9902
1.3677 1.7560 -1.0085 0.9903
1.3501 1.7557 -1.0035 0.9903
1.3327 1.7555 -0.9986 0.9904
1.3155 1.7552 -0.9938 0.9904
1.2984 1.7550 -0.9891 0.9905
1.2815 1.7547 -0.9845 0.9905
1.2482 1.7543 -0.9755 0.9906
1.2155 1.7538 -0.9668 0.9907
1.1994 1.7536 -0.9626 0.9907
1.1833 1.7533 -0.9584 0.9908
1.1518 1.7529 -0.9503 0.9908
1.1362 1.7527 -0.9464 0.9909
1.1207 1.7525 -0.9425 0.9909
1.1053 1.7523 -0.9387 0.9909
1.0901 1.7521 -0.9349 0.9910
1.0750 1.7519 -0.9313 0.9910
1.0600 1.7516 -0.9277 0.9910
1.0452 1.7514 -0.9241 0.9911
1.0158 1.7511 -0.9172 0.9911
0.9868 1.7507 -0.9105 0.9912
0.9583 1.7503 -0.9041 0.9913
0.9442 1.7501 -0.9010 0.9913
0.9162 1.7497 -0.8949 0.9914
0.8886 1.7494 -0.8890 0.9914
