ply
format ascii 1.0
element vertex 1593
property float32 x
property float32 y
property float32 z
property float32 I
end_header
2.3545 6.9244 -2.3156 0.9698
2.3118 6.9393 -2.3157 0.9698
2.2261 6.9682 -2.3160 0.9698
2.1400 6.9961 -2.3163 0.9698
2.0102 7.0358 -2.3167 0.9698
1.9667 7.0484 -2.3169 0.9698
1.8796 7.0730 -2.3171 0.9698
1.7921 7.0965 -2.3173 0.9698
1.7483 7.1078 -2.3175 0.9698
1.7044 7.1188 -2.3176 0.9698
1.6604 7.1295 -2.3177 0.9698
1.6164 7.1400 -2.3178 0.9698
1.5281 7.1601 -2.3180 0.9697
1.4396 7.1790 -2.3182 0.9697
1.3952 7.1881 -2.3183 0.9697
1.3508 7.1969 -2.3184 0.9697
1.3063 7.2054 -2.3185 0.9697
1.2171 7.2215 -2.3186 0.9697
1.1725 7.2291 -2.3187 0.9697
1.1278 7.2365 -2.3188 0.9697
0.9935 7.2568 -2.3190 0.9697
0.9486 7.2630 -2.3191 0.9697
0.8137 7.2800 -2.3193 0.9697
0.7237 7.2898 -2.3194 0.9697
0.5884 7.3024 -2.3195 0.9697
0.5432 7.3061 -2.3196 0.9697
0.4076 7.3153 -2.3197 0.9697
0.3623 7.3177 -2.3197 0.9697
0.2718 7.3217 -2.3197 0.9697
0.1812 7.3247 -2.3198 0.9697
0.1359 7.3257 -2.3198 0.9697
0.0453 7.3269 -2.3198 0.9697
0.0000 7.3271 -2.3198 0.9697
-0.0453 7.3270 -2.3198 0.9697
-0.0906 7.3266 -2.3198 0.9697
-0.1812 7.3249 -2.3198 0.9697
-0.2265 7.3236 -2.3198 0.9697
-0.2718 7.3220 -2.3198 0.9697
-0.3171 7.3201 -2.3198 0.9697
-0.3623 7.3180 -2.3198 0.9697
-0.4076 7.3156 -2.3198 0.9697
-0.4980 7.3098 -2.3197 0.9697
-0.5432 7.3065 -2.3197 0.9697
-0.5884 7.3029 -2.3197 0.9697
-0.6786 7.2949 -2.3196 0.9697
-0.7688 7.2857 -2.3195 0.9697
-0.8138 7.2806 -2.3195 0.9697
-0.9936 7.2576 -2.3193 0.9697
-1.0384 7.2512 -2.3192 0.9697
-1.1727 7.2301 -2.3190 0.9697
-1.2173 7.2225 -2.3190 0.9697
-1.3065 7.2064 -2.3188 0.9697
-1.3954 7.1892 -2.3186 0.9697
-1.4398 7.1802 -2.3186 0.9697
-1.5284 7.1613 -2.3184 0.9697
-1.5725 7.1514 -2.3183 0.9697
-1.7047 7.1201 -2.3180 0.9697
-1.7487 7.1091 -2.3179 0.9698
-1.7925 7.0978 -2.3178 0.9698
-1.8363 7.0863 -2.3177 0.9698
-1.9236 7.0624 -2.3175 0.9698
-1.9671 7.0500 -2.3174 0.9698
-2.0106 7.0373 -2.3172 0.9698
-2.0973 7.0112 -2.3170 0.9698
-2.1405 6.9977 -2.3169 0.9698
-2.2695 6.9556 -2.3165 0.9698
-2.3123 6.9410 -2.3163 0.9698
-2.3551 6.9262 -2.3162 0.9698
-2.3977 6.9110 -2.3160 0.9698
-2.5673 6.8478 -2.3155 0.9698
-2.6094 6.8314 -2.3153 0.9698
-2.7768 6.7628 -2.3146 0.9698
-2.8183 6.7450 -2.3145 0.9698
-2.9834 6.6713 -2.3138 0.9698
-3.1059 6.6132 -2.3132 0.9698
-3.1465 6.5933 -2.3130 0.9698
-3.1870 6.5732 -2.3128 0.9698
-3.2273 6.5528 -2.3126 0.9698
-3.3075 6.5113 -2.3122 0.9698
-3.3474 6.4901 -2.3120 0.9698
-3.3872 6.4687 -2.3118 0.9698
-3.4268 6.4471 -2.3116 0.9698
-3.5057 6.4030 -2.3112 0.9698
-3.5839 6.3580 -2.3108 0.9698
-3.6228 6.3351 -2.3106 0.9698
-3.6616 6.3120 -2.3103 0.9698
-3.7002 6.2886 -2.3101 0.9699
-3.7386 6.2650 -2.3099 0.9699
-3.7769 6.2411 -2.3097 0.9699
-3.8151 6.2170 -2.3094 0.9699
-3.9286 6.1433 -2.3087 0.9699
-3.9661 6.1182 -2.3085 0.9699
-4.0034 6.0929 -2.3082 0.9699
-4.0406 6.0674 -2.3080 0.9699
-4.0776 6.0417 -2.3077 0.9699
-4.1144 6.0157 -2.3075 0.9699
-4.1511 5.9895 -2.3072 0.9699
-4.2239 5.9364 -2.3067 0.9699
-4.2601 5.9095 -2.3065 0.9699
-4.2960 5.8823 -2.3062 0.9699
-4.3318 5.8550 -2.3059 0.9699
-4.3675 5.8274 -2.3057 0.9699
-4.4029 5.7996 -2.3054 0.9699
-4.5081 5.7149 -2.3046 0.9699
-4.5429 5.6862 -2.3043 0.9699
-4.5774 5.6573 -2.3040 0.9699
-4.6117 5.6283 -2.3038 0.9699
-4.7136 5.5397 -2.3029 0.9699
-4.7472 5.5097 -2.3026 0.9699
-4.8795 5.3879 -2.3014 0.9700
-4.9121 5.3569 -2.3011 0.9700
-4.9445 5.3257 -2.3008 0.9700
-4.9767 5.2944 -2.3005 0.9700
-5.0086 5.2628 -2.3002 0.9700
-5.1033 5.1668 -2.2993 0.9700
-5.1345 5.1345 -2.2990 0.9700
-5.1654 5.1019 -2.2987 0.9700
-5.2138 5.0864 -2.3061 0.9699
-5.2896 5.0968 -2.3257 0.9697
-5.4616 5.1338 -2.3732 0.9690
-5.5502 5.1529 -2.3978 0.9687
-5.6407 5.1723 -2.4230 0.9684
-5.7352 5.1940 -2.4498 0.9681
-5.7718 5.1626 -2.4517 0.9680
-5.8028 5.1260 -2.4514 0.9680
-5.8640 5.0524 -2.4507 0.9680
-5.8943 5.0153 -2.4503 0.9680
-5.9541 4.9406 -2.4496 0.9681
-6.0420 4.8271 -2.4485 0.9681
-6.0709 4.7889 -2.4481 0.9681
-6.0994 4.7505 -2.4478 0.9681
-6.2386 4.5562 -2.4459 0.9681
-6.3714 4.3577 -2.4439 0.9681
-6.3972 4.3175 -2.4435 0.9681
-6.4481 4.2367 -2.4428 0.9681
-6.5466 4.0733 -2.4412 0.9682
-6.5706 4.0320 -2.4408 0.9682
-6.6178 3.9492 -2.4400 0.9682
-6.6866 3.8238 -2.4387 0.9682
-6.7311 3.7396 -2.4379 0.9682
-6.7745 3.6548 -2.4371 0.9682
-6.7958 3.6122 -2.4367 0.9682
-6.8169 3.5695 -2.4363 0.9682
-6.8377 3.5267 -2.4359 0.9682
-6.8784 3.4407 -2.4350 0.9682
-6.9180 3.3541 -2.4342 0.9683
-6.9374 3.3107 -2.4338 0.9683
-6.9565 3.2672 -2.4333 0.9683
-6.9940 3.1798 -2.4325 0.9683
-7.0303 3.0920 -2.4316 0.9683
-7.0655 3.0037 -2.4308 0.9683
-7.1162 2.8706 -2.4295 0.9683
-7.1326 2.8260 -2.4290 0.9683
-7.1486 2.7813 -2.4286 0.9683
-7.1799 2.6918 -2.4277 0.9683
-7.2100 2.6018 -2.4268 0.9684
-7.2247 2.5567 -2.4264 0.9684
-7.2531 2.4662 -2.4255 0.9684
-7.2669 2.4209 -2.4251 0.9684
-7.3065 2.2844 -2.4237 0.9684
-7.3315 2.1931 -2.4229 0.9684
-7.3781 2.0096 -2.4211 0.9684
-7.3890 1.9635 -2.4206 0.9684
-7.3996 1.9174 -2.4202 0.9684
-7.4100 1.8713 -2.4197 0.9684
-7.4200 1.8251 -2.4193 0.9684
-7.4298 1.7788 -2.4188 0.9685
-7.4484 1.6862 -2.4179 0.9685
-7.4573 1.6398 -2.4175 0.9685
-7.4659 1.5934 -2.4170 0.9685
-7.4742 1.5468 -2.4165 0.9685
-7.4899 1.4538 -2.4156 0.9685
-7.4974 1.4071 -2.4152 0.9685
-7.5358 1.1268 -2.4124 0.9685
-7.5412 1.0799 -2.4120 0.9685
-7.5511 0.9862 -2.4111 0.9686
-7.5599 0.8924 -2.4101 0.9686
-7.5638 0.8454 -2.4097 0.9686
-7.5675 0.7985 -2.4092 0.9686
-7.5708 0.7515 -2.4088 0.9686
-7.5813 0.5637 -2.4069 0.9686
-7.5832 0.5166 -2.4065 0.9686
-7.5883 0.1878 -2.4032 0.9687
-7.5871 0.0938 -2.4023 0.9687
-7.5861 0.0469 -2.4019 0.9687
-7.3857 -0.1828 -2.3996 0.9694
-7.3656 -0.4561 -2.3969 0.9694
-7.3613 -0.5016 -2.3965 0.9694
-7.3567 -0.5470 -2.3960 0.9695
-7.3518 -0.5923 -2.3956 0.9695
-7.3294 -0.7734 -2.3938 0.9695
-7.3231 -0.8186 -2.3934 0.9695
-7.2876 -1.0437 -2.3911 0.9695
-7.2797 -1.0885 -2.3907 0.9695
-7.2630 -1.1780 -2.3898 0.9695
-7.2543 -1.2226 -2.3894 0.9695
-7.2359 -1.3118 -2.3885 0.9695
-7.2165 -1.4007 -2.3876 0.9696
-7.1853 -1.5335 -2.3863 0.9696
-7.1744 -1.5776 -2.3859 0.9696
-7.1632 -1.6217 -2.3855 0.9696
-7.1517 -1.6656 -2.3850 0.9696
-7.1400 -1.7095 -2.3846 0.9696
-7.1032 -1.8407 -2.3833 0.9696
-7.0641 -1.9711 -2.3820 0.9696
-7.0225 -2.1007 -2.3808 0.9696
-7.0081 -2.1437 -2.3803 0.9696
-6.9481 -2.3147 -2.3787 0.9697
-6.8156 -2.6518 -2.3753 0.9697
-6.7979 -2.6934 -2.3749 0.9697
-6.7799 -2.7349 -2.3745 0.9697
-6.7433 -2.8176 -2.3737 0.9697
-6.7246 -2.8588 -2.3733 0.9697
-6.6864 -2.9407 -2.3725 0.9697
-6.6670 -2.9815 -2.3721 0.9698
-6.6072 -3.1031 -2.3709 0.9698
-6.5661 -3.1835 -2.3701 0.9698
-6.5240 -3.2634 -2.3693 0.9698
-6.3922 -3.4997 -2.3670 0.9698
-6.3694 -3.5387 -2.3666 0.9698
-6.3231 -3.6160 -2.3658 0.9698
-6.2996 -3.6544 -2.3654 0.9698
-6.2759 -3.6927 -2.3651 0.9698
-6.2519 -3.7309 -2.3647 0.9698
-6.1787 -3.8444 -2.3636 0.9699
-6.1539 -3.8819 -2.3632 0.9699
-6.1288 -3.9193 -2.3628 0.9699
-6.0779 -3.9936 -2.3621 0.9699
-6.0522 -4.0304 -2.3617 0.9699
-5.9736 -4.1401 -2.3606 0.9699
-5.8931 -4.2483 -2.3596 0.9699
-5.8659 -4.2840 -2.3592 0.9699
-5.7547 -4.4252 -2.3578 0.9699
-5.6402 -4.5635 -2.3565 0.9699
-5.6111 -4.5976 -2.3561 0.9700
-5.4925 -4.7324 -2.3548 0.9700
-5.4624 -4.7656 -2.3545 0.9700
-5.3708 -4.8641 -2.3535 0.9700
-5.3399 -4.8965 -2.3532 0.9700
-5.2775 -4.9609 -2.3525 0.9700
-5.1825 -5.0559 -2.3516 0.9700
-5.1504 -5.0872 -2.3513 0.9700
-5.0858 -5.1491 -2.3507 0.9700
-5.0532 -5.1798 -2.3504 0.9700
-5.0204 -5.2103 -2.3500 0.9700
-4.9543 -5.2706 -2.3494 0.9700
-4.9210 -5.3005 -2.3492 0.9700
-4.8875 -5.3302 -2.3489 0.9700
-4.8201 -5.3888 -2.3483 0.9701
-4.7860 -5.4179 -2.3480 0.9701
-4.6135 -5.5599 -2.3466 0.9701
-4.5080 -5.6426 -2.3458 0.9701
-4.4010 -5.7233 -2.3449 0.9701
-4.3650 -5.7497 -2.3447 0.9701
-4.2926 -5.8020 -2.3442 0.9701
-4.2562 -5.8278 -2.3439 0.9701
-4.2196 -5.8534 -2.3436 0.9701
-4.1829 -5.8787 -2.3434 0.9701
-4.1090 -5.9287 -2.3429 0.9701
-4.0718 -5.9534 -2.3427 0.9701
-3.9970 -6.0021 -2.3422 0.9701
-3.9594 -6.0261 -2.3419 0.9701
-3.8077 -6.1197 -2.3410 0.9701
-3.7309 -6.1651 -2.3405 0.9701
-3.6924 -6.1875 -2.3403 0.9702
-3.6149 -6.2315 -2.3399 0.9702
-3.5369 -6.2746 -2.3394 0.9702
-3.4977 -6.2958 -2.3392 0.9702
-3.3794 -6.3579 -2.3386 0.9702
-3.2999 -6.3981 -2.3382 0.9702
-3.2600 -6.4178 -2.3380 0.9702
-3.2200 -6.4373 -2.3378 0.9702
-3.1799 -6.4566 -2.3376 0.9702
-3.0993 -6.4944 -2.3372 0.9702
-3.0183 -6.5312 -2.3369 0.9702
-2.9776 -6.5492 -2.3367 0.9702
-2.6069 -6.7003 -2.3352 0.9702
-2.5653 -6.7159 -2.3350 0.9702
-2.3557 -6.7897 -2.3342 0.9702
-2.3135 -6.8038 -2.3341 0.9702
-2.2289 -6.8311 -2.3338 0.9702
-2.1014 -6.8701 -2.3334 0.9702
-2.0588 -6.8826 -2.3333 0.9702
-2.0161 -6.8948 -2.3332 0.9702
-1.9733 -6.9068 -2.3331 0.9702
-1.8445 -6.9411 -2.3327 0.9702
-1.6287 -6.9932 -2.3322 0.9703
-1.4985 -7.0213 -2.3319 0.9703
-1.4550 -7.0302 -2.3318 0.9703
-1.4114 -7.0388 -2.3317 0.9703
-1.3242 -7.0552 -2.3315 0.9703
-1.2804 -7.0630 -2.3314 0.9703
-1.1929 -7.0779 -2.3313 0.9703
-1.0613 -7.0981 -2.3311 0.9703
-0.9734 -7.1103 -2.3309 0.9703
-0.8413 -7.1266 -2.3308 0.9703
-0.7971 -7.1315 -2.3307 0.9703
-0.7530 -7.1361 -2.3307 0.9703
-0.7088 -7.1405 -2.3306 0.9703
-0.6204 -7.1485 -2.3305 0.9703
-0.5762 -7.1520 -2.3305 0.9703
-0.5320 -7.1553 -2.3304 0.9703
-0.4877 -7.1584 -2.3304 0.9703
-0.4434 -7.1611 -2.3304 0.9703
-0.3548 -7.1659 -2.3303 0.9703
-0.2662 -7.1696 -2.3303 0.9703
-0.2218 -7.1710 -2.3302 0.9703
-0.1775 -7.1722 -2.3302 0.9703
-0.0444 -7.1742 -2.3302 0.9703
0.0887 -7.1737 -2.3302 0.9703
0.3548 -7.1656 -2.3302 0.9703
0.4434 -7.1608 -2.3303 0.9703
0.5762 -7.1516 -2.3303 0.9703
0.6204 -7.1480 -2.3304 0.9703
0.6646 -7.1441 -2.3304 0.9703
0.7529 -7.1355 -2.3305 0.9703
0.8412 -7.1260 -2.3306 0.9703
0.8852 -7.1208 -2.3306 0.9703
0.9733 -7.1096 -2.3307 0.9703
1.1051 -7.0908 -2.3309 0.9703
1.1928 -7.0770 -2.3310 0.9703
1.2803 -7.0621 -2.3311 0.9703
1.3240 -7.0542 -2.3312 0.9703
1.3676 -7.0461 -2.3313 0.9703
1.4112 -7.0378 -2.3313 0.9703
1.5851 -7.0017 -2.3317 0.9703
1.6284 -6.9920 -2.3318 0.9703
1.7581 -6.9615 -2.3321 0.9703
1.8012 -6.9508 -2.3322 0.9703
1.9300 -6.9171 -2.3325 0.9702
1.9729 -6.9054 -2.3326 0.9702
2.0157 -6.8934 -2.3327 0.9702
2.0583 -6.8811 -2.3328 0.9702
2.1435 -6.8558 -2.3330 0.9702
2.3551 -6.7881 -2.3337 0.9702
2.3971 -6.7738 -2.3338 0.9702
2.4391 -6.7593 -2.3340 0.9702
2.4810 -6.7444 -2.3341 0.9702
2.5229 -6.7294 -2.3342 0.9702
2.5646 -6.7140 -2.3344 0.9702
2.6062 -6.6985 -2.3345 0.9702
2.7718 -6.6337 -2.3351 0.9702
2.8541 -6.5999 -2.3355 0.9702
2.9359 -6.5650 -2.3358 0.9702
2.9767 -6.5471 -2.3360 0.9702
3.0173 -6.5291 -2.3361 0.9702
3.0579 -6.5108 -2.3363 0.9702
3.0983 -6.4923 -2.3365 0.9702
3.1386 -6.4735 -2.3367 0.9702
3.2189 -6.4352 -2.3370 0.9702
3.2988 -6.3959 -2.3374 0.9702
3.5356 -6.2723 -2.3386 0.9702
3.5747 -6.2509 -2.3388 0.9702
3.6136 -6.2292 -2.3390 0.9702
3.6523 -6.2073 -2.3392 0.9702
3.7295 -6.1628 -2.3396 0.9702
3.8062 -6.1173 -2.3401 0.9702
3.8822 -6.0709 -2.3405 0.9701
3.9201 -6.0474 -2.3407 0.9701
4.1442 -5.9013 -2.3421 0.9701
4.1811 -5.8762 -2.3424 0.9701
4.2178 -5.8508 -2.3426 0.9701
4.2907 -5.7994 -2.3431 0.9701
4.3630 -5.7471 -2.3436 0.9701
4.4348 -5.6940 -2.3441 0.9701
4.4704 -5.6671 -2.3444 0.9701
4.5059 -5.6400 -2.3447 0.9701
4.5411 -5.6126 -2.3449 0.9701
4.5763 -5.5851 -2.3452 0.9701
4.6113 -5.5573 -2.3455 0.9701
4.7495 -5.4440 -2.3465 0.9701
4.8851 -5.3275 -2.3477 0.9701
5.0178 -5.2076 -2.3488 0.9700
5.0831 -5.1464 -2.3494 0.9700
5.1797 -5.0531 -2.3503 0.9700
5.2432 -4.9900 -2.3509 0.9700
5.2746 -4.9582 -2.3512 0.9700
5.3369 -4.8938 -2.3519 0.9700
5.3678 -4.8614 -2.3522 0.9700
5.4290 -4.7959 -2.3528 0.9700
5.4593 -4.7629 -2.3531 0.9700
5.4894 -4.7297 -2.3535 0.9700
5.5785 -4.6289 -2.3544 0.9700
5.6078 -4.5950 -2.3548 0.9700
5.6369 -4.5608 -2.3551 0.9700
5.6658 -4.5265 -2.3554 0.9700
5.7513 -4.4226 -2.3564 0.9699
5.7794 -4.3876 -2.3568 0.9699
5.8623 -4.2814 -2.3578 0.9699
5.8895 -4.2457 -2.3581 0.9699
5.9166 -4.2098 -2.3585 0.9699
5.9434 -4.1738 -2.3588 0.9699
5.9963 -4.1012 -2.3595 0.9699
6.0484 -4.0279 -2.3603 0.9699
6.0741 -3.9910 -2.3606 0.9699
6.1249 -3.9168 -2.3613 0.9699
6.2237 -3.7665 -2.3628 0.9699
6.2479 -3.7285 -2.3632 0.9699
6.3190 -3.6136 -2.3643 0.9698
6.3652 -3.5363 -2.3650 0.9698
6.4105 -3.4584 -2.3658 0.9698
6.4767 -3.3405 -2.3669 0.9698
6.5196 -3.2612 -2.3677 0.9698
6.5408 -3.2214 -2.3681 0.9698
6.6026 -3.1010 -2.3693 0.9698
6.6427 -3.0201 -2.3701 0.9698
6.6818 -2.9387 -2.3708 0.9698
6.7199 -2.8568 -2.3716 0.9698
6.7386 -2.8157 -2.3720 0.9698
6.7570 -2.7744 -2.3724 0.9697
6.8282 -2.6082 -2.3741 0.9697
6.8623 -2.5244 -2.3749 0.9697
6.8954 -2.4402 -2.3757 0.9697
6.9274 -2.3556 -2.3765 0.9697
6.9431 -2.3130 -2.3769 0.9697
6.9585 -2.2705 -2.3774 0.9697
6.9885 -2.1850 -2.3782 0.9697
7.0031 -2.1421 -2.3786 0.9697
7.0315 -2.0561 -2.3794 0.9697
7.0453 -2.0129 -2.3799 0.9697
7.0589 -1.9696 -2.3803 0.9696
7.0853 -1.8829 -2.3811 0.9696
7.1228 -1.7520 -2.3824 0.9696
7.1465 -1.6644 -2.3833 0.9696
7.1579 -1.6205 -2.3837 0.9696
7.1800 -1.5323 -2.3846 0.9696
7.2398 -1.2663 -2.3872 0.9696
7.2488 -1.2218 -2.3876 0.9696
7.2660 -1.1324 -2.3885 0.9695
7.2898 -0.9980 -2.3898 0.9695
7.3042 -0.9080 -2.3907 0.9695
7.3111 -0.8631 -2.3911 0.9695
7.3299 -0.7277 -2.3924 0.9695
7.3511 -0.5466 -2.3942 0.9695
7.3678 -0.3648 -2.3960 0.9695
7.3745 -0.2738 -2.3969 0.9694
7.3774 -0.2282 -2.3973 0.9694
7.3824 -0.1370 -2.3982 0.9694
7.3863 -0.0457 -2.3991 0.9694
7.3900 0.0914 -2.4004 0.9694
7.3907 0.1371 -2.4009 0.9694
7.3912 0.2286 -2.4018 0.9694
7.3905 0.3201 -2.4027 0.9694
7.3898 0.3659 -2.4031 0.9694
7.3888 0.4117 -2.4036 0.9694
7.3818 0.5947 -2.4054 0.9693
7.3767 0.6862 -2.4063 0.9693
7.3737 0.7320 -2.4067 0.9693
7.3704 0.7777 -2.4072 0.9693
7.3668 0.8234 -2.4076 0.9693
7.3588 0.9148 -2.4085 0.9693
7.3543 0.9605 -2.4090 0.9693
7.3446 1.0518 -2.4099 0.9693
7.3394 1.0974 -2.4103 0.9693
7.3338 1.1429 -2.4107 0.9693
7.3279 1.1885 -2.4112 0.9693
7.3218 1.2340 -2.4116 0.9693
7.3154 1.2795 -2.4121 0.9692
7.3017 1.3704 -2.4130 0.9692
7.2869 1.4612 -2.4139 0.9692
7.2790 1.5065 -2.4143 0.9692
7.2709 1.5517 -2.4148 0.9692
7.2261 1.7774 -2.4170 0.9692
7.2163 1.8224 -2.4174 0.9692
7.2062 1.8673 -2.4179 0.9692
7.1958 1.9122 -2.4183 0.9692
7.1852 1.9570 -2.4187 0.9692
7.1742 2.0018 -2.4192 0.9692
7.1398 2.1357 -2.4205 0.9691
7.1277 2.1802 -2.4209 0.9691
7.1154 2.2246 -2.4214 0.9691
7.0632 2.4017 -2.4231 0.9691
7.0495 2.4458 -2.4235 0.9691
7.0355 2.4897 -2.4240 0.9691
7.0212 2.5337 -2.4244 0.9691
7.0067 2.5775 -2.4248 0.9691
6.9767 2.6649 -2.4257 0.9691
6.9613 2.7085 -2.4261 0.9691
6.9457 2.7520 -2.4266 0.9691
6.8633 2.9680 -2.4287 0.9690
6.8106 3.0964 -2.4299 0.9690
6.7741 3.1815 -2.4308 0.9690
6.7555 3.2239 -2.4312 0.9690
6.7365 3.2662 -2.4316 0.9690
6.7174 3.3083 -2.4320 0.9690
6.6979 3.3504 -2.4324 0.9690
6.6380 3.4758 -2.4337 0.9690
6.5967 3.5588 -2.4345 0.9690
6.5757 3.6002 -2.4349 0.9690
6.5544 3.6414 -2.4353 0.9690
6.5328 3.6825 -2.4357 0.9690
6.5110 3.7234 -2.4361 0.9689
6.4666 3.8049 -2.4369 0.9689
6.4440 3.8454 -2.4373 0.9689
6.4211 3.8859 -2.4377 0.9689
6.3746 3.9663 -2.4385 0.9689
6.3510 4.0063 -2.4389 0.9689
6.3271 4.0461 -2.4393 0.9689
6.2540 4.1648 -2.4405 0.9689
6.2040 4.2432 -2.4413 0.9689
6.1530 4.3210 -2.4420 0.9689
6.1271 4.3596 -2.4424 0.9689
6.1009 4.3981 -2.4428 0.9689
6.0746 4.4364 -2.4432 0.9689
6.0211 4.5126 -2.4439 0.9689
5.9666 4.5881 -2.4447 0.9688
5.9112 4.6630 -2.4454 0.9688
5.8549 4.7372 -2.4461 0.9688
5.8263 4.7740 -2.4465 0.9688
5.7975 4.8107 -2.4469 0.9688
5.7685 4.8471 -2.4472 0.9688
5.7393 4.8834 -2.4476 0.9688
5.6502 4.9912 -2.4487 0.9688
5.6200 5.0268 -2.4490 0.9688
5.4658 5.2018 -2.4507 0.9688
5.3384 5.3384 -2.4521 0.9687
5.3060 5.3720 -2.4524 0.9687
5.2406 5.4387 -2.4531 0.9687
5.2075 5.4717 -2.4534 0.9687
5.1408 5.5372 -2.4541 0.9687
5.1071 5.5696 -2.4544 0.9687
4.9700 5.5564 -2.4213 0.9691
4.8049 5.5075 -2.3739 0.9697
4.7247 5.4837 -2.3510 0.9700
4.6462 5.4606 -2.3287 0.9703
4.5763 5.4462 -2.3105 0.9705
4.4234 5.5367 -2.3017 0.9706
4.3896 5.5646 -2.3020 0.9706
4.3556 5.5923 -2.3023 0.9706
4.3215 5.6198 -2.3026 0.9706
4.2179 5.7010 -2.3034 0.9706
4.1481 5.7540 -2.3039 0.9706
4.0420 5.8320 -2.3047 0.9706
4.0062 5.8575 -2.3049 0.9706
3.8982 5.9328 -2.3057 0.9706
3.7886 6.0060 -2.3064 0.9706
3.7148 6.0536 -2.3069 0.9706
3.6777 6.0771 -2.3071 0.9706
3.6404 6.1003 -2.3074 0.9706
3.5654 6.1461 -2.3078 0.9706
3.5277 6.1687 -2.3080 0.9706
3.4518 6.2130 -2.3085 0.9706
3.4136 6.2348 -2.3087 0.9705
3.3753 6.2564 -2.3089 0.9705
3.1817 6.3606 -2.3100 0.9705
3.1426 6.3807 -2.3102 0.9705
3.1033 6.4006 -2.3104 0.9705
3.0244 6.4396 -2.3108 0.9705
2.9051 6.4962 -2.3113 0.9705
2.8652 6.5146 -2.3115 0.9705
2.8250 6.5327 -2.3117 0.9705
2.7848 6.5505 -2.3119 0.9705
2.5000 6.6683 -2.3131 0.9705
2.3763 6.7149 -2.3135 0.9705
2.3349 6.7300 -2.3137 0.9705
2.2934 6.7447 -2.3138 0.9705
2.2101 6.7734 -2.3141 0.9705
2.1683 6.7873 -2.3143 0.9705
2.1264 6.8010 -2.3144 0.9705
2.0844 6.8144 -2.3145 0.9705
2.0424 6.8276 -2.3147 0.9705
1.7882 6.9009 -2.3154 0.9705
1.7029 6.9232 -2.3157 0.9705
1.6602 6.9339 -2.3158 0.9705
1.5744 6.9546 -2.3160 0.9705
1.5314 6.9645 -2.3161 0.9705
1.4884 6.9741 -2.3162 0.9705
1.2723 7.0182 -2.3166 0.9704
1.2289 7.0262 -2.3167 0.9704
1.1855 7.0339 -2.3168 0.9704
1.1420 7.0413 -2.3169 0.9704
1.0985 7.0485 -2.3170 0.9704
1.0549 7.0553 -2.3170 0.9704
0.9676 7.0683 -2.3172 0.9704
0.9239 7.0743 -2.3172 0.9704
0.8802 7.0801 -2.3173 0.9704
0.7926 7.0908 -2.3174 0.9704
0.7488 7.0957 -2.3175 0.9704
0.6610 7.1047 -2.3176 0.9704
0.5731 7.1127 -2.3177 0.9704
0.5291 7.1162 -2.3177 0.9704
0.4851 7.1194 -2.3177 0.9704
0.4410 7.1224 -2.3178 0.9704
0.3970 7.1251 -2.3178 0.9704
0.3088 7.1296 -2.3179 0.9704
0.2647 7.1315 -2.3179 0.9704
0.2206 7.1330 -2.3179 0.9704
0.1765 7.1343 -2.3179 0.9704
0.1324 7.1353 -2.3179 0.9704
0.0441 7.1365 -2.3180 0.9704
-0.0000 7.1366 -2.3180 0.9704
-0.0441 7.1365 -2.3180 0.9704
-0.1765 7.1344 -2.3180 0.9704
-0.2206 7.1332 -2.3180 0.9704
-0.2647 7.1317 -2.3179 0.9704
-0.3088 7.1299 -2.3179 0.9704
-0.4410 7.1227 -2.3179 0.9704
-0.5291 7.1166 -2.3178 0.9704
-0.6171 7.1093 -2.3178 0.9704
-0.7049 7.1009 -2.3177 0.9704
-0.7927 7.0914 -2.3176 0.9704
-0.8365 7.0862 -2.3176 0.9704
-1.1857 7.0348 -2.3171 0.9704
-1.2291 7.0271 -2.3170 0.9704
-1.2725 7.0192 -2.3170 0.9704
-1.3159 7.0109 -2.3169 0.9704
-1.3591 7.0024 -2.3168 0.9704
-1.4886 6.9752 -2.3166 0.9704
-1.6605 6.9352 -2.3162 0.9705
-1.8312 6.8908 -2.3158 0.9705
-1.8736 6.8790 -2.3157 0.9705
-1.9160 6.8669 -2.3156 0.9705
-2.0007 6.8420 -2.3153 0.9705
-2.0849 6.8160 -2.3151 0.9705
-2.2106 6.7751 -2.3147 0.9705
-2.2523 6.7608 -2.3146 0.9705
-2.2940 6.7464 -2.3144 0.9705
-2.3770 6.7167 -2.3141 0.9705
-2.4595 6.6859 -2.3139 0.9705
-2.5007 6.6702 -2.3137 0.9705
-2.5417 6.6542 -2.3136 0.9705
-2.5826 6.6379 -2.3134 0.9705
-2.6642 6.6045 -2.3131 0.9705
-2.7048 6.5874 -2.3129 0.9705
-2.7453 6.5701 -2.3128 0.9705
-2.9460 6.4797 -2.3119 0.9705
-3.0649 6.4224 -2.3113 0.9705
-3.1436 6.3830 -2.3110 0.9705
-3.1828 6.3629 -2.3108 0.9705
-3.2607 6.3219 -2.3104 0.9705
-3.4911 6.1933 -2.3092 0.9705
-3.5290 6.1711 -2.3089 0.9705
-3.6044 6.1258 -2.3085 0.9706
-3.6419 6.1028 -2.3083 0.9706
-3.7164 6.0561 -2.3078 0.9706
-3.7902 6.0085 -2.3074 0.9706
-3.8269 5.9844 -2.3071 0.9706
-3.9361 5.9105 -2.3064 0.9706
-3.9721 5.8854 -2.3062 0.9706
-4.0793 5.8089 -2.3055 0.9706
-4.1147 5.7829 -2.3052 0.9706
-4.1500 5.7567 -2.3050 0.9706
-4.2199 5.7037 -2.3044 0.9706
-4.2546 5.6769 -2.3042 0.9706
-4.3235 5.6225 -2.3037 0.9706
-4.3577 5.5950 -2.3034 0.9706
-4.3917 5.5673 -2.3031 0.9706
-4.4592 5.5113 -2.3026 0.9706
-4.5919 5.3967 -2.3015 0.9706
-4.6895 5.3086 -2.3006 0.9706
-4.7536 5.2489 -2.3001 0.9707
-4.8795 5.1271 -2.2989 0.9707
-4.9105 5.0962 -2.2986 0.9707
-4.9413 5.0650 -2.2983 0.9707
-5.0369 5.0369 -2.3136 0.9705
-5.1123 5.0495 -2.3339 0.9702
-5.1907 5.0638 -2.3553 0.9700
-5.2732 5.0811 -2.3784 0.9697
-5.5313 5.1353 -2.4515 0.9688
-5.6535 4.9942 -2.4501 0.9688
-5.6834 4.9584 -2.4497 0.9688
-5.7427 4.8863 -2.4490 0.9688
-5.7720 4.8500 -2.4487 0.9688
-5.8010 4.8135 -2.4483 0.9688
-5.8298 4.7769 -2.4480 0.9688
-5.8867 4.7030 -2.4473 0.9688
-5.9148 4.6658 -2.4469 0.9688
-5.9427 4.6285 -2.4465 0.9688
-5.9703 4.5909 -2.4462 0.9688
-6.0248 4.5154 -2.4454 0.9688
-6.0517 4.4774 -2.4451 0.9688
-6.0784 4.4392 -2.4447 0.9688
-6.1048 4.4008 -2.4443 0.9688
-6.1310 4.3624 -2.4440 0.9688
-6.1825 4.2849 -2.4432 0.9689
-6.2079 4.2459 -2.4428 0.9689
-6.2827 4.1281 -2.4417 0.9689
-6.3071 4.0885 -2.4413 0.9689
-6.3313 4.0488 -2.4409 0.9689
-6.4022 3.9287 -2.4397 0.9689
-6.4709 3.8074 -2.4386 0.9689
-6.4933 3.7668 -2.4382 0.9689
-6.5372 3.6849 -2.4374 0.9689
-6.5588 3.6438 -2.4370 0.9689
-6.5801 3.6026 -2.4366 0.9689
-6.6012 3.5613 -2.4362 0.9689
-6.6220 3.5198 -2.4358 0.9690
-6.6628 3.4365 -2.4350 0.9690
-6.6828 3.3946 -2.4345 0.9690
-6.7220 3.3106 -2.4337 0.9690
-6.7412 3.2684 -2.4333 0.9690
-6.7602 3.2262 -2.4329 0.9690
-6.7788 3.1837 -2.4325 0.9690
-6.8333 3.0558 -2.4312 0.9690
-6.8508 3.0130 -2.4308 0.9690
-6.8852 2.9271 -2.4300 0.9690
-6.9020 2.8839 -2.4296 0.9690
-6.9185 2.8407 -2.4291 0.9690
-6.9507 2.7539 -2.4283 0.9690
-7.0546 2.4475 -2.4253 0.9691
-7.0684 2.4034 -2.4249 0.9691
-7.0819 2.3593 -2.4245 0.9691
-7.1080 2.2707 -2.4236 0.9691
-7.1450 2.1373 -2.4223 0.9691
-7.1568 2.0927 -2.4218 0.9691
-7.1683 2.0480 -2.4214 0.9691
-7.1905 1.9585 -2.4205 0.9691
-7.2012 1.9137 -2.4201 0.9691
-7.2217 1.8238 -2.4192 0.9692
-7.2410 1.7337 -2.4183 0.9692
-7.2593 1.6434 -2.4175 0.9692
-7.2845 1.5076 -2.4161 0.9692
-7.2924 1.4622 -2.4157 0.9692
-7.2999 1.4169 -2.4152 0.9692
-7.3072 1.3715 -2.4148 0.9692
-7.3142 1.3260 -2.4144 0.9692
-7.3209 1.2804 -2.4139 0.9692
-7.3274 1.2350 -2.4135 0.9692
-7.3502 1.0526 -2.4117 0.9693
-7.3644 0.9155 -2.4103 0.9693
-7.3685 0.8698 -2.4099 0.9693
-7.3724 0.8241 -2.4094 0.9693
-7.3760 0.7783 -2.4090 0.9693
-7.3823 0.6868 -2.4081 0.9693
-7.3850 0.6410 -2.4077 0.9693
-7.3896 0.5494 -2.4068 0.9693
-7.3915 0.5036 -2.4063 0.9693
-7.3931 0.4578 -2.4059 0.9693
-7.3955 0.3662 -2.4050 0.9693
-7.3962 0.3204 -2.4045 0.9693
-7.3968 0.2287 -2.4036 0.9694
-7.3967 0.1830 -2.4032 0.9694
-7.3957 0.0915 -2.4023 0.9694
-7.2107 -0.0000 -2.4014 0.9701
-7.2076 -0.0892 -2.4005 0.9701
-7.1979 -0.2672 -2.3987 0.9701
-7.1878 -0.4005 -2.3974 0.9701
-7.1797 -0.4892 -2.3966 0.9701
-7.1752 -0.5335 -2.3961 0.9701
-7.1655 -0.6220 -2.3953 0.9701
-7.1602 -0.6661 -2.3948 0.9701
-7.1547 -0.7103 -2.3944 0.9701
-7.1489 -0.7544 -2.3940 0.9701
-7.1428 -0.7984 -2.3935 0.9702
-7.1364 -0.8424 -2.3931 0.9702
-7.1298 -0.8864 -2.3927 0.9702
-7.1229 -0.9303 -2.3922 0.9702
-7.1157 -0.9741 -2.3918 0.9702
-7.1083 -1.0179 -2.3914 0.9702
-7.0926 -1.1054 -2.3905 0.9702
-7.0843 -1.1490 -2.3901 0.9702
-7.0758 -1.1926 -2.3897 0.9702
-7.0487 -1.3229 -2.3884 0.9702
-7.0391 -1.3663 -2.3880 0.9702
-7.0293 -1.4095 -2.3875 0.9702
-7.0088 -1.4958 -2.3867 0.9702
-6.9762 -1.6247 -2.3854 0.9703
-6.9290 -1.7955 -2.3837 0.9703
-6.9165 -1.8380 -2.3833 0.9703
-6.9038 -1.8804 -2.3829 0.9703
-6.8776 -1.9650 -2.3821 0.9703
-6.8642 -2.0071 -2.3817 0.9703
-6.8364 -2.0912 -2.3808 0.9703
-6.8222 -2.1330 -2.3804 0.9703
-6.7929 -2.2165 -2.3796 0.9703
-6.7627 -2.2995 -2.3788 0.9703
-6.7472 -2.3409 -2.3784 0.9703
-6.6992 -2.4644 -2.3772 0.9704
-6.6827 -2.5053 -2.3768 0.9704
-6.6659 -2.5462 -2.3763 0.9704
-6.6489 -2.5870 -2.3759 0.9704
-6.6317 -2.6276 -2.3755 0.9704
-6.6142 -2.6681 -2.3751 0.9704
-6.5965 -2.7085 -2.3748 0.9704
-6.5785 -2.7488 -2.3744 0.9704
-6.5231 -2.8689 -2.3732 0.9704
-6.5042 -2.9087 -2.3728 0.9704
-6.3649 -3.1838 -2.3701 0.9704
-6.3441 -3.2226 -2.3697 0.9704
-6.2584 -3.3763 -2.3682 0.9705
-6.2364 -3.4145 -2.3678 0.9705
-6.2142 -3.4524 -2.3674 0.9705
-6.1231 -3.6028 -2.3659 0.9705
-6.0997 -3.6400 -2.3656 0.9705
-6.0762 -3.6771 -2.3652 0.9705
-6.0524 -3.7140 -2.3648 0.9705
-5.9301 -3.8964 -2.3630 0.9705
-5.9050 -3.9324 -2.3627 0.9705
-5.8797 -3.9683 -2.3623 0.9705
-5.8284 -4.0395 -2.3616 0.9705
-5.7234 -4.1800 -2.3602 0.9706
-5.6696 -4.2492 -2.3595 0.9706
-5.6150 -4.3178 -2.3589 0.9706
-5.5874 -4.3518 -2.3585 0.9706
-5.5596 -4.3856 -2.3582 0.9706
-5.5034 -4.4528 -2.3575 0.9706
-5.4750 -4.4861 -2.3572 0.9706
-5.4463 -4.5193 -2.3569 0.9706
-5.3594 -4.6176 -2.3559 0.9706
-5.3004 -4.6823 -2.3553 0.9706
-5.2407 -4.7462 -2.3546 0.9706
-5.2105 -4.7779 -2.3543 0.9706
-5.1497 -4.8406 -2.3537 0.9706
-5.1190 -4.8718 -2.3534 0.9706
-5.0570 -4.9334 -2.3528 0.9707
-5.0257 -4.9640 -2.3525 0.9707
-4.9943 -4.9943 -2.3522 0.9707
-4.9627 -5.0245 -2.3519 0.9707
-4.9309 -5.0544 -2.3516 0.9707
-4.8989 -5.0842 -2.3513 0.9707
-4.8345 -5.1431 -2.3507 0.9707
-4.8020 -5.1723 -2.3504 0.9707
-4.7693 -5.2012 -2.3501 0.9707
-4.7365 -5.2300 -2.3498 0.9707
-4.7035 -5.2586 -2.3495 0.9707
-4.6703 -5.2869 -2.3493 0.9707
-4.6370 -5.3150 -2.3490 0.9707
-4.6035 -5.3430 -2.3487 0.9707
-4.5698 -5.3707 -2.3484 0.9707
-4.5360 -5.3983 -2.3481 0.9707
-4.5020 -5.4256 -2.3479 0.9707
-4.3991 -5.5063 -2.3471 0.9707
-4.2244 -5.6365 -2.3458 0.9707
-4.1890 -5.6619 -2.3455 0.9707
-4.1178 -5.7121 -2.3450 0.9707
-4.0819 -5.7368 -2.3448 0.9708
-4.0098 -5.7857 -2.3443 0.9708
-3.9736 -5.8098 -2.3440 0.9708
-3.9006 -5.8573 -2.3436 0.9708
-3.8271 -5.9039 -2.3431 0.9708
-3.7902 -5.9269 -2.3429 0.9708
-3.7531 -5.9496 -2.3426 0.9708
-3.7159 -5.9721 -2.3424 0.9708
-3.6410 -6.0165 -2.3420 0.9708
-3.6034 -6.0384 -2.3418 0.9708
-3.5657 -6.0600 -2.3415 0.9708
-3.5278 -6.0813 -2.3413 0.9708
-3.3366 -6.1848 -2.3403 0.9708
-3.2980 -6.2047 -2.3401 0.9708
-3.2205 -6.2440 -2.3397 0.9708
-3.1815 -6.2633 -2.3395 0.9708
-3.1033 -6.3011 -2.3391 0.9708
-3.0247 -6.3380 -2.3388 0.9708
-2.9852 -6.3561 -2.3386 0.9708
-2.9456 -6.3740 -2.3384 0.9708
-2.8262 -6.4261 -2.3379 0.9708
-2.7862 -6.4430 -2.3377 0.9708
-2.7461 -6.4596 -2.3375 0.9708
-2.7059 -6.4760 -2.3374 0.9708
-2.6656 -6.4922 -2.3372 0.9708
-2.5848 -6.5237 -2.3369 0.9708
-2.5036 -6.5544 -2.3366 0.9709
-2.4628 -6.5693 -2.3364 0.9709
-2.4220 -6.5840 -2.3363 0.9709
-2.3401 -6.6126 -2.3360 0.9709
-2.2990 -6.6265 -2.3358 0.9709
-2.1753 -6.6669 -2.3354 0.9709
-2.1339 -6.6798 -2.3353 0.9709
-2.0509 -6.7050 -2.3350 0.9709
-1.8841 -6.7522 -2.3346 0.9709
-1.8422 -6.7634 -2.3344 0.9709
-1.8002 -6.7744 -2.3343 0.9709
-1.7582 -6.7851 -2.3342 0.9709
-1.7161 -6.7954 -2.3341 0.9709
-1.6740 -6.8056 -2.3340 0.9709
-1.6318 -6.8156 -2.3339 0.9709
-1.5473 -6.8347 -2.3337 0.9709
-1.5049 -6.8438 -2.3336 0.9709
-1.4200 -6.8614 -2.3334 0.9709
-1.3775 -6.8698 -2.3333 0.9709
-1.2924 -6.8858 -2.3332 0.9709
-1.2497 -6.8934 -2.3331 0.9709
-1.1643 -6.9079 -2.3329 0.9709
-0.9500 -6.9396 -2.3326 0.9709
-0.9071 -6.9451 -2.3325 0.9709
-0.8211 -6.9555 -2.3324 0.9709
-0.7780 -6.9603 -2.3324 0.9709
-0.5624 -6.9803 -2.3322 0.9709
-0.5192 -6.9836 -2.3321 0.9709
-0.4760 -6.9866 -2.3321 0.9709
-0.3030 -6.9959 -2.3320 0.9709
-0.2598 -6.9975 -2.3320 0.9709
-0.2165 -6.9989 -2.3319 0.9709
-0.1732 -7.0001 -2.3319 0.9709
-0.1299 -7.0010 -2.3319 0.9709
-0.0866 -7.0016 -2.3319 0.9709
-0.0433 -7.0020 -2.3319 0.9709
-0.0000 -7.0021 -2.3319 0.9709
0.0433 -7.0020 -2.3319 0.9709
0.0866 -7.0015 -2.3319 0.9709
0.2597 -6.9973 -2.3319 0.9709
0.3030 -6.9956 -2.3319 0.9709
0.3895 -6.9914 -2.3319 0.9709
0.4328 -6.9890 -2.3319 0.9709
0.6487 -6.9726 -2.3321 0.9709
0.6918 -6.9686 -2.3321 0.9709
0.7349 -6.9643 -2.3322 0.9709
0.8210 -6.9549 -2.3322 0.9709
0.8640 -6.9498 -2.3323 0.9709
0.9070 -6.9445 -2.3323 0.9709
1.0357 -6.9269 -2.3325 0.9709
1.0786 -6.9206 -2.3325 0.9709
1.1214 -6.9139 -2.3326 0.9709
1.2069 -6.8999 -2.3327 0.9709
1.2922 -6.8849 -2.3329 0.9709
1.3348 -6.8770 -2.3329 0.9709
1.3773 -6.8688 -2.3330 0.9709
1.4198 -6.8604 -2.3331 0.9709
1.4623 -6.8517 -2.3332 0.9709
1.5047 -6.8428 -2.3332 0.9709
1.5893 -6.8241 -2.3334 0.9709
1.6737 -6.8045 -2.3336 0.9709
1.7158 -6.7943 -2.3337 0.9709
1.7579 -6.7838 -2.3338 0.9709
1.8418 -6.7621 -2.3340 0.9709
1.8837 -6.7509 -2.3341 0.9709
1.9672 -6.7278 -2.3343 0.9709
2.0505 -6.7036 -2.3345 0.9709
2.0920 -6.6910 -2.3347 0.9709
2.1334 -6.6784 -2.3348 0.9709
2.1748 -6.6654 -2.3349 0.9709
2.2161 -6.6521 -2.3350 0.9709
2.3395 -6.6110 -2.3354 0.9709
2.4214 -6.5823 -2.3357 0.9709
2.5029 -6.5527 -2.3360 0.9709
2.5436 -6.5374 -2.3361 0.9709
2.5841 -6.5220 -2.3363 0.9709
2.6649 -6.4904 -2.3366 0.9709
2.7052 -6.4742 -2.3367 0.9709
2.7854 -6.4411 -2.3370 0.9708
2.8254 -6.4242 -2.3372 0.9708
2.8653 -6.4071 -2.3373 0.9708
2.9050 -6.3896 -2.3375 0.9708
2.9843 -6.3542 -2.3379 0.9708
3.0237 -6.3360 -2.3380 0.9708
3.0631 -6.3177 -2.3382 0.9708
3.1023 -6.2991 -2.3384 0.9708
3.2194 -6.2419 -2.3389 0.9708
3.2582 -6.2224 -2.3391 0.9708
3.2969 -6.2026 -2.3393 0.9708
3.3355 -6.1826 -2.3395 0.9708
3.4885 -6.1003 -2.3403 0.9708
3.6021 -6.0361 -2.3409 0.9708
3.7144 -5.9699 -2.3415 0.9708
3.7516 -5.9473 -2.3417 0.9708
3.7887 -5.9246 -2.3420 0.9708
3.9719 -5.8074 -2.3431 0.9708
4.0082 -5.7833 -2.3433 0.9708
4.0802 -5.7344 -2.3438 0.9708
4.2928 -5.5826 -2.3452 0.9707
4.3971 -5.5038 -2.3460 0.9707
4.4315 -5.4771 -2.3463 0.9707
4.4999 -5.4231 -2.3468 0.9707
4.5338 -5.3957 -2.3470 0.9707
4.6013 -5.3405 -2.3476 0.9707
4.6681 -5.2844 -2.3481 0.9707
4.7670 -5.1987 -2.3489 0.9707
4.7996 -5.1697 -2.3492 0.9707
4.8644 -5.1112 -2.3498 0.9707
4.8965 -5.0816 -2.3501 0.9707
4.9284 -5.0519 -2.3504 0.9707
4.9601 -5.0219 -2.3507 0.9707
5.0544 -4.9308 -2.3515 0.9707
5.1163 -4.8692 -2.3521 0.9707
5.2077 -4.7753 -2.3530 0.9707
5.2378 -4.7436 -2.3533 0.9706
5.2678 -4.7117 -2.3537 0.9706
5.3856 -4.5825 -2.3549 0.9706
5.4433 -4.5167 -2.3555 0.9706
5.4718 -4.4836 -2.3559 0.9706
5.5002 -4.4503 -2.3562 0.9706
5.6117 -4.3153 -2.3575 0.9706
5.6663 -4.2467 -2.3582 0.9706
5.6932 -4.2122 -2.3585 0.9706
5.7729 -4.1076 -2.3595 0.9706
5.8249 -4.0371 -2.3602 0.9706
5.8506 -4.0015 -2.3605 0.9706
5.8761 -3.9659 -2.3609 0.9706
5.9014 -3.9301 -2.3612 0.9705
6.0004 -3.7851 -2.3626 0.9705
6.0486 -3.7117 -2.3634 0.9705
6.0959 -3.6378 -2.3641 0.9705
6.1192 -3.6005 -2.3644 0.9705
6.1651 -3.5256 -2.3652 0.9705
6.2544 -3.3742 -2.3666 0.9705
6.2761 -3.3360 -2.3670 0.9705
6.2976 -3.2976 -2.3674 0.9705
6.3189 -3.2591 -2.3678 0.9705
6.4217 -3.0646 -2.3696 0.9704
6.4612 -2.9860 -2.3704 0.9704
6.5187 -2.8670 -2.3716 0.9704
6.5374 -2.8271 -2.3720 0.9704
6.5558 -2.7871 -2.3723 0.9704
6.5740 -2.7469 -2.3727 0.9704
6.5920 -2.7067 -2.3731 0.9704
6.6271 -2.6258 -2.3739 0.9704
6.6443 -2.5852 -2.3743 0.9704
6.7108 -2.4217 -2.3759 0.9704
6.7425 -2.3393 -2.3767 0.9704
6.7732 -2.2565 -2.3775 0.9703
6.8029 -2.1733 -2.3783 0.9703
6.8593 -2.0057 -2.3800 0.9703
6.8989 -1.8791 -2.3812 0.9703
6.9240 -1.7942 -2.3820 0.9703
6.9362 -1.7517 -2.3824 0.9703
6.9481 -1.7091 -2.3829 0.9703
6.9597 -1.6663 -2.3833 0.9703
7.0038 -1.4948 -2.3850 0.9703
7.0141 -1.4516 -2.3854 0.9703
7.0619 -1.2352 -2.3875 0.9702
7.0791 -1.1482 -2.3883 0.9702
7.0874 -1.1046 -2.3888 0.9702
7.0953 -1.0609 -2.3892 0.9702
7.1105 -0.9734 -2.3900 0.9702
7.1176 -0.9296 -2.3905 0.9702
7.1245 -0.8857 -2.3909 0.9702
7.1311 -0.8418 -2.3913 0.9702
7.1602 -0.6215 -2.3935 0.9702
7.1744 -0.4888 -2.3948 0.9701
7.1895 -0.3114 -2.3965 0.9701
7.1926 -0.2670 -2.3970 0.9701
7.2002 -0.1336 -2.3983 0.9701
7.2022 -0.0891 -2.3987 0.9701
7.2039 -0.0446 -2.3991 0.9701
7.2054 -0.0000 -2.3996 0.9701
7.2074 0.0892 -2.4004 0.9701
7.2078 0.3122 -2.4026 0.9700
7.2070 0.3568 -2.4031 0.9700
7.2060 0.4015 -2.4035 0.9700
7.2047 0.4461 -2.4039 0.9700
7.2031 0.4907 -2.4044 0.9700
7.2013 0.5354 -2.4048 0.9700
7.1991 0.5800 -2.4053 0.9700
7.1967 0.6246 -2.4057 0.9700
7.1940 0.6692 -2.4061 0.9700
7.1843 0.8030 -2.4074 0.9700
7.1805 0.8476 -2.4079 0.9700
7.1573 1.0702 -2.4101 0.9700
7.1518 1.1146 -2.4105 0.9699
7.1461 1.1590 -2.4109 0.9699
7.1338 1.2477 -2.4118 0.9699
7.1272 1.2921 -2.4122 0.9699
7.1133 1.3806 -2.4131 0.9699
7.0820 1.5573 -2.4148 0.9699
7.0464 1.7332 -2.4166 0.9699
7.0368 1.7771 -2.4170 0.9699
7.0269 1.8209 -2.4174 0.9699
6.9956 1.9520 -2.4187 0.9698
6.9734 2.0390 -2.4196 0.9698
6.9381 2.1692 -2.4208 0.9698
6.8737 2.3848 -2.4230 0.9698
6.8600 2.4277 -2.4234 0.9698
6.8461 2.4704 -2.4238 0.9698
6.7567 2.7255 -2.4263 0.9698
6.7248 2.8098 -2.4272 0.9697
6.7084 2.8519 -2.4276 0.9697
6.6577 2.9774 -2.4288 0.9697
6.6403 3.0190 -2.4292 0.9697
6.6226 3.0605 -2.4296 0.9697
6.6047 3.1019 -2.4300 0.9697
6.5493 3.2255 -2.4312 0.9697
6.4315 3.4697 -2.4337 0.9697
6.4109 3.5100 -2.4340 0.9697
6.3901 3.5501 -2.4344 0.9697
6.3691 3.5902 -2.4348 0.9696
6.3478 3.6301 -2.4352 0.9696
6.3262 3.6699 -2.4356 0.9696
6.3044 3.7095 -2.4360 0.9696
6.2375 3.8277 -2.4372 0.9696
6.2147 3.8668 -2.4376 0.9696
6.1917 3.9058 -2.4380 0.9696
6.1210 4.0218 -2.4391 0.9696
6.0727 4.0985 -2.4399 0.9696
6.0482 4.1366 -2.4402 0.9696
6.0234 4.1746 -2.4406 0.9696
5.9219 4.3249 -2.4421 0.9696
5.8959 4.3621 -2.4425 0.9696
5.8433 4.4360 -2.4432 0.9695
5.8166 4.4727 -2.4436 0.9695
5.7897 4.5093 -2.4439 0.9695
5.7625 4.5457 -2.4443 0.9695
5.7351 4.5819 -2.4446 0.9695
5.7075 4.6180 -2.4450 0.9695
5.6797 4.6538 -2.4453 0.9695
5.6516 4.6896 -2.4457 0.9695
5.6233 4.7251 -2.4460 0.9695
5.5948 4.7605 -2.4464 0.9695
5.5078 4.8655 -2.4474 0.9695
5.4488 4.9346 -2.4481 0.9695
5.3888 5.0030 -2.4488 0.9695
5.3280 5.0707 -2.4495 0.9695
5.2972 5.1042 -2.4498 0.9695
5.2351 5.1707 -2.4505 0.9695
5.2037 5.2037 -2.4508 0.9695
5.1721 5.2365 -2.4511 0.9694
5.0761 5.3337 -2.4521 0.9694
5.0436 5.3656 -2.4524 0.9694
5.0110 5.3974 -2.4527 0.9694
4.9782 5.4290 -2.4530 0.9694
4.9452 5.4603 -2.4533 0.9694
4.8720 5.5152 -2.4507 0.9695
4.7112 5.4680 -2.4037 0.9700
4.6331 5.4451 -2.3810 0.9703
4.5584 5.4248 -2.3597 0.9706
4.4860 5.4063 -2.3395 0.9708
4.4156 5.3889 -2.3202 0.9711
4.2455 5.4509 -2.3009 0.9713
4.2122 5.4777 -2.3012 0.9713
4.1112 5.5568 -2.3020 0.9713
4.0088 5.6340 -2.3027 0.9713
3.9048 5.7092 -2.3035 0.9713
3.7284 5.8303 -2.3047 0.9712
3.6568 5.8772 -2.3052 0.9712
3.5845 5.9231 -2.3056 0.9712
3.4750 5.9903 -2.3063 0.9712
3.4382 6.0123 -2.3065 0.9712
3.3642 6.0555 -2.3070 0.9712
3.3270 6.0767 -2.3072 0.9712
3.1390 6.1794 -2.3082 0.9712
3.0628 6.2189 -2.3086 0.9712
3.0246 6.2382 -2.3088 0.9712
2.9477 6.2762 -2.3092 0.9712
2.8314 6.3313 -2.3097 0.9712
2.7924 6.3492 -2.3099 0.9712
2.4765 6.4833 -2.3113 0.9712
2.2756 6.5589 -2.3120 0.9712
2.1946 6.5874 -2.3123 0.9712
2.1539 6.6013 -2.3124 0.9711
1.8669 6.6909 -2.3134 0.9711
1.8256 6.7027 -2.3135 0.9711
1.6596 6.7471 -2.3139 0.9711
1.6179 6.7576 -2.3140 0.9711
1.5762 6.7678 -2.3142 0.9711
1.4925 6.7873 -2.3144 0.9711
1.4505 6.7967 -2.3145 0.9711
1.4085 6.8058 -2.3145 0.9711
1.3665 6.8147 -2.3146 0.9711
1.2400 6.8396 -2.3149 0.9711
1.1130 6.8622 -2.3151 0.9711
1.0281 6.8758 -2.3153 0.9711
0.9856 6.8822 -2.3153 0.9711
0.8578 6.8999 -2.3155 0.9711
0.8151 6.9053 -2.3156 0.9711
0.7297 6.9151 -2.3157 0.9711
0.6869 6.9196 -2.3158 0.9711
0.6013 6.9279 -2.3158 0.9711
0.4727 6.9382 -2.3160 0.9711
0.3869 6.9437 -2.3160 0.9711
0.3010 6.9481 -2.3161 0.9711
0.2580 6.9499 -2.3161 0.9711
0.1720 6.9527 -2.3161 0.9711
0.0860 6.9544 -2.3162 0.9711
0.0430 6.9548 -2.3162 0.9711
-0.1290 6.9538 -2.3162 0.9711
-0.1720 6.9528 -2.3162 0.9711
-0.2150 6.9516 -2.3162 0.9711
-0.3010 6.9484 -2.3162 0.9711
-0.3439 6.9463 -2.3161 0.9711
-0.5156 6.9354 -2.3161 0.9711
-0.6014 6.9284 -2.3160 0.9711
-0.6442 6.9244 -2.3160 0.9711
-0.7725 6.9109 -2.3158 0.9711
-0.8152 6.9059 -2.3158 0.9711
-0.9005 6.8950 -2.3157 0.9711
-1.0282 6.8766 -2.3155 0.9711
-1.1131 6.8630 -2.3154 0.9711
-1.2824 6.8325 -2.3151 0.9711
-1.3246 6.8243 -2.3151 0.9711
-1.3667 6.8157 -2.3150 0.9711
-1.4088 6.8069 -2.3149 0.9711
-1.5346 6.7788 -2.3146 0.9711
-1.5764 6.7689 -2.3146 0.9711
-1.6182 6.7588 -2.3145 0.9711
-1.6599 6.7484 -2.3144 0.9711
-1.7015 6.7377 -2.3143 0.9711
-1.7431 6.7267 -2.3142 0.9711
-1.7846 6.7155 -2.3141 0.9711
-1.8260 6.7040 -2.3140 0.9711
-1.9909 6.6555 -2.3135 0.9711
-2.1544 6.6028 -2.3130 0.9711
-2.1951 6.5890 -2.3129 0.9711
-2.2357 6.5749 -2.3127 0.9711
-2.2761 6.5606 -2.3126 0.9711
-2.3568 6.5312 -2.3123 0.9712
-2.3970 6.5161 -2.3122 0.9712
-2.4371 6.5007 -2.3120 0.9712
-2.4771 6.4851 -2.3119 0.9712
-2.5170 6.4692 -2.3117 0.9712
-2.5568 6.4531 -2.3116 0.9712
-2.6361 6.4201 -2.3113 0.9712
-2.7149 6.3861 -2.3109 0.9712
-2.7541 6.3688 -2.3108 0.9712
-2.7933 6.3512 -2.3106 0.9712
-2.8323 6.3333 -2.3104 0.9712
-2.8712 6.3152 -2.3103 0.9712
-2.9486 6.2782 -2.3099 0.9712
-3.0639 6.2210 -2.3094 0.9712
-3.1020 6.2014 -2.3092 0.9712
-3.1401 6.1816 -2.3090 0.9712
-3.1779 6.1615 -2.3088 0.9712
-3.2157 6.1412 -2.3086 0.9712
-3.2909 6.1000 -2.3082 0.9712
-3.3282 6.0790 -2.3080 0.9712
-3.4395 6.0145 -2.3074 0.9712
-3.5130 5.9705 -2.3070 0.9712
-3.7656 5.8090 -2.3054 0.9712
-3.8010 5.7850 -2.3052 0.9712
-3.9413 5.6869 -2.3042 0.9713
-3.9760 5.6618 -2.3040 0.9713
-4.0105 5.6365 -2.3038 0.9713
-4.1469 5.5332 -2.3028 0.9713
-4.1806 5.5068 -2.3025 0.9713
-4.2141 5.4802 -2.3023 0.9713
-4.2474 5.4535 -2.3020 0.9713
-4.3136 5.3993 -2.3015 0.9713
-4.3790 5.3443 -2.3009 0.9713
-4.4438 5.2885 -2.3004 0.9713
-4.5395 5.2033 -2.2996 0.9713
-4.6024 5.1455 -2.2990 0.9713
-4.6645 5.0869 -2.2985 0.9713
-4.6953 5.0573 -2.2982 0.9713
-4.7259 5.0276 -2.2979 0.9713
-4.7563 4.9976 -2.2976 0.9713
-4.8080 4.9898 -2.3076 0.9712
-4.8748 4.9969 -2.3248 0.9710
-4.9474 5.0089 -2.3446 0.9708
-5.0977 5.0351 -2.3862 0.9702
-5.1762 5.0497 -2.4082 0.9700
-5.3309 5.0735 -2.4508 0.9694
-5.3918 5.0058 -2.4502 0.9695
-5.4219 4.9717 -2.4498 0.9695
-5.4518 4.9374 -2.4495 0.9695
-5.4815 4.9029 -2.4492 0.9695
-5.5402 4.8334 -2.4485 0.9695
-5.5980 4.7632 -2.4478 0.9695
-5.6830 4.6565 -2.4468 0.9695
-5.7386 4.5846 -2.4461 0.9695
-5.7931 4.5120 -2.4454 0.9695
-5.8201 4.4754 -2.4450 0.9695
-5.8468 4.4387 -2.4447 0.9695
-5.8733 4.4018 -2.4443 0.9695
-5.9768 4.2527 -2.4429 0.9695
-6.0519 4.1392 -2.4418 0.9696
-6.1008 4.0628 -2.4410 0.9696
-6.1487 3.9858 -2.4403 0.9696
-6.2187 3.8692 -2.4391 0.9696
-6.2641 3.7909 -2.4384 0.9696
-6.2865 3.7515 -2.4380 0.9696
-6.3733 3.5925 -2.4364 0.9696
-6.4152 3.5123 -2.4357 0.9696
-6.4358 3.4720 -2.4353 0.9696
-6.4761 3.3910 -2.4345 0.9697
-6.5154 3.3096 -2.4337 0.9697
-6.5347 3.2687 -2.4333 0.9697
-6.6092 3.1040 -2.4317 0.9697
-6.6272 3.0626 -2.4313 0.9697
-6.6449 3.0211 -2.4309 0.9697
-6.6623 2.9794 -2.4305 0.9697
-6.6964 2.8958 -2.4297 0.9697
-6.7294 2.8118 -2.4288 0.9697
-6.7456 2.7697 -2.4284 0.9697
-6.7614 2.7275 -2.4280 0.9697
-6.8074 2.6002 -2.4268 0.9697
-6.8222 2.5576 -2.4264 0.9698
-6.8367 2.5150 -2.4259 0.9698
-6.8509 2.4722 -2.4255 0.9698
-6.8920 2.3435 -2.4243 0.9698
-6.9052 2.3004 -2.4239 0.9698
-6.9181 2.2573 -2.4234 0.9698
-6.9307 2.2141 -2.4230 0.9698
-6.9551 2.1274 -2.4222 0.9698
-6.9669 2.0840 -2.4217 0.9698
-6.9785 2.0405 -2.4213 0.9698
-7.0114 1.9097 -2.4200 0.9698
-7.0320 1.8222 -2.4192 0.9698
-7.0699 1.6465 -2.4175 0.9699
-7.0787 1.6025 -2.4170 0.9699
-7.1034 1.4701 -2.4157 0.9699
-7.1111 1.4259 -2.4153 0.9699
-7.1185 1.3817 -2.4149 0.9699
-7.1454 1.2043 -2.4131 0.9699
-7.1626 1.0709 -2.4118 0.9699
-7.1678 1.0264 -2.4114 0.9699
-7.1896 0.8036 -2.4092 0.9700
-7.1931 0.7590 -2.4088 0.9700
-7.1994 0.6697 -2.4079 0.9700
-7.2020 0.6251 -2.4075 0.9700
-7.2066 0.5358 -2.4066 0.9700
-7.2085 0.4911 -2.4062 0.9700
-7.2124 0.3571 -2.4049 0.9700
-7.2132 0.3125 -2.4044 0.9700
-7.2136 0.2678 -2.4040 0.9700
-7.2138 0.1785 -2.4031 0.9700
-7.2134 0.1338 -2.4027 0.9700
-7.2119 0.0446 -2.4018 0.9701
-7.0346 -0.0435 -2.4009 0.9707
-7.0310 -0.1304 -2.4001 0.9707
-7.0264 -0.2173 -2.3992 0.9707
-7.0207 -0.3041 -2.3984 0.9707
-7.0139 -0.3908 -2.3975 0.9707
-7.0060 -0.4773 -2.3967 0.9708
-6.9923 -0.6069 -2.3954 0.9708
-6.9818 -0.6931 -2.3945 0.9708
-6.9761 -0.7361 -2.3941 0.9708
-6.9702 -0.7791 -2.3937 0.9708
-6.9576 -0.8650 -2.3929 0.9708
-6.9509 -0.9078 -2.3924 0.9708
-6.9439 -0.9506 -2.3920 0.9708
-6.9134 -1.1213 -2.3903 0.9708
-6.9052 -1.1638 -2.3899 0.9708
-6.8878 -1.2487 -2.3891 0.9708
-6.8788 -1.2911 -2.3887 0.9709
-6.8694 -1.3334 -2.3883 0.9709
-6.8599 -1.3756 -2.3878 0.9709
-6.8501 -1.4177 -2.3874 0.9709
-6.8082 -1.5856 -2.3858 0.9709
-6.7971 -1.6274 -2.3854 0.9709
-6.7857 -1.6691 -2.3850 0.9709
-6.7741 -1.7108 -2.3845 0.9709
-6.7501 -1.7938 -2.3837 0.9709
-6.7377 -1.8352 -2.3833 0.9709
-6.7251 -1.8765 -2.3829 0.9709
-6.7122 -1.9177 -2.3825 0.9709
-6.6991 -1.9589 -2.3821 0.9709
-6.6721 -2.0409 -2.3813 0.9709
-6.6441 -2.1225 -2.3805 0.9710
-6.5698 -2.3250 -2.3785 0.9710
-6.5223 -2.4453 -2.3773 0.9710
-6.4383 -2.6436 -2.3754 0.9710
-6.3668 -2.8002 -2.3738 0.9710
-6.2722 -2.9933 -2.3719 0.9711
-6.2525 -3.0315 -2.3715 0.9711
-6.2327 -3.0696 -2.3712 0.9711
-6.2126 -3.1076 -2.3708 0.9711
-6.1923 -3.1455 -2.3704 0.9711
-6.1717 -3.1832 -2.3700 0.9711
-6.1510 -3.2208 -2.3697 0.9711
-6.1300 -3.2583 -2.3693 0.9711
-6.1088 -3.2957 -2.3689 0.9711
-6.0873 -3.3329 -2.3686 0.9711
-6.0657 -3.3699 -2.3682 0.9711
-6.0217 -3.4436 -2.3675 0.9711
-5.9993 -3.4803 -2.3671 0.9711
-5.9079 -3.6254 -2.3657 0.9711
-5.8608 -3.6971 -2.3650 0.9711
-5.8370 -3.7327 -2.3646 0.9711
-5.6895 -3.9431 -2.3625 0.9712
-5.6386 -4.0121 -2.3619 0.9712
-5.5870 -4.0804 -2.3612 0.9712
-5.5345 -4.1480 -2.3605 0.9712
-5.4812 -4.2149 -2.3599 0.9712
-5.4543 -4.2481 -2.3595 0.9712
-5.3446 -4.3793 -2.3582 0.9712
-5.2604 -4.4759 -2.3573 0.9712
-5.1453 -4.6022 -2.3560 0.9712
-4.8757 -4.8757 -2.3533 0.9713
-4.8448 -4.9052 -2.3530 0.9713
-4.8138 -4.9344 -2.3527 0.9713
-4.7826 -4.9635 -2.3524 0.9713
-4.7197 -5.0210 -2.3519 0.9713
-4.6561 -5.0778 -2.3513 0.9713
-4.5919 -5.1338 -2.3507 0.9713
-4.5595 -5.1615 -2.3505 0.9713
-4.4284 -5.2703 -2.3494 0.9713
-4.3952 -5.2970 -2.3491 0.9713
-4.3619 -5.3234 -2.3489 0.9713
-4.3284 -5.3497 -2.3486 0.9713
-4.2271 -5.4273 -2.3478 0.9713
-3.9853 -5.6010 -2.3461 0.9714
-3.9149 -5.6487 -2.3456 0.9714
-3.8795 -5.6722 -2.3454 0.9714
-3.7725 -5.7415 -2.3447 0.9714
-3.7366 -5.7642 -2.3445 0.9714
-3.7005 -5.7866 -2.3442 0.9714
-3.6279 -5.8309 -2.3438 0.9714
-3.5915 -5.8527 -2.3436 0.9714
-3.4444 -5.9376 -2.3427 0.9714
-3.4073 -5.9582 -2.3425 0.9714
-3.3701 -5.9787 -2.3423 0.9714
-3.3328 -5.9988 -2.3421 0.9714
-3.2953 -6.0188 -2.3419 0.9714
-3.1823 -6.0774 -2.3413 0.9714
-3.1064 -6.1153 -2.3409 0.9714
-3.0683 -6.1339 -2.3408 0.9714
-3.0300 -6.1523 -2.3406 0.9714
-2.9532 -6.1883 -2.3402 0.9714
-2.9147 -6.2060 -2.3400 0.9714
-2.8760 -6.2234 -2.3399 0.9714
-2.6813 -6.3071 -2.3390 0.9714
-2.6421 -6.3231 -2.3389 0.9715
-2.5238 -6.3698 -2.3384 0.9715
-2.2448 -6.4702 -2.3374 0.9715
-2.2046 -6.4836 -2.3372 0.9715
-2.1644 -6.4967 -2.3371 0.9715
-1.9212 -6.5704 -2.3363 0.9715
-1.8396 -6.5930 -2.3361 0.9715
-1.7987 -6.6040 -2.3360 0.9715
-1.7578 -6.6146 -2.3359 0.9715
-1.6345 -6.6453 -2.3356 0.9715
-1.5108 -6.6736 -2.3353 0.9715
-1.4694 -6.6825 -2.3352 0.9715
-1.4280 -6.6912 -2.3351 0.9715
-1.3866 -6.6997 -2.3350 0.9715
-1.3451 -6.7079 -2.3349 0.9715
-1.3035 -6.7158 -2.3348 0.9715
-1.2203 -6.7310 -2.3347 0.9715
-1.0951 -6.7519 -2.3345 0.9715
-1.0533 -6.7583 -2.3344 0.9715
-1.0114 -6.7645 -2.3343 0.9715
-0.9696 -6.7704 -2.3343 0.9715
-0.8017 -6.7917 -2.3340 0.9715
-0.6334 -6.8089 -2.3338 0.9715
-0.5913 -6.8125 -2.3338 0.9715
-0.5491 -6.8159 -2.3338 0.9715
-0.2959 -6.8311 -2.3336 0.9715
-0.2536 -6.8327 -2.3336 0.9715
-0.2114 -6.8341 -2.3335 0.9715
-0.0846 -6.8367 -2.3335 0.9715
-0.0423 -6.8371 -2.3335 0.9715
0.0846 -6.8367 -2.3335 0.9715
0.2114 -6.8340 -2.3335 0.9715
0.2959 -6.8309 -2.3335 0.9715
0.4226 -6.8244 -2.3336 0.9715
0.4648 -6.8217 -2.3336 0.9715
0.5069 -6.8187 -2.3336 0.9715
0.5913 -6.8121 -2.3337 0.9715
0.6334 -6.8084 -2.3337 0.9715
0.6755 -6.8044 -2.3337 0.9715
0.7176 -6.8002 -2.3338 0.9715
0.7596 -6.7958 -2.3338 0.9715
0.9275 -6.7754 -2.3340 0.9715
1.0113 -6.7638 -2.3341 0.9715
1.0949 -6.7510 -2.3342 0.9715
1.2201 -6.7301 -2.3344 0.9715
1.2617 -6.7226 -2.3345 0.9715
1.3033 -6.7149 -2.3345 0.9715
1.3449 -6.7070 -2.3346 0.9715
1.5106 -6.6725 -2.3349 0.9715
1.5518 -6.6633 -2.3350 0.9715
1.6343 -6.6441 -2.3352 0.9715
1.7165 -6.6239 -2.3354 0.9715
1.8393 -6.5918 -2.3357 0.9715
2.0021 -6.5455 -2.3361 0.9715
2.0427 -6.5333 -2.3362 0.9715
2.0831 -6.5209 -2.3363 0.9715
2.1638 -6.4953 -2.3366 0.9715
2.2443 -6.4687 -2.3368 0.9715
2.2843 -6.4551 -2.3369 0.9715
2.3244 -6.4412 -2.3371 0.9715
2.3643 -6.4271 -2.3372 0.9715
2.4041 -6.4127 -2.3373 0.9715
2.4439 -6.3980 -2.3375 0.9715
2.4835 -6.3832 -2.3376 0.9715
2.5231 -6.3681 -2.3378 0.9715
2.5626 -6.3528 -2.3379 0.9715
2.6020 -6.3372 -2.3381 0.9715
2.6413 -6.3214 -2.3382 0.9715
2.7197 -6.2891 -2.3385 0.9715
2.7976 -6.2558 -2.3388 0.9715
2.8365 -6.2388 -2.3390 0.9714
2.9138 -6.2041 -2.3393 0.9714
2.9908 -6.1685 -2.3397 0.9714
3.0291 -6.1504 -2.3398 0.9714
3.1054 -6.1134 -2.3402 0.9714
3.1434 -6.0945 -2.3404 0.9714
3.1813 -6.0754 -2.3406 0.9714
3.2567 -6.0366 -2.3409 0.9714
3.3689 -5.9766 -2.3415 0.9714
3.4061 -5.9561 -2.3417 0.9714
3.4801 -5.9146 -2.3421 0.9714
3.5169 -5.8934 -2.3423 0.9714
3.5536 -5.8721 -2.3425 0.9714
3.6266 -5.8287 -2.3429 0.9714
3.6629 -5.8067 -2.3431 0.9714
3.6991 -5.7845 -2.3433 0.9714
3.8425 -5.6933 -2.3442 0.9714
3.8779 -5.6700 -2.3444 0.9714
3.9133 -5.6464 -2.3447 0.9714
3.9836 -5.5987 -2.3451 0.9714
4.0186 -5.5745 -2.3454 0.9714
4.0881 -5.5255 -2.3458 0.9714
4.1225 -5.5007 -2.3461 0.9714
4.2591 -5.3993 -2.3470 0.9714
4.3265 -5.3473 -2.3475 0.9713
4.3932 -5.2945 -2.3481 0.9713
4.4264 -5.2679 -2.3483 0.9713
4.4594 -5.2410 -2.3486 0.9713
4.4922 -5.2138 -2.3488 0.9713
4.5249 -5.1866 -2.3491 0.9713
4.5574 -5.1590 -2.3494 0.9713
4.5897 -5.1313 -2.3496 0.9713
4.7489 -4.9899 -2.3510 0.9713
4.8732 -4.8733 -2.3521 0.9713
5.0840 -4.6618 -2.3542 0.9713
5.1134 -4.6309 -2.3545 0.9713
5.1716 -4.5685 -2.3551 0.9713
5.2004 -4.5370 -2.3554 0.9713
5.2575 -4.4735 -2.3560 0.9712
5.2858 -4.4415 -2.3563 0.9712
5.3138 -4.4093 -2.3566 0.9712
5.3417 -4.3770 -2.3569 0.9712
5.3969 -4.3117 -2.3576 0.9712
5.4782 -4.2125 -2.3585 0.9712
5.5049 -4.1791 -2.3588 0.9712
5.5314 -4.1456 -2.3592 0.9712
5.5838 -4.0780 -2.3598 0.9712
5.6097 -4.0440 -2.3602 0.9712
5.6354 -4.0097 -2.3605 0.9712
5.6861 -3.9408 -2.3612 0.9712
5.8094 -3.7659 -2.3629 0.9712
5.8334 -3.7304 -2.3632 0.9712
5.8573 -3.6948 -2.3635 0.9712
5.8809 -3.6591 -2.3639 0.9712
5.9504 -3.5510 -2.3649 0.9711
5.9731 -3.5146 -2.3653 0.9711
6.0835 -3.3307 -2.3671 0.9711
6.1049 -3.2935 -2.3674 0.9711
6.1261 -3.2562 -2.3678 0.9711
6.1471 -3.2188 -2.3682 0.9711
6.1883 -3.1435 -2.3689 0.9711
6.2086 -3.1056 -2.3693 0.9711
6.2287 -3.0677 -2.3696 0.9711
6.2485 -3.0296 -2.3700 0.9711
6.2681 -2.9913 -2.3704 0.9711
6.3808 -2.7594 -2.3726 0.9710
6.3988 -2.7203 -2.3730 0.9710
6.4340 -2.6418 -2.3738 0.9710
6.4513 -2.6024 -2.3742 0.9710
6.5016 -2.4834 -2.3753 0.9710
6.5498 -2.3636 -2.3765 0.9710
6.5807 -2.2831 -2.3773 0.9710
6.5958 -2.2428 -2.3777 0.9710
6.6106 -2.2023 -2.3781 0.9710
6.6811 -1.9985 -2.3801 0.9710
6.7076 -1.9164 -2.3809 0.9709
6.7205 -1.8752 -2.3813 0.9709
6.7331 -1.8339 -2.3817 0.9709
6.7694 -1.7095 -2.3829 0.9709
6.8034 -1.5845 -2.3841 0.9709
6.8142 -1.5427 -2.3845 0.9709
6.8248 -1.5007 -2.3849 0.9709
6.8351 -1.4588 -2.3853 0.9709
6.8452 -1.4167 -2.3857 0.9709
6.8646 -1.3324 -2.3866 0.9709
6.8739 -1.2902 -2.3870 0.9709
6.8829 -1.2478 -2.3874 0.9709
6.8917 -1.2054 -2.3878 0.9709
6.9085 -1.1205 -2.3886 0.9709
6.9242 -1.0353 -2.3895 0.9708
6.9317 -0.9927 -2.3899 0.9708
6.9389 -0.9500 -2.3903 0.9708
6.9459 -0.9072 -2.3907 0.9708
6.9652 -0.7786 -2.3920 0.9708
6.9711 -0.7356 -2.3924 0.9708
6.9767 -0.6926 -2.3928 0.9708
6.9821 -0.6496 -2.3932 0.9708
6.9872 -0.6065 -2.3937 0.9708
6.9921 -0.5634 -2.3941 0.9708
6.9966 -0.5202 -2.3945 0.9708
7.0050 -0.4338 -2.3953 0.9708
7.0088 -0.3905 -2.3958 0.9708
7.0123 -0.3472 -2.3962 0.9708
7.0186 -0.2605 -2.3970 0.9708
7.0213 -0.2172 -2.3975 0.9707
7.0279 -0.0870 -2.3987 0.9707
7.0320 0.0435 -2.4000 0.9707
7.0334 0.1305 -2.4009 0.9707
7.0337 0.1740 -2.4013 0.9707
7.0322 0.3482 -2.4030 0.9707
7.0312 0.3917 -2.4034 0.9707
7.0299 0.4353 -2.4039 0.9707
7.0283 0.4788 -2.4043 0.9707
7.0265 0.5224 -2.4047 0.9707
7.0244 0.5659 -2.4051 0.9707
7.0220 0.6095 -2.4056 0.9706
7.0164 0.6965 -2.4064 0.9706
7.0132 0.7400 -2.4068 0.9706
7.0097 0.7835 -2.4073 0.9706
7.0060 0.8270 -2.4077 0.9706
7.0020 0.8705 -2.4081 0.9706
6.9977 0.9139 -2.4085 0.9706
6.9883 1.0008 -2.4094 0.9706
6.9722 1.1308 -2.4107 0.9706
6.9470 1.3038 -2.4124 0.9706
6.9400 1.3470 -2.4128 0.9706
6.9011 1.5623 -2.4149 0.9705
6.8925 1.6052 -2.4153 0.9705
6.8746 1.6909 -2.4162 0.9705
6.8651 1.7337 -2.4166 0.9705
6.8555 1.7764 -2.4170 0.9705
6.8142 1.9468 -2.4187 0.9705
6.8032 1.9893 -2.4191 0.9705
6.7919 2.0317 -2.4195 0.9705
