ply
format ascii 1.0
element vertex 1520
property float32 x
property float32 y
property float32 z
property float32 I
end_header
30.4213 30.0473 -2.6378 0.8425
30.9207 30.9206 -2.6976 0.8393
28.6412 29.3586 -2.5303 0.8484
28.3191 29.7560 -2.5341 0.8482
27.9911 30.1494 -2.5380 0.8480
14.5269 16.2411 -1.3442 0.9164
14.4290 16.3339 -1.3445 0.9164
12.1257 13.8988 -1.1379 0.9287
11.8924 14.1531 -1.1404 0.9286
11.8093 14.2319 -1.1409 0.9286
11.7261 14.3108 -1.1414 0.9285
11.5604 14.4700 -1.1426 0.9285
11.4612 14.5292 -1.1416 0.9285
22.2841 28.9793 -2.2552 0.8637
22.1189 29.1356 -2.2567 0.8636
14.5110 20.1294 -1.5308 0.9053
14.2001 20.2207 -1.5243 0.9057
12.8849 19.0913 -1.4209 0.9118
11.8297 18.0041 -1.3290 0.9173
11.4553 18.4112 -1.3377 0.9168
10.3371 17.0813 -1.2317 0.9231
9.6956 16.4780 -1.1795 0.9262
8.0065 14.6236 -1.0285 0.9354
7.6414 14.3761 -1.0044 0.9368
7.5018 14.3267 -0.9977 0.9372
6.6506 12.8945 -0.8951 0.9435
7.2370 14.2469 -0.9858 0.9380
6.3766 12.9473 -0.8903 0.9438
6.3263 13.0482 -0.8946 0.9435
6.2580 13.1132 -0.8964 0.9434
5.4899 11.8795 -0.8073 0.9489
5.3050 11.8626 -0.8017 0.9493
5.0963 11.7848 -0.7921 0.9498
5.0509 11.8810 -0.7964 0.9496
4.9890 11.9399 -0.7983 0.9495
4.9267 11.9990 -0.8002 0.9493
4.8642 12.0584 -0.8021 0.9492
4.2146 10.8323 -0.7171 0.9545
4.0937 10.7171 -0.7077 0.9551
4.0178 10.7169 -0.7061 0.9552
3.8491 10.8767 -0.7118 0.9548
3.7923 10.9306 -0.7137 0.9547
2.9782 9.3227 -0.6038 0.9615
2.6847 9.1814 -0.5901 0.9624
2.3668 8.6895 -0.5556 0.9646
2.3179 8.7224 -0.5568 0.9645
2.2544 8.6999 -0.5544 0.9646
2.1915 8.6777 -0.5521 0.9648
1.9447 8.5903 -0.5434 0.9653
1.8732 8.5187 -0.5381 0.9656
1.7624 8.5158 -0.5365 0.9657
1.6523 8.5129 -0.5350 0.9658
1.5975 8.5115 -0.5343 0.9659
1.4882 8.5086 -0.5329 0.9660
1.4338 8.5072 -0.5322 0.9660
1.3814 8.5169 -0.5323 0.9660
1.3297 8.5322 -0.5327 0.9660
1.2262 8.5629 -0.5336 0.9659
1.1743 8.5782 -0.5341 0.9659
1.0703 8.6090 -0.5352 0.9658
0.9657 8.6399 -0.5363 0.9658
0.9210 8.7281 -0.5414 0.9654
0.6656 7.1547 -0.4433 0.9716
0.3996 7.1730 -0.4432 0.9716
0.4500 9.0880 -0.5613 0.9642
0.3959 9.1393 -0.5643 0.9640
0.1735 9.3502 -0.5769 0.9632
-0.0000 9.5146 -0.5870 0.9626
-0.1191 9.6276 -0.5940 0.9621
-0.3661 9.8618 -0.6088 0.9612
-0.5597 10.0453 -0.6207 0.9605
-0.6259 10.1081 -0.6248 0.9602
-0.6930 10.1717 -0.6290 0.9600
-0.8999 10.3678 -0.6420 0.9592
-1.0427 10.5032 -0.6511 0.9586
-1.1896 10.6425 -0.6606 0.9580
-1.5766 11.0094 -0.6861 0.9564
-1.6576 11.0862 -0.6915 0.9561
-1.8236 11.2436 -0.7027 0.9554
-1.9086 11.3242 -0.7085 0.9550
-2.1723 11.5742 -0.7265 0.9539
-2.2632 11.6603 -0.7328 0.9535
-2.3557 11.7480 -0.7392 0.9531
-2.5457 11.9281 -0.7524 0.9523
-2.8438 12.2108 -0.7735 0.9510
-2.9470 12.3085 -0.7808 0.9505
-3.1592 12.5098 -0.7960 0.9496
-3.2685 12.6134 -0.8038 0.9491
-3.3800 12.7190 -0.8119 0.9486
-3.4831 12.7878 -0.8176 0.9483
-3.6097 12.9368 -0.8286 0.9476
-3.8492 13.1638 -0.8461 0.9465
-4.0990 13.4007 -0.8645 0.9454
-4.3600 13.6481 -0.8839 0.9442
-4.5759 13.4572 -0.8769 0.9446
-4.6440 13.3855 -0.8740 0.9448
-5.0266 13.6641 -0.8982 0.9433
-5.4858 14.0994 -0.9333 0.9412
-6.4138 15.8999 -1.0577 0.9336
-7.1968 16.6421 -1.1186 0.9299
-7.4069 16.8413 -1.1350 0.9289
-7.6232 17.0463 -1.1520 0.9279
-8.3131 17.7003 -1.2064 0.9246
-8.5578 17.9322 -1.2258 0.9235
-9.3416 18.6752 -1.2882 0.9197
-9.9102 19.2142 -1.3337 0.9170
-10.8429 20.0984 -1.4088 0.9125
-11.5255 20.7454 -1.4640 0.9093
-7.7378 13.7271 -0.9721 0.9388
-12.2639 21.4453 -1.5240 0.9057
-10.3910 17.6599 -1.2641 0.9212
-13.1929 21.8002 -1.5720 0.9029
-11.4336 18.6320 -1.3486 0.9161
-11.5418 16.2210 -1.2281 0.9233
-11.7211 16.2593 -1.2365 0.9228
-12.8827 17.4125 -1.3362 0.9169
-14.1534 18.6433 -1.4440 0.9105
-25.8110 32.7203 -2.5710 0.8462
-26.1771 32.3534 -2.5674 0.8464
-26.3582 32.1682 -2.5656 0.8465
-26.5378 31.9819 -2.5638 0.8466
-18.0727 21.5082 -1.7331 0.8935
-17.9859 20.8751 -1.6999 0.8955
-27.4159 31.0353 -2.5546 0.8471
-27.7574 30.6494 -2.5509 0.8473
-28.0935 30.2596 -2.5472 0.8475
-28.5870 29.6679 -2.5416 0.8478
-28.9088 29.2686 -2.5379 0.8480
-29.3779 28.6600 -2.5319 0.8483
-16.8247 16.2117 -1.4414 0.9106
-16.7217 15.7183 -1.4158 0.9121
-16.7884 15.5866 -1.4132 0.9123
-16.9334 15.3356 -1.4094 0.9125
-30.9320 26.3193 -2.5055 0.8498
-31.0618 26.1003 -2.5029 0.8499
-33.8111 27.0123 -2.6698 0.8408
-33.9524 26.7829 -2.6678 0.8409
-34.0920 26.5527 -2.6658 0.8410
-34.2297 26.3215 -2.6638 0.8411
-34.6351 25.6249 -2.6579 0.8414
-34.8842 25.1476 -2.6529 0.8417
-35.1261 24.6675 -2.6479 0.8420
-35.3608 24.1849 -2.6429 0.8422
-35.4756 23.9427 -2.6403 0.8424
-35.5885 23.7000 -2.6378 0.8425
-35.6997 23.4566 -2.6352 0.8427
-36.0225 22.7233 -2.6275 0.8431
-36.1266 22.4778 -2.6249 0.8432
-36.2288 22.2318 -2.6223 0.8434
-36.3293 21.9854 -2.6196 0.8435
-36.4281 21.7385 -2.6170 0.8437
-36.6200 21.2433 -2.6117 0.8439
-36.7135 20.9951 -2.6091 0.8441
-36.9828 20.2481 -2.6011 0.8445
-37.1535 19.7483 -2.5957 0.8448
-37.3963 18.9961 -2.5876 0.8453
-37.4735 18.7447 -2.5849 0.8454
-37.5491 18.4931 -2.5821 0.8456
-37.6230 18.2412 -2.5794 0.8457
-37.6984 17.9907 -2.5769 0.8459
-37.7734 17.7405 -2.5745 0.8460
-37.9886 16.9887 -2.5672 0.8464
-38.0570 16.7377 -2.5648 0.8465
-38.4319 15.2272 -2.5502 0.8473
-38.5967 14.4700 -2.5429 0.8477
-38.6483 14.2174 -2.5405 0.8479
-38.6983 13.9647 -2.5380 0.8480
-38.7466 13.7119 -2.5356 0.8481
-38.7932 13.4590 -2.5331 0.8483
-38.8382 13.2061 -2.5307 0.8484
-38.8815 12.9532 -2.5282 0.8485
-38.9232 12.7001 -2.5258 0.8487
-38.9633 12.4471 -2.5234 0.8488
-39.0016 12.1941 -2.5209 0.8489
-39.1070 11.4351 -2.5136 0.8493
-39.1691 10.9292 -2.5087 0.8496
-39.1977 10.6764 -2.5062 0.8498
-39.2738 9.9182 -2.4989 0.8502
-39.2959 9.6657 -2.4965 0.8503
-39.3356 9.1610 -2.4916 0.8506
-39.3529 8.9089 -2.4891 0.8507
-39.3686 8.6569 -2.4867 0.8508
-39.4063 7.9017 -2.4794 0.8512
-39.4237 7.3992 -2.4745 0.8515
-39.4299 7.1482 -2.4721 0.8516
-39.4378 6.6470 -2.4673 0.8519
-39.4243 5.1489 -2.4528 0.8527
-39.4167 4.9002 -2.4504 0.8528
-39.4075 4.6518 -2.4480 0.8530
-39.3847 4.1559 -2.4432 0.8532
-39.2078 1.9413 -2.4217 0.8544
-39.1807 1.6971 -2.4194 0.8546
-39.1523 1.4534 -2.4170 0.8547
-39.0910 0.9671 -2.4123 0.8550
-38.9770 0.7232 -2.4049 0.8554
-38.6974 0.4786 -2.3875 0.8563
-38.4218 0.2376 -2.3703 0.8573
-34.7163 -0.2147 -2.4006 0.8701
-34.6843 -0.4291 -2.3985 0.8702
-34.6165 -0.8565 -2.3944 0.8704
-34.5054 -1.4947 -2.3882 0.8707
-34.4658 -1.7066 -2.3861 0.8708
-34.3830 -2.1290 -2.3820 0.8710
-34.3397 -2.3396 -2.3800 0.8711
-34.2953 -2.5498 -2.3780 0.8712
-34.2027 -2.9686 -2.3739 0.8714
-34.1053 -3.3857 -2.3699 0.8716
-33.9179 -3.5791 -2.3583 0.8722
-33.4827 -3.9525 -2.3313 0.8736
-33.2688 -4.1360 -2.3182 0.8742
-33.0573 -4.3175 -2.3052 0.8749
-32.2339 -5.0237 -2.2558 0.8774
-31.8351 -5.3656 -2.2324 0.8786
-31.6387 -5.5340 -2.2209 0.8792
-31.4443 -5.7006 -2.2097 0.8797
-31.2612 -5.8672 -2.1994 0.8803
-31.1140 -6.0391 -2.1916 0.8807
-30.9856 -6.4128 -2.1880 0.8808
-30.7852 -6.9693 -2.1826 0.8811
-30.7164 -7.1537 -2.1808 0.8812
-30.5755 -7.5208 -2.1772 0.8814
-30.3566 -8.0670 -2.1719 0.8817
-30.2817 -8.2479 -2.1702 0.8818
-30.2058 -8.4282 -2.1684 0.8818
-30.0509 -8.7871 -2.1649 0.8820
-29.7294 -9.4973 -2.1581 0.8824
-29.6466 -9.6734 -2.1563 0.8825
-29.5629 -9.8488 -2.1546 0.8826
-29.4782 -10.0235 -2.1530 0.8826
-29.3926 -10.1976 -2.1513 0.8827
-29.3004 -10.3690 -2.1492 0.8828
-29.1894 -10.5333 -2.1458 0.8830
-29.0781 -10.6969 -2.1424 0.8832
-28.9650 -10.8591 -2.1390 0.8834
-28.8514 -11.0205 -2.1356 0.8835
-28.7362 -11.1806 -2.1321 0.8837
-28.5003 -11.4967 -2.1250 0.8841
-28.1596 -11.9714 -2.1158 0.8845
-28.0614 -12.1350 -2.1140 0.8846
-27.9625 -12.2981 -2.1123 0.8847
-27.8630 -12.4605 -2.1105 0.8848
-27.6620 -12.7835 -2.1071 0.8850
-27.4583 -13.1039 -2.1038 0.8852
-27.2521 -13.4218 -2.1006 0.8853
-27.1479 -13.5798 -2.0990 0.8854
-27.0432 -13.7371 -2.0974 0.8855
-26.8318 -14.0499 -2.0943 0.8856
-26.7250 -14.2053 -2.0928 0.8857
-26.2658 -14.8057 -2.0849 0.8861
-26.1196 -14.9369 -2.0806 0.8864
-25.9740 -15.0675 -2.0764 0.8866
-25.6845 -15.3273 -2.0682 0.8870
-25.5406 -15.4564 -2.0643 0.8872
-25.3972 -15.5851 -2.0604 0.8874
-25.2544 -15.7132 -2.0567 0.8876
-25.1121 -15.8409 -2.0530 0.8878
-24.9702 -15.9682 -2.0495 0.8879
-24.8289 -16.0950 -2.0460 0.8881
-24.5476 -16.3474 -2.0393 0.8885
-24.4225 -16.4830 -2.0375 0.8886
-24.1287 -16.7227 -2.0300 0.8890
-23.7138 -17.0950 -2.0214 0.8894
-23.5762 -17.2184 -2.0187 0.8895
-23.4391 -17.3415 -2.0161 0.8897
-23.3022 -17.4643 -2.0136 0.8898
-23.1657 -17.5868 -2.0112 0.8899
-22.7582 -17.9525 -2.0043 0.8903
-22.3532 -18.3159 -1.9983 0.8906
-22.0845 -18.5570 -1.9946 0.8908
-21.8168 -18.7973 -1.9913 0.8910
-21.6833 -18.9171 -1.9897 0.8910
-21.5500 -19.0368 -1.9883 0.8911
-21.2838 -19.2756 -1.9856 0.8912
-21.1511 -19.3948 -1.9843 0.8913
-20.7536 -19.7514 -1.9811 0.8915
-20.6214 -19.8701 -1.9802 0.8915
-20.3573 -20.1071 -1.9785 0.8916
-20.0938 -20.3439 -1.9772 0.8917
-19.9621 -20.4621 -1.9767 0.8917
-19.8304 -20.5803 -1.9762 0.8917
-19.6988 -20.6984 -1.9758 0.8918
-19.5673 -20.8165 -1.9755 0.8918
-19.3043 -21.0525 -1.9751 0.8918
-19.1729 -21.1705 -1.9750 0.8918
-19.0414 -21.2885 -1.9750 0.8918
-18.9100 -21.4065 -1.9750 0.8918
-18.7785 -21.5245 -1.9752 0.8918
-18.5155 -21.7605 -1.9757 0.8918
-18.2523 -21.9967 -1.9765 0.8917
-17.8570 -22.3515 -1.9782 0.8916
-17.5931 -22.5885 -1.9798 0.8915
-17.4609 -22.7071 -1.9807 0.8915
-17.3287 -22.8258 -1.9816 0.8914
-17.1962 -22.9446 -1.9827 0.8914
-17.0637 -23.0636 -1.9838 0.8913
-13.1805 -19.5293 -1.6292 0.9099
-15.7280 -24.2628 -1.9994 0.8905
-15.4580 -24.5052 -2.0034 0.8903
-13.6988 -22.9555 -1.8485 0.8984
-13.5307 -22.9959 -1.8449 0.8985
-13.3632 -23.0360 -1.8415 0.8987
-13.1964 -23.0760 -1.8381 0.8989
-13.0301 -23.1158 -1.8348 0.8991
-12.8645 -23.1556 -1.8317 0.8992
-12.0444 -23.3522 -1.8169 0.9000
-11.7200 -23.4300 -1.8115 0.9003
-11.5584 -23.4687 -1.8089 0.9004
-11.2367 -23.5458 -1.8040 0.9007
-10.7573 -23.6608 -1.7972 0.9010
-10.4397 -23.7370 -1.7931 0.9012
-9.9658 -23.8506 -1.7874 0.9015
-9.6514 -23.9260 -1.7839 0.9017
-9.4947 -23.9636 -1.7823 0.9018
-9.3383 -24.0011 -1.7808 0.9019
-9.1821 -24.0386 -1.7793 0.9020
-9.0262 -24.0760 -1.7779 0.9020
-8.7150 -24.1506 -1.7754 0.9022
-8.4047 -24.2250 -1.7730 0.9023
-8.2499 -24.2621 -1.7720 0.9024
-8.0952 -24.2993 -1.7710 0.9024
-8.0155 -26.2046 -1.8949 0.8959
-7.8505 -26.2442 -1.8942 0.8960
-7.5207 -26.3233 -1.8930 0.8960
-7.1913 -26.4023 -1.8922 0.8961
-6.8621 -26.4813 -1.8916 0.8961
-6.6976 -26.5208 -1.8914 0.8961
-6.3686 -26.5997 -1.8913 0.8961
-6.2041 -26.6392 -1.8913 0.8961
-5.8751 -26.7181 -1.8916 0.8961
-5.7106 -26.7576 -1.8919 0.8961
-5.5460 -26.7971 -1.8922 0.8961
-5.3813 -26.8366 -1.8926 0.8961
-5.0517 -26.9157 -1.8936 0.8960
-4.8867 -26.9553 -1.8943 0.8960
-4.7217 -26.9949 -1.8950 0.8959
-3.3248 -25.4568 -1.7752 0.9022
-2.7020 -25.6063 -1.7804 0.9019
-2.5457 -25.6438 -1.7819 0.9018
-2.0400 -25.3205 -1.7565 0.9032
-1.7302 -25.3949 -1.7601 0.9030
-1.5748 -25.4322 -1.7619 0.9029
-1.4428 -25.8956 -1.7934 0.9012
-1.1250 -25.9719 -1.7976 0.9010
-0.9573 -25.7869 -1.7843 0.9017
-0.7925 -25.6200 -1.7724 0.9023
-0.4768 -25.6958 -1.7771 0.9021
-0.3183 -25.7338 -1.7796 0.9020
-0.0000 -26.2549 -1.8155 0.9001
0.1528 -24.7113 -1.7087 0.9057
0.3257 -26.3331 -1.8210 0.8998
0.8178 -26.4383 -1.8290 0.8994
0.8444 -22.7465 -1.5739 0.9128
0.9792 -22.6044 -1.5645 0.9133
1.2439 -22.3252 -1.5461 0.9142
1.3739 -22.1880 -1.5372 0.9147
1.5197 -22.3051 -1.5459 0.9143
1.6482 -22.1695 -1.5372 0.9147
1.7754 -22.0354 -1.5286 0.9152
2.2444 -21.2697 -1.4789 0.9178
2.4960 -21.1443 -1.4722 0.9182
2.6197 -20.0582 -1.3988 0.9221
2.7238 -19.8964 -1.3886 0.9226
2.8451 -19.8677 -1.3878 0.9227
3.1791 -20.3985 -1.4275 0.9206
3.3012 -20.3539 -1.4258 0.9206
3.5874 -20.5102 -1.4398 0.9199
4.0653 -21.6604 -1.5239 0.9154
4.4087 -21.9865 -1.5506 0.9140
4.7644 -22.3241 -1.5784 0.9125
5.1331 -22.6743 -1.6075 0.9110
5.3226 -22.8542 -1.6226 0.9102
5.5157 -23.0375 -1.6380 0.9094
5.7126 -23.2244 -1.6538 0.9086
5.9132 -23.4150 -1.6699 0.9077
6.1179 -23.6092 -1.6864 0.9068
6.3266 -23.8074 -1.7034 0.9060
6.5396 -24.0096 -1.7207 0.9050
6.7171 -24.0731 -1.7282 0.9046
7.1578 -24.4791 -1.7635 0.9028
8.6799 -26.0544 -1.8989 0.8957
9.2160 -26.5635 -1.9442 0.8934
9.9188 -26.9631 -1.9866 0.8912
10.0880 -26.9082 -1.9871 0.8912
10.2569 -26.8525 -1.9876 0.8911
10.4256 -26.7958 -1.9882 0.8911
8.2515 -20.4555 -1.5252 0.9154
8.3165 -20.2547 -1.5140 0.9160
11.4321 -26.4359 -1.9916 0.8909
11.5989 -26.3727 -1.9922 0.8909
11.7653 -26.3085 -1.9928 0.8909
11.9315 -26.2434 -1.9934 0.8908
12.0974 -26.1774 -1.9940 0.8908
12.2630 -26.1104 -1.9947 0.8908
12.4282 -26.0425 -1.9953 0.8907
12.7578 -25.9039 -1.9966 0.8907
13.2497 -25.6891 -1.9987 0.8906
13.5760 -25.5413 -2.0001 0.8905
13.7386 -25.4660 -2.0008 0.8905
14.0628 -25.3126 -2.0023 0.8904
14.2244 -25.2345 -2.0030 0.8903
14.7069 -24.9948 -2.0053 0.8902
15.5034 -24.5770 -2.0093 0.8900
15.6615 -24.4907 -2.0101 0.8900
15.9766 -24.3154 -2.0118 0.8899
16.7568 -23.8613 -2.0161 0.8897
16.9114 -23.7675 -2.0170 0.8896
17.0658 -23.6733 -2.0179 0.8896
17.2196 -23.5780 -2.0189 0.8895
17.6785 -23.2866 -2.0216 0.8894
17.9821 -23.0879 -2.0236 0.8893
18.7326 -22.5755 -2.0285 0.8890
19.0293 -22.3644 -2.0305 0.8889
19.4706 -22.0411 -2.0336 0.8888
20.0517 -21.5978 -2.0378 0.8885
20.6241 -21.1407 -2.0422 0.8883
20.7657 -21.0242 -2.0433 0.8883
20.9069 -20.9069 -2.0445 0.8882
21.3268 -20.5498 -2.0479 0.8880
21.4656 -20.4291 -2.0491 0.8880
21.6038 -20.3075 -2.0502 0.8879
22.2860 -19.6870 -2.0562 0.8876
22.9526 -19.0455 -2.0623 0.8873
23.3449 -18.6507 -2.0661 0.8871
23.7312 -18.2485 -2.0700 0.8869
23.8586 -18.1128 -2.0713 0.8868
23.9853 -17.9763 -2.0726 0.8868
25.2143 -16.5672 -2.0862 0.8861
25.4514 -16.2759 -2.0890 0.8859
25.8015 -15.8331 -2.0932 0.8857
25.9167 -15.6841 -2.0947 0.8856
26.0311 -15.5342 -2.0961 0.8856
26.3697 -15.0800 -2.1005 0.8853
26.4810 -14.9271 -2.1020 0.8853
26.5915 -14.7734 -2.1034 0.8852
26.8102 -14.4639 -2.1064 0.8850
27.0255 -14.1513 -2.1094 0.8849
27.2376 -13.8359 -2.1125 0.8847
27.4465 -13.5175 -2.1155 0.8846
27.5496 -13.3573 -2.1171 0.8845
27.8540 -12.8723 -2.1218 0.8842
27.9538 -12.7092 -2.1233 0.8842
28.2479 -12.2157 -2.1281 0.8839
28.5341 -11.7160 -2.1329 0.8837
28.6277 -11.5481 -2.1345 0.8836
28.8122 -11.2102 -2.1378 0.8834
28.9031 -11.0403 -2.1394 0.8833
28.9932 -10.8697 -2.1411 0.8832
29.0822 -10.6984 -2.1427 0.8832
29.1704 -10.5265 -2.1444 0.8831
29.3439 -10.1807 -2.1477 0.8829
29.0470 -9.4777 -2.1127 0.8847
28.9314 -9.0456 -2.0960 0.8856
29.2236 -8.7417 -2.1092 0.8849
30.0000 -8.7722 -2.1613 0.8822
30.0777 -8.5934 -2.1630 0.8821
26.3279 -7.3462 -1.8900 0.8962
26.0096 -7.0843 -1.8640 0.8976
25.5487 -6.6205 -1.8250 0.8996
25.4039 -6.4155 -1.8118 0.9003
25.3665 -6.2395 -1.8063 0.9006
25.4112 -6.0841 -1.8068 0.9005
25.5692 -5.9550 -1.8154 0.9001
25.6582 -5.8086 -1.8191 0.8999
25.7926 -5.6716 -1.8261 0.8995
26.5710 -5.1573 -1.8716 0.8972
26.8586 -4.8692 -1.8875 0.8963
27.1576 -4.5772 -1.9044 0.8955
27.2155 -4.4141 -1.9065 0.8953
27.3368 -4.2604 -1.9131 0.8950
27.6676 -3.7877 -1.9310 0.8941
31.6353 -4.1317 -2.2061 0.8799
31.6869 -3.9393 -2.2079 0.8798
31.8352 -3.3593 -2.2135 0.8795
31.9283 -2.9703 -2.2173 0.8794
31.9732 -2.7752 -2.2192 0.8793
32.0171 -2.5796 -2.2211 0.8792
32.5787 -1.8152 -2.2562 0.8774
32.7510 -1.6217 -2.2674 0.8768
32.9250 -1.4262 -2.2788 0.8762
33.2783 -1.0294 -2.3022 0.8750
33.4577 -0.8278 -2.3142 0.8744
33.6389 -0.6242 -2.3264 0.8738
34.0072 -0.2103 -2.3515 0.8725
34.3834 0.2126 -2.3776 0.8712
34.5746 0.4276 -2.3909 0.8705
34.7931 0.8608 -2.4066 0.8698
34.8618 1.5101 -2.4129 0.8694
34.9188 2.1622 -2.4192 0.8691
34.9351 2.3802 -2.4213 0.8690
34.9874 3.2549 -2.4297 0.8686
34.9971 3.4742 -2.4319 0.8685
35.0055 3.6938 -2.4340 0.8684
35.0125 3.9136 -2.4361 0.8683
35.0184 4.1337 -2.4382 0.8682
35.0227 4.3540 -2.4404 0.8680
35.0257 4.5745 -2.4425 0.8679
35.0275 5.0161 -2.4468 0.8677
35.0239 5.4585 -2.4510 0.8675
35.0202 5.6799 -2.4532 0.8674
35.0083 6.1233 -2.4575 0.8672
34.9681 7.0118 -2.4661 0.8668
34.9396 7.4568 -2.4704 0.8665
34.8863 8.1248 -2.4769 0.8662
34.8657 8.3477 -2.4790 0.8661
34.8438 8.5706 -2.4812 0.8660
34.7693 9.2396 -2.4876 0.8657
34.7416 9.4626 -2.4898 0.8656
34.6821 9.9088 -2.4941 0.8653
34.6167 10.3548 -2.4984 0.8651
34.5819 10.5779 -2.5006 0.8650
34.5078 11.0238 -2.5049 0.8648
34.4281 11.4695 -2.5092 0.8646
34.3861 11.6922 -2.5114 0.8645
34.2976 12.1374 -2.5157 0.8643
34.2512 12.3599 -2.5179 0.8642
34.2033 12.5822 -2.5200 0.8640
34.1540 12.8044 -2.5222 0.8639
34.1033 13.0265 -2.5243 0.8638
34.0510 13.2484 -2.5265 0.8637
33.8856 13.9133 -2.5329 0.8634
33.8275 14.1345 -2.5351 0.8633
33.7679 14.3555 -2.5372 0.8632
33.7070 14.5764 -2.5393 0.8631
33.6445 14.7970 -2.5415 0.8630
33.5151 15.2376 -2.5458 0.8628
33.4482 15.4575 -2.5479 0.8627
33.3100 15.8964 -2.5521 0.8624
33.2387 16.1156 -2.5543 0.8623
33.0916 16.5528 -2.5585 0.8621
33.0160 16.7711 -2.5606 0.8620
32.7799 17.4236 -2.5669 0.8617
32.6983 17.6404 -2.5691 0.8616
32.5306 18.0727 -2.5732 0.8614
32.4445 18.2884 -2.5753 0.8613
32.3572 18.5039 -2.5774 0.8612
32.2682 18.7188 -2.5795 0.8611
32.1778 18.9333 -2.5816 0.8610
14.0297 8.3722 -1.1297 0.9366
13.9520 8.4434 -1.1277 0.9367
13.7208 8.6552 -1.1218 0.9370
13.5680 8.7953 -1.1181 0.9372
13.4920 8.8649 -1.1163 0.9373
13.3406 9.0037 -1.1129 0.9375
13.2652 9.0727 -1.1113 0.9376
13.1901 9.1416 -1.1097 0.9377
13.1151 9.2102 -1.1082 0.9378
13.0404 9.2787 -1.1067 0.9378
12.9659 9.3470 -1.1052 0.9379
12.8915 9.4151 -1.1038 0.9380
12.6696 9.6184 -1.0999 0.9382
12.5960 9.6859 -1.0987 0.9383
12.3760 9.8874 -1.0953 0.9385
12.1573 10.0878 -1.0924 0.9386
12.0846 10.1544 -1.0915 0.9387
11.9397 10.2872 -1.0898 0.9388
11.8674 10.3534 -1.0890 0.9388
12.9385 11.7176 -1.2070 0.9324
14.0539 12.8869 -1.3185 0.9264
17.5265 16.6802 -1.6730 0.9075
25.7164 24.7794 -2.4694 0.8666
27.3720 27.0355 -2.6603 0.8571
25.4945 25.4945 -2.4931 0.8654
25.3536 25.6691 -2.4948 0.8653
25.0681 26.0159 -2.4982 0.8651
24.9233 26.1879 -2.4998 0.8651
24.7774 26.3591 -2.5015 0.8650
12.1251 13.8981 -1.2753 0.9287
11.9882 14.0893 -1.2792 0.9285
11.8218 14.2471 -1.2801 0.9285
11.7386 14.3261 -1.2807 0.9284
11.6552 14.4051 -1.2813 0.9284
11.5603 14.4700 -1.2807 0.9284
22.4481 28.8220 -2.5261 0.8637
22.2828 28.9776 -2.5276 0.8637
21.9522 29.2904 -2.5310 0.8635
13.2991 18.9376 -1.6001 0.9114
12.9888 18.9909 -1.5909 0.9119
11.9273 17.9103 -1.4879 0.9173
11.8505 18.0358 -1.4923 0.9171
11.7519 18.1291 -1.4939 0.9170
11.5541 18.3163 -1.4975 0.9168
11.3552 18.5043 -1.5012 0.9166
10.1876 17.0718 -1.3747 0.9234
9.6785 16.4490 -1.3197 0.9263
8.3566 15.0416 -1.1898 0.9333
5.4643 11.6348 -0.8888 0.9498
5.3465 11.7596 -0.8932 0.9495
5.2180 11.6680 -0.8838 0.9500
5.1123 11.8218 -0.8906 0.9497
4.8640 12.0579 -0.8990 0.9492
4.0732 10.6637 -0.7893 0.9553
3.9197 10.8620 -0.7985 0.9548
3.8629 10.9157 -0.8007 0.9546
3.8059 10.9698 -0.8029 0.9545
3.6908 11.0787 -0.8075 0.9543
2.9072 9.2983 -0.6736 0.9617
2.7745 9.2753 -0.6694 0.9619
2.6844 9.1804 -0.6614 0.9624
2.4401 8.7450 -0.6278 0.9643
2.3665 8.6886 -0.6227 0.9645
2.3177 8.7217 -0.6240 0.9645
2.1913 8.6770 -0.6188 0.9648
2.1289 8.6548 -0.6163 0.9649
2.0055 8.6112 -0.6114 0.9652
1.8731 8.5181 -0.6031 0.9656
1.8176 8.5166 -0.6022 0.9657
1.6798 8.6545 -0.6096 0.9653
1.6256 8.6616 -0.6094 0.9653
1.5715 8.6687 -0.6092 0.9653
1.4094 8.6900 -0.6087 0.9653
1.2475 8.7113 -0.6085 0.9653
1.1935 8.7184 -0.6085 0.9653
1.1396 8.7255 -0.6085 0.9653
1.0714 8.6181 -0.6005 0.9658
1.0180 8.6238 -0.6005 0.9658
0.9657 8.6393 -0.6011 0.9657
0.6700 7.2022 -0.5002 0.9714
0.6197 7.1402 -0.4956 0.9717
0.5731 7.1136 -0.4935 0.9718
0.4415 7.1307 -0.4940 0.9718
0.3996 7.1721 -0.4967 0.9716
0.4499 9.0874 -0.6291 0.9642
0.3959 9.1387 -0.6325 0.9640
0.3412 9.1905 -0.6359 0.9638
0.2300 9.2959 -0.6430 0.9634
0.1163 9.4037 -0.6503 0.9630
-0.0592 9.5701 -0.6618 0.9624
-0.1191 9.6269 -0.6657 0.9621
-0.1797 9.6843 -0.6698 0.9619
-0.3032 9.8014 -0.6781 0.9614
-0.4943 9.9826 -0.6911 0.9607
-0.5596 10.0445 -0.6956 0.9605
-0.6259 10.1073 -0.7002 0.9602
-0.6930 10.1709 -0.7049 0.9599
-0.8299 10.3007 -0.7146 0.9594
-0.8998 10.3670 -0.7195 0.9591
-1.1155 10.5715 -0.7351 0.9583
-1.1895 10.6417 -0.7404 0.9580
-1.3408 10.7851 -0.7515 0.9574
-1.4182 10.8584 -0.7572 0.9570
-1.5765 11.0085 -0.7690 0.9564
-1.8235 11.2426 -0.7876 0.9554
-1.9085 11.3232 -0.7940 0.9550
-2.1721 11.5731 -0.8142 0.9539
-2.2630 11.6593 -0.8213 0.9535
-2.4496 11.8362 -0.8358 0.9527
-2.7424 12.1137 -0.8588 0.9514
-2.8436 12.2096 -0.8669 0.9510
-2.9467 12.3074 -0.8751 0.9505
-3.0518 12.4070 -0.8835 0.9501
-3.4830 12.7875 -0.9164 0.9482
-3.6094 12.9355 -0.9286 0.9476
-3.9724 13.2796 -0.9585 0.9459
-4.3595 13.6466 -0.9906 0.9442
-4.5756 13.4565 -0.9828 0.9446
-4.6437 13.3847 -0.9796 0.9448
-4.7386 13.3901 -0.9822 0.9446
-4.8805 13.5246 -0.9942 0.9440
-5.0260 13.6625 -1.0066 0.9433
-5.1751 13.8039 -1.0194 0.9426
-5.3281 13.9489 -1.0325 0.9419
-6.6006 16.0757 -1.2016 0.9327
-6.9918 16.4465 -1.2357 0.9309
-7.1959 16.6399 -1.2536 0.9299
-7.4059 16.8390 -1.2720 0.9289
-7.8451 17.2553 -1.3107 0.9268
-8.5565 17.9296 -1.3737 0.9234
-8.8092 18.1691 -1.3962 0.9222
-9.0703 18.4166 -1.4195 0.9210
-7.4409 14.8755 -1.1501 0.9355
-9.9086 19.2112 -1.4947 0.9170
-11.1757 20.4122 -1.6091 0.9109
-7.7370 13.7257 -1.0895 0.9388
-12.2617 21.4414 -1.7079 0.9057
-12.6540 21.8133 -1.7437 0.9038
-10.3699 17.6240 -1.4140 0.9213
-10.7119 17.9503 -1.4454 0.9196
-11.4039 18.5838 -1.5077 0.9163
-11.7437 18.1164 -1.4929 0.9171
-12.1620 17.7821 -1.4897 0.9172
-12.2650 17.6968 -1.4888 0.9173
-12.3674 17.6108 -1.4880 0.9173
-11.9204 16.3220 -1.3976 0.9222
-14.1691 18.6639 -1.6203 0.9103
-22.6798 28.7508 -2.5321 0.8634
-22.8435 28.5930 -2.5306 0.8635
-23.0060 28.4340 -2.5291 0.8636
-23.1673 28.2740 -2.5276 0.8637
-18.0063 21.4291 -1.9354 0.8938
-17.9848 20.8738 -1.9052 0.8954
-24.1100 27.2929 -2.5181 0.8641
-24.2629 27.1261 -2.5165 0.8642
-24.4145 26.9582 -2.5149 0.8643
-24.8619 26.4489 -2.5100 0.8646
-25.1538 26.1049 -2.5067 0.8647
-25.2977 25.9313 -2.5050 0.8648
-25.4406 25.7572 -2.5033 0.8649
-25.5819 25.5818 -2.5016 0.8650
-25.7220 25.4057 -2.4999 0.8651
-15.0756 13.8237 -1.4143 0.9213
-16.9742 15.1826 -1.5747 0.9127
-21.5559 18.8059 -1.9780 0.8916
-27.1261 23.3717 -2.4759 0.8663
-27.2505 23.1868 -2.4741 0.8664
-27.3736 23.0012 -2.4723 0.8664
-27.4954 22.8150 -2.4705 0.8665
-27.8525 22.2519 -2.4651 0.8668
-29.8652 23.5588 -2.6303 0.8585
-29.9881 23.3563 -2.6283 0.8586
-30.4651 22.5397 -2.6205 0.8590
-30.6949 22.1276 -2.6165 0.8592
-31.2440 21.0868 -2.6064 0.8597
-31.3495 20.8770 -2.6044 0.8598
-31.4535 20.6666 -2.6024 0.8599
-31.5560 20.4557 -2.6004 0.8600
-31.6571 20.2443 -2.5983 0.8601
-31.7566 20.0323 -2.5963 0.8602
-32.0466 19.3936 -2.5901 0.8605
-32.2325 18.9655 -2.5860 0.8608
-32.3233 18.7508 -2.5839 0.8609
-32.5004 18.3201 -2.5798 0.8611
-32.5867 18.1041 -2.5777 0.8612
-32.6715 17.8877 -2.5756 0.8613
-32.9172 17.2363 -2.5693 0.8616
-32.9962 17.0185 -2.5672 0.8617
-33.0737 16.8003 -2.5651 0.8618
-33.2972 16.1439 -2.5588 0.8621
-33.5074 15.4848 -2.5524 0.8624
-33.5745 15.2645 -2.5503 0.8625
-33.7043 14.8233 -2.5460 0.8627
-33.8283 14.3812 -2.5417 0.8630
-33.9464 13.9382 -2.5375 0.8632
-34.0031 13.7164 -2.5353 0.8633
-34.1123 13.2723 -2.5310 0.8635
-34.1647 13.0500 -2.5289 0.8636
-34.2158 12.8276 -2.5267 0.8637
-34.2652 12.6050 -2.5246 0.8638
-34.4050 11.9365 -2.5181 0.8641
-34.5316 11.2672 -2.5117 0.8645
-34.6801 10.3739 -2.5030 0.8649
-34.7763 9.7035 -2.4965 0.8652
-34.8333 9.2566 -2.4922 0.8654
-34.8596 9.0332 -2.4901 0.8656
-34.8845 8.8098 -2.4879 0.8657
-34.9300 8.3631 -2.4836 0.8659
-34.9508 8.1399 -2.4814 0.8660
-34.9700 7.9166 -2.4793 0.8661
-34.9878 7.6936 -2.4771 0.8662
-35.0651 6.3570 -2.4642 0.8669
-35.0732 6.1346 -2.4620 0.8670
-35.0851 5.6904 -2.4577 0.8672
-35.0889 5.4686 -2.4556 0.8673
-35.0914 5.2469 -2.4534 0.8674
-35.0925 5.0254 -2.4513 0.8675
-35.0921 4.8040 -2.4492 0.8676
-35.0832 4.1414 -2.4428 0.8679
-35.0286 2.8222 -2.4300 0.8686
-35.0149 2.6032 -2.4279 0.8687
-34.9997 2.3845 -2.4257 0.8688
-34.9044 1.2957 -2.4152 0.8693
-34.8572 0.8624 -2.4110 0.8695
-34.8046 0.4305 -2.4068 0.8697
-34.7765 0.2150 -2.4047 0.8698
-31.3590 -0.0000 -2.4024 0.8818
-31.3076 -0.3872 -2.3987 0.8820
-31.2802 -0.5804 -2.3968 0.8820
-31.1591 -1.3497 -2.3894 0.8824
-31.1260 -1.5412 -2.3875 0.8825
-30.9435 -2.4931 -2.3783 0.8829
-30.9036 -2.6823 -2.3765 0.8830
-30.8206 -3.0596 -2.3728 0.8832
-30.7332 -3.4354 -2.3692 0.8833
-30.6878 -3.6225 -2.3674 0.8834
-30.6414 -3.8094 -2.3656 0.8835
-30.5453 -4.1817 -2.3619 0.8837
-30.4956 -4.3671 -2.3601 0.8837
-30.4449 -4.5522 -2.3584 0.8838
-30.3931 -4.7368 -2.3566 0.8839
-30.3402 -4.9209 -2.3548 0.8840
-30.1752 -5.4705 -2.3494 0.8842
-30.1182 -5.6527 -2.3477 0.8843
-30.0601 -5.8346 -2.3459 0.8844
-29.9408 -6.1966 -2.3424 0.8846
-29.8173 -6.5566 -2.3389 0.8847
-29.6898 -6.9146 -2.3354 0.8849
-29.6246 -7.0928 -2.3337 0.8850
-29.5519 -7.2690 -2.3315 0.8851
-29.3770 -7.4189 -2.3213 0.8855
-29.2036 -7.5676 -2.3112 0.8860
-28.5244 -8.1496 -2.2727 0.8878
-28.3580 -8.2921 -2.2635 0.8882
-28.1930 -8.4334 -2.2545 0.8886
-27.5455 -8.9878 -2.2198 0.8903
-27.3867 -9.1237 -2.2115 0.8906
-27.2289 -9.2587 -2.2033 0.8910
-26.9119 -9.5238 -2.1871 0.8918
-26.5991 -9.7849 -2.1713 0.8925
-26.4482 -9.9156 -2.1640 0.8929
-26.2948 -10.0440 -2.1564 0.8932
-26.1686 -10.1816 -2.1512 0.8935
-26.0869 -10.3361 -2.1497 0.8935
-26.0045 -10.4899 -2.1482 0.8936
-25.5795 -11.2500 -2.1408 0.8940
-25.3148 -11.6988 -2.1365 0.8942
-25.1342 -11.9948 -2.1336 0.8943
-24.8576 -12.4341 -2.1293 0.8945
-24.7638 -12.5793 -2.1279 0.8946
-24.6693 -12.7238 -2.1265 0.8946
-24.3810 -13.1534 -2.1223 0.8948
-24.2834 -13.2953 -2.1210 0.8949
-24.1851 -13.4365 -2.1196 0.8949
-24.0860 -13.5770 -2.1182 0.8950
-23.9862 -13.7169 -2.1169 0.8951
-23.8856 -13.8561 -2.1155 0.8951
-23.6823 -14.1325 -2.1128 0.8953
-23.5795 -14.2697 -2.1115 0.8953
-23.4761 -14.4062 -2.1102 0.8954
-23.3719 -14.5420 -2.1088 0.8954
-23.2670 -14.6771 -2.1075 0.8955
-22.7322 -15.3421 -2.1011 0.8958
-22.6231 -15.4731 -2.0998 0.8959
-22.5134 -15.6032 -2.0985 0.8959
-22.2920 -15.8615 -2.0960 0.8961
-22.1803 -15.9896 -2.0948 0.8961
-22.0679 -16.1169 -2.0935 0.8962
-21.9549 -16.2435 -2.0923 0.8962
-21.8412 -16.3693 -2.0911 0.8963
-21.7269 -16.4945 -2.0899 0.8963
-21.4964 -16.7426 -2.0874 0.8965
-21.3801 -16.8655 -2.0862 0.8965
-21.2633 -16.9877 -2.0851 0.8966
-21.1459 -17.1092 -2.0839 0.8966
-21.0278 -17.2299 -2.0827 0.8967
-20.3066 -17.9385 -2.0758 0.8970
-20.1843 -18.0539 -2.0747 0.8971
-20.0615 -18.1686 -2.0736 0.8971
-19.5645 -18.6197 -2.0692 0.8973
-19.1857 -18.9500 -2.0659 0.8975
-19.0584 -19.0585 -2.0649 0.8975
-18.4138 -19.5893 -2.0597 0.8978
-18.2833 -19.6931 -2.0587 0.8978
-18.0208 -19.8984 -2.0567 0.8979
-17.8888 -19.9999 -2.0557 0.8979
-17.7563 -20.1005 -2.0547 0.8980
-17.2213 -20.4950 -2.0509 0.8982
-17.0864 -20.5916 -2.0499 0.8982
-16.5420 -20.9701 -2.0462 0.8984
-16.4047 -21.0627 -2.0453 0.8984
-16.2670 -21.1545 -2.0444 0.8985
-16.1288 -21.2454 -2.0435 0.8985
-15.9903 -21.3355 -2.0427 0.8986
-15.8513 -21.4248 -2.0418 0.8986
-15.7118 -21.5134 -2.0409 0.8986
-13.6566 -19.1933 -1.8047 0.9098
-13.3542 -19.2684 -1.7960 0.9102
-13.2048 -19.3067 -1.7920 0.9104
-14.4380 -22.2728 -2.0335 0.8990
-14.1505 -22.4324 -2.0319 0.8991
-14.0062 -22.5109 -2.0312 0.8991
-13.8615 -22.5887 -2.0304 0.8991
-13.7165 -22.6655 -2.0296 0.8992
-13.4253 -22.8168 -2.0282 0.8992
-13.2791 -22.8911 -2.0274 0.8993
-13.1327 -22.9646 -2.0267 0.8993
-12.9858 -23.0373 -2.0260 0.8993
-12.8387 -23.1092 -2.0253 0.8994
-12.6911 -23.1802 -2.0246 0.8994
-12.2083 -23.3148 -2.0162 0.8998
-11.8828 -23.3928 -2.0101 0.9001
-11.7208 -23.4316 -2.0072 0.9002
-11.2376 -23.5475 -1.9989 0.9006
-10.9175 -23.6243 -1.9938 0.9009
-10.5991 -23.7006 -1.9890 0.9011
-10.4404 -23.7387 -1.9868 0.9012
-10.2821 -23.7766 -1.9846 0.9013
-10.1241 -23.8145 -1.9825 0.9014
-9.8091 -23.8900 -1.9785 0.9016
-9.1827 -24.0403 -1.9715 0.9019
-9.0268 -24.0777 -1.9700 0.9020
-8.8711 -24.1150 -1.9685 0.9021
-8.7156 -24.1523 -1.9671 0.9021
-8.4053 -24.2267 -1.9646 0.9022
-7.9725 -24.9563 -2.0071 0.9002
-7.6599 -25.0423 -2.0063 0.9003
-7.5034 -25.0841 -2.0059 0.9003
-7.3466 -25.1249 -2.0054 0.9003
-7.1897 -25.1648 -2.0051 0.9003
-7.0326 -25.2039 -2.0047 0.9003
-6.7178 -25.2795 -2.0039 0.9004
-6.4023 -25.3517 -2.0032 0.9004
-6.2443 -25.3863 -2.0029 0.9004
-5.2933 -25.5762 -2.0010 0.9005
-5.1342 -25.6048 -2.0007 0.9005
-4.8158 -25.6593 -2.0001 0.9006
-4.6565 -25.6852 -1.9999 0.9006
-4.4970 -25.7103 -1.9996 0.9006
-3.7879 -25.3339 -1.9624 0.9023
-3.4784 -25.4082 -1.9647 0.9022
-3.1696 -25.4959 -1.9683 0.9021
-2.7022 -25.6081 -1.9728 0.9019
-2.5459 -25.6456 -1.9744 0.9018
-2.3489 -25.2482 -1.9427 0.9033
-2.1947 -25.2852 -1.9444 0.9032
-1.8854 -25.3595 -1.9482 0.9030
-1.7303 -25.3967 -1.9502 0.9029
-1.2842 -25.9355 -1.9894 0.9011
-0.7925 -25.6219 -1.9639 0.9023
-0.3183 -25.7357 -1.9718 0.9019
-0.1594 -25.7739 -1.9746 0.9018
0.3222 -26.0516 -1.9960 0.9008
0.4834 -26.0493 -1.9960 0.9008
0.6445 -26.0461 -1.9960 0.9008
0.8055 -26.0419 -1.9961 0.9008
0.9792 -22.6060 -1.7335 0.9132
1.2439 -22.3267 -1.7131 0.9142
1.3740 -22.1895 -1.7032 0.9147
1.5198 -22.3066 -1.7129 0.9142
2.1242 -21.3981 -1.6474 0.9174
2.2446 -21.2711 -1.6387 0.9178
2.5881 -19.8166 -1.5311 0.9230
2.7092 -19.7898 -1.5303 0.9230
2.8473 -19.8826 -1.5388 0.9226
3.2936 -20.3068 -1.5761 0.9208
3.5830 -20.4845 -1.5932 0.9200
3.7909 -20.9107 -1.6281 0.9183
4.4091 -21.9884 -1.7181 0.9140
4.5854 -22.1558 -1.7334 0.9132
5.3231 -22.8563 -1.7979 0.9101
5.5163 -23.0397 -1.8150 0.9093
5.7131 -23.2267 -1.8325 0.9085
6.1185 -23.6116 -1.8687 0.9068
6.7177 -24.0756 -1.9149 0.9046
7.1586 -24.4816 -1.9541 0.9027
8.4357 -24.8088 -2.0075 0.9002
8.5909 -24.7617 -2.0080 0.9002
8.9005 -24.6648 -2.0089 0.9002
9.0551 -24.6151 -2.0093 0.9001
9.3633 -24.5130 -2.0103 0.9001
9.6706 -24.4074 -2.0113 0.9000
8.2104 -20.3538 -1.6814 0.9157
8.4442 -20.2093 -1.6780 0.9159
8.5796 -20.1815 -1.6800 0.9158
10.5862 -24.0702 -2.0145 0.8999
10.7379 -24.0110 -2.0151 0.8999
11.0403 -23.8900 -2.0162 0.8998
11.3416 -23.7655 -2.0174 0.8997
11.9406 -23.5065 -2.0199 0.8996
12.5344 -23.2338 -2.0225 0.8995
12.6821 -23.1636 -2.0232 0.8995
13.1230 -22.9476 -2.0252 0.8994
13.2692 -22.8740 -2.0259 0.8993
13.4151 -22.7995 -2.0266 0.8993
13.5607 -22.7242 -2.0273 0.8993
13.9951 -22.4931 -2.0296 0.8992
14.2829 -22.3350 -2.0311 0.8991
14.5691 -22.1734 -2.0326 0.8990
14.9955 -21.9250 -2.0350 0.8989
15.2777 -21.7551 -2.0366 0.8988
15.5583 -21.5821 -2.0383 0.8988
15.6979 -21.4943 -2.0391 0.8987
15.8371 -21.4057 -2.0400 0.8987
15.9759 -21.3163 -2.0408 0.8986
16.1142 -21.2261 -2.0417 0.8986
16.7992 -20.7628 -2.0461 0.8984
16.9348 -20.6677 -2.0470 0.8984
17.0700 -20.5718 -2.0479 0.8983
17.2047 -20.4752 -2.0489 0.8983
17.3389 -20.3776 -2.0498 0.8982
17.6058 -20.1802 -2.0517 0.8981
18.0025 -19.8782 -2.0546 0.8980
18.1337 -19.7759 -2.0556 0.8980
18.5244 -19.4643 -2.0586 0.8978
18.6536 -19.3589 -2.0596 0.8978
18.7823 -19.2527 -2.0606 0.8977
19.0380 -19.0380 -2.0627 0.8976
19.1651 -18.9295 -2.0637 0.8976
19.2915 -18.8202 -2.0648 0.8975
19.6677 -18.4876 -2.0679 0.8974
19.9157 -18.2620 -2.0701 0.8973
20.5256 -17.6848 -2.0757 0.8970
20.6458 -17.5671 -2.0768 0.8970
20.8845 -17.3294 -2.0791 0.8968
21.2378 -16.9673 -2.0826 0.8967
21.3544 -16.8452 -2.0837 0.8966
21.4704 -16.7223 -2.0849 0.8966
21.5857 -16.5987 -2.0861 0.8965
21.8143 -16.3492 -2.0885 0.8964
21.9277 -16.2234 -2.0897 0.8963
22.2640 -15.8416 -2.0934 0.8962
22.3748 -15.7129 -2.0946 0.8961
22.4849 -15.5834 -2.0959 0.8961
22.5942 -15.4533 -2.0971 0.8960
23.6507 -14.1136 -2.1100 0.8954
23.7525 -13.9759 -2.1113 0.8953
23.8535 -13.8374 -2.1127 0.8953
24.1521 -13.4181 -2.1167 0.8951
24.2502 -13.2771 -2.1181 0.8950
24.3475 -13.1353 -2.1194 0.8950
24.8228 -12.4167 -2.1264 0.8946
24.9155 -12.2710 -2.1278 0.8946
25.0987 -11.9778 -2.1306 0.8944
25.1891 -11.8303 -2.1320 0.8944
25.3675 -11.5333 -2.1349 0.8942
25.4555 -11.3839 -2.1363 0.8942
25.5427 -11.2338 -2.1378 0.8941
25.7994 -10.7801 -2.1421 0.8939
25.8833 -10.6276 -2.1436 0.8938
26.0486 -10.3208 -2.1466 0.8937
26.1300 -10.1666 -2.1480 0.8936
26.2106 -10.0118 -2.1495 0.8935
26.3692 -9.7004 -2.1525 0.8934
26.4472 -9.5438 -2.1540 0.8933
26.5244 -9.3867 -2.1556 0.8933
26.6007 -9.2289 -2.1571 0.8932
27.1794 -7.9474 -2.1694 0.8926
27.2584 -7.7879 -2.1719 0.8925
26.1158 -7.1132 -2.0737 0.8971
25.3683 -6.4066 -2.0045 0.9004
25.3859 -6.0780 -1.9998 0.9006
26.6278 -5.1683 -2.0781 0.8969
26.9158 -4.8796 -2.0957 0.8961
27.2078 -4.5857 -2.1138 0.8952
27.3140 -4.2569 -2.1178 0.8950
27.3699 -4.0924 -2.1202 0.8949
30.6382 -3.6168 -2.3635 0.8836
30.6833 -3.4298 -2.3653 0.8835
30.7705 -3.0547 -2.3690 0.8833
30.8930 -2.4890 -2.3744 0.8831
30.9316 -2.2997 -2.3763 0.8830
30.9691 -2.1100 -2.3781 0.8829
31.0055 -1.9199 -2.3799 0.8828
31.0749 -1.5387 -2.3836 0.8827
31.1398 -1.1560 -2.3873 0.8825
31.1706 -0.9641 -2.3892 0.8824
31.2001 -0.7720 -2.3910 0.8823
31.2559 -0.3866 -2.3947 0.8821
31.3536 0.3878 -2.4022 0.8818
31.3751 0.5821 -2.4041 0.8817
31.3954 0.7768 -2.4060 0.8816
31.4327 1.1668 -2.4098 0.8815
31.4651 1.5579 -2.4135 0.8813
31.4929 1.9500 -2.4173 0.8811
31.5049 2.1464 -2.4192 0.8810
31.5255 2.5399 -2.4230 0.8808
31.5473 3.1317 -2.4288 0.8806
31.5521 3.3294 -2.4307 0.8805
31.5557 3.5273 -2.4326 0.8804
31.5581 3.7252 -2.4345 0.8803
31.5594 3.9234 -2.4364 0.8802
31.5581 4.3203 -2.4403 0.8800
31.5519 4.7177 -2.4441 0.8799
31.4288 6.9109 -2.4653 0.8789
31.4101 7.1108 -2.4673 0.8788
31.3902 7.3106 -2.4692 0.8787
31.2975 8.1101 -2.4769 0.8784
31.2711 8.3100 -2.4789 0.8783
30.9764 10.1072 -2.4963 0.8775
30.9373 10.3065 -2.4982 0.8774
30.8968 10.5058 -2.5001 0.8773
30.8119 10.9039 -2.5040 0.8771
30.5771 11.8968 -2.5136 0.8767
30.4207 12.4906 -2.5194 0.8764
30.3659 12.6881 -2.5213 0.8763
30.3098 12.8854 -2.5232 0.8762
30.1937 13.2794 -2.5270 0.8761
30.1337 13.4760 -2.5289 0.8760
30.0099 13.8685 -2.5327 0.8758
29.8808 14.2599 -2.5365 0.8756
29.6770 14.8446 -2.5422 0.8754
29.6069 15.0393 -2.5441 0.8753
29.4620 15.4271 -2.5478 0.8751
29.2350 16.0062 -2.5535 0.8748
29.0773 16.3905 -2.5572 0.8747
28.9964 16.5820 -2.5590 0.8746
14.0289 8.3718 -1.2516 0.9366
13.9513 8.4429 -1.2493 0.9367
13.7969 8.5844 -1.2449 0.9369
13.7201 8.6547 -1.2428 0.9370
13.5673 8.7948 -1.2387 0.9372
13.1894 9.1411 -1.2294 0.9377
13.0397 9.2782 -1.2261 0.9378
12.8908 9.4146 -1.2229 0.9380
12.8167 9.4825 -1.2214 0.9380
12.7427 9.5503 -1.2200 0.9381
12.6689 9.6179 -1.2186 0.9382
12.5953 9.6854 -1.2173 0.9382
12.4485 9.8199 -1.2147 0.9384
12.3753 9.8869 -1.2135 0.9384
12.3023 9.9538 -1.2124 0.9385
12.1567 10.0873 -1.2102 0.9386
12.0840 10.1538 -1.2092 0.9386
12.0115 10.2203 -1.2083 0.9387
11.9391 10.2866 -1.2073 0.9387
12.2027 10.9147 -1.2543 0.9364
12.9454 11.7239 -1.3380 0.9323
15.9018 14.9476 -1.6720 0.9162
24.7137 23.8133 -2.6293 0.8714
24.5812 23.9805 -2.6309 0.8713
22.8952 22.6138 -2.4654 0.8789
22.7689 22.7688 -2.4669 0.8788
22.6414 22.9232 -2.4684 0.8787
22.5128 23.0767 -2.4699 0.8787
22.2524 23.3814 -2.4728 0.8785
22.1205 23.5326 -2.4743 0.8785
21.9875 23.6829 -2.4758 0.8784
14.5890 16.1090 -1.6650 0.9165
12.1245 13.8974 -1.4129 0.9287
11.9876 14.0885 -1.4172 0.9285
11.9044 14.1674 -1.4177 0.9285
11.8212 14.2463 -1.4182 0.9284
11.7379 14.3253 -1.4189 0.9284
20.0308 25.7183 -2.4974 0.8774
19.8816 25.8550 -2.4987 0.8774
19.7314 25.9908 -2.5000 0.8773
14.5646 19.9426 -1.8919 0.9057
13.3229 18.7243 -1.7606 0.9119
12.1224 17.7242 -1.6451 0.9175
12.0246 17.8167 -1.6467 0.9174
11.9483 17.9419 -1.6515 0.9172
11.8499 18.0349 -1.6532 0.9171
11.6525 18.2216 -1.6570 0.9169
11.5535 18.3153 -1.6590 0.9168
10.3225 17.0571 -1.5274 0.9231
10.1870 17.0707 -1.5230 0.9233
8.1816 14.7267 -1.2907 0.9346
7.9426 14.5070 -1.2671 0.9358
7.7490 14.3636 -1.2503 0.9366
6.7624 12.9145 -1.1168 0.9432
6.5780 12.7536 -1.0994 0.9441
6.5109 12.8175 -1.1014 0.9440
6.4615 12.9176 -1.1065 0.9437
5.3874 11.6577 -0.9839 0.9498
5.2344 11.7047 -0.9823 0.9499
5.1120 11.8212 -0.9867 0.9496
5.0504 11.8798 -0.9890 0.9495
4.9262 11.9978 -0.9936 0.9493
4.3001 10.6600 -0.8806 0.9549
4.1284 10.6107 -0.8723 0.9554
4.0320 10.7548 -0.8799 0.9550
3.9194 10.8613 -0.8846 0.9547
3.6906 11.0781 -0.8946 0.9542
3.6325 11.1329 -0.8972 0.9541
2.9774 9.3200 -0.7496 0.9615
2.9070 9.2977 -0.7463 0.9617
2.7742 9.2743 -0.7416 0.9619
2.6841 9.1794 -0.7327 0.9624
2.5936 9.0781 -0.7233 0.9628
2.3663 8.6878 -0.6898 0.9645
2.0053 8.6105 -0.6773 0.9652
1.9444 8.5889 -0.6747 0.9653
1.8175 8.5160 -0.6671 0.9657
1.6797 8.6538 -0.6754 0.9653
1.5714 8.6680 -0.6749 0.9653
1.4566 8.6425 -0.6715 0.9655
1.4093 8.6894 -0.6744 0.9653
1.2474 8.7107 -0.6741 0.9653
1.0179 8.6233 -0.6652 0.9658
0.9656 8.6387 -0.6659 0.9657
0.9209 8.7269 -0.6723 0.9654
0.8698 8.7620 -0.6746 0.9653
0.5731 7.1128 -0.5467 0.9718
0.5281 7.1037 -0.5457 0.9718
0.4845 7.1106 -0.5460 0.9718
0.4499 9.0868 -0.6970 0.9642
0.3958 9.1380 -0.7007 0.9640
0.3411 9.1899 -0.7045 0.9638
0.2300 9.2953 -0.7123 0.9634
0.0585 9.4579 -0.7246 0.9628
0.0000 9.5133 -0.7288 0.9626
-0.0592 9.5694 -0.7331 0.9623
-0.1191 9.6262 -0.7375 0.9621
-0.1797 9.6836 -0.7420 0.9619
-0.2410 9.7418 -0.7466 0.9617
-0.3661 9.8603 -0.7559 0.9612
-0.4297 9.9206 -0.7607 0.9609
-0.4942 9.9818 -0.7657 0.9607
-0.6258 10.1065 -0.7758 0.9602
-0.6929 10.1702 -0.7810 0.9599
-0.7582 10.1973 -0.7834 0.9598
-0.8998 10.3662 -0.7972 0.9591
-1.2645 10.7120 -0.8264 0.9577
-1.3407 10.7842 -0.8325 0.9573
-1.4966 10.9320 -0.8453 0.9567
-1.7397 11.1624 -0.8655 0.9557
-2.4494 11.8351 -0.9259 0.9527
-2.5452 11.9259 -0.9342 0.9523
-2.7421 12.1125 -0.9514 0.9514
-2.8433 12.2085 -0.9603 0.9510
-2.9464 12.3062 -0.9694 0.9505
-3.0515 12.4058 -0.9788 0.9500
-3.1586 12.5073 -0.9883 0.9496
-3.3793 12.7165 -1.0080 0.9486
-3.7275 13.0465 -1.0395 0.9470
-3.8484 13.1611 -1.0505 0.9465
-3.9719 13.2782 -1.0618 0.9459
-4.3591 13.6452 -1.0974 0.9442
-4.5754 13.4557 -1.0888 0.9446
-4.6435 13.3839 -1.0853 0.9448
-4.7380 13.3886 -1.0880 0.9446
-5.0254 13.6609 -1.1152 0.9433
-5.1745 13.8023 -1.1293 0.9426
-5.3275 13.9472 -1.1438 0.9419
-6.2296 15.7228 -1.2957 0.9344
-6.4122 15.8959 -1.3132 0.9335
-6.4484 13.9536 -1.1776 0.9402
-6.6068 14.0672 -1.1907 0.9396
-11.5215 20.7382 -1.8175 0.9092
-7.7362 13.7242 -1.2070 0.9388
-12.2595 21.4376 -1.8920 0.9057
-12.6516 21.8093 -1.9316 0.9038
-10.3073 17.5175 -1.5571 0.9217
-10.6661 17.8736 -1.5946 0.9199
-7.7950 12.5281 -1.1304 0.9425
-11.2658 16.6923 -1.5428 0.9224
-11.3859 16.6473 -1.5451 0.9223
-11.5171 16.6176 -1.5490 0.9221
-12.6695 17.1243 -1.6319 0.9181
-14.4211 18.7538 -1.8124 0.9095
-15.1690 19.4760 -1.8912 0.9057
-20.2194 25.6319 -2.5011 0.8772
-20.3666 25.4927 -2.4998 0.8773
-20.5128 25.3526 -2.4984 0.8774
-20.6581 25.2116 -2.4971 0.8774
-18.1318 21.8514 -2.1753 0.8923
-18.3491 21.5649 -2.1692 0.8926
-21.3684 24.4930 -2.4902 0.8777
-21.5074 24.3467 -2.4888 0.8778
-21.6452 24.1995 -2.4874 0.8779
-21.7820 24.0513 -2.4859 0.8779
-21.9177 23.9024 -2.4845 0.8780
-22.0522 23.7526 -2.4831 0.8781
-22.5794 23.1449 -2.4772 0.8783
-22.7085 22.9911 -2.4757 0.8784
-12.4503 12.2972 -1.3407 0.9322
-12.6147 12.3065 -1.3501 0.9317
-13.2677 12.3179 -1.3870 0.9299
-13.8903 12.7369 -1.4438 0.9272
-19.2885 17.0391 -1.9717 0.9019
-21.3599 18.6349 -2.1716 0.8925
-24.2439 20.8884 -2.4517 0.8795
-24.3570 20.7247 -2.4501 0.8796
-24.4688 20.5604 -2.4485 0.8797
-24.5796 20.3955 -2.4469 0.8797
-24.9047 19.8969 -2.4421 0.8800
-25.0107 19.7294 -2.4405 0.8800
-26.8183 20.8876 -2.6042 0.8725
-27.0385 20.5268 -2.6008 0.8727
-27.2536 20.1637 -2.5973 0.8728
-27.3592 19.9812 -2.5955 0.8729
-27.5666 19.6145 -2.5920 0.8731
-27.6685 19.4304 -2.5902 0.8732
-27.9662 18.8746 -2.5848 0.8734
-28.6159 17.5602 -2.5722 0.8740
-29.2803 16.0310 -2.5574 0.8747
-29.4334 15.6448 -2.5537 0.8748
-29.5813 15.2572 -2.5499 0.8750
-29.7932 14.6733 -2.5443 0.8753
-29.9280 14.2825 -2.5405 0.8754
-30.0575 13.8905 -2.5368 0.8756
-30.2420 13.3005 -2.5311 0.8759
-30.3009 13.1034 -2.5292 0.8760
-30.3584 12.9061 -2.5272 0.8760
-30.4147 12.7085 -2.5253 0.8761
-30.5756 12.1145 -2.5196 0.8764
-30.7248 11.5188 -2.5138 0.8767
-30.8177 11.1209 -2.5100 0.8768
-30.8622 10.9217 -2.5081 0.8769
-30.9879 10.3234 -2.5023 0.8772
-31.0653 9.9241 -2.4984 0.8774
-31.1374 9.5243 -2.4946 0.8775
-31.2044 9.1243 -2.4907 0.8777
-31.2662 8.7241 -2.4868 0.8779
-31.2952 8.5239 -2.4849 0.8780
-31.3493 8.1236 -2.4810 0.8782
-31.3745 7.9234 -2.4791 0.8783
-31.4210 7.5229 -2.4752 0.8784
-31.4423 7.3228 -2.4733 0.8785
-31.4811 6.9224 -2.4694 0.8787
-31.5149 6.5223 -2.4656 0.8789
-31.5299 6.3223 -2.4636 0.8790
-31.5436 6.1224 -2.4617 0.8791
-31.5672 5.7228 -2.4578 0.8792
-31.5772 5.5231 -2.4559 0.8793
-31.5859 5.3236 -2.4540 0.8794
-31.5933 5.1241 -2.4520 0.8795
-31.6083 4.5264 -2.4463 0.8798
-31.6108 4.3274 -2.4443 0.8799
-31.6121 3.9300 -2.4405 0.8800
-31.6084 3.5331 -2.4366 0.8802
-31.6048 3.3350 -2.4347 0.8803
-31.5999 3.1370 -2.4328 0.8804
-31.5938 2.9392 -2.4309 0.8805
-31.5780 2.5441 -2.4271 0.8807
-31.5575 2.1501 -2.4233 0.8808
-31.5320 1.7568 -2.4195 0.8810
-31.5174 1.5605 -2.4176 0.8811
-31.5018 1.3645 -2.4157 0.8812
-31.4849 1.1688 -2.4138 0.8813
-31.4477 0.7780 -2.4100 0.8814
-31.4056 0.3884 -2.4062 0.8816
-31.3828 0.1940 -2.4043 0.8817
-28.5491 -0.1766 -2.4006 0.8917
-28.4801 -0.7047 -2.3954 0.8919
-28.4288 -1.0554 -2.3921 0.8921
-28.3734 -1.4049 -2.3887 0.8922
-28.3441 -1.5793 -2.3870 0.8923
-28.2167 -2.2734 -2.3803 0.8926
-28.1468 -2.6185 -2.3769 0.8927
-28.0344 -3.1337 -2.3719 0.8929
-27.9949 -3.3047 -2.3703 0.8930
-27.9544 -3.4753 -2.3686 0.8931
-27.8705 -3.8155 -2.3653 0.8932
-27.7371 -4.3229 -2.3604 0.8934
-27.5949 -4.8267 -2.3555 0.8936
-27.5456 -4.9938 -2.3539 0.8937
-27.4440 -5.3268 -2.3507 0.8938
-27.2845 -5.8230 -2.3459 0.8941
-27.2295 -5.9876 -2.3443 0.8941
-27.1735 -6.1517 -2.3427 0.8942
-27.1166 -6.3153 -2.3411 0.8943
-27.0586 -6.4786 -2.3395 0.8943
-26.9401 -6.8035 -2.3363 0.8945
-26.8795 -6.9653 -2.3348 0.8945
-26.8179 -7.1266 -2.3332 0.8946
-26.7554 -7.2875 -2.3317 0.8947
-26.6920 -7.4478 -2.3301 0.8947
-26.6277 -7.6077 -2.3285 0.8948
-26.4294 -8.0843 -2.3239 0.8950
-26.2231 -8.5563 -2.3193 0.8952
-26.1526 -8.7126 -2.3178 0.8953
-26.0811 -8.8684 -2.3163 0.8953
-26.0089 -9.0237 -2.3148 0.8954
-25.9358 -9.1784 -2.3133 0.8954
-25.8618 -9.3326 -2.3118 0.8955
-25.7869 -9.4862 -2.3103 0.8956
-25.5573 -9.9438 -2.3059 0.8958
-25.4790 -10.0952 -2.3044 0.8958
-25.4000 -10.2461 -2.3029 0.8959
-25.3200 -10.3963 -2.3015 0.8959
-25.2393 -10.5461 -2.3000 0.8960
-24.9922 -10.9918 -2.2957 0.8962
-24.8404 -11.1088 -2.2880 0.8965
-24.5268 -11.3346 -2.2719 0.8972
-23.9067 -11.7742 -2.2407 0.8986
-23.5966 -11.9864 -2.2254 0.8992
-23.4431 -12.0913 -2.2179 0.8995
-22.9798 -12.3974 -2.1955 0.9005
-22.8260 -12.4973 -2.1881 0.9008
-22.2136 -12.8862 -2.1593 0.9021
-21.9084 -13.0739 -2.1452 0.9027
-21.7573 -13.1670 -2.1384 0.9030
-20.7341 -14.1811 -2.1122 0.9041
-20.5345 -14.4205 -2.1098 0.9042
-20.3323 -14.6574 -2.1075 0.9043
-20.2303 -14.7748 -2.1064 0.9043
-20.1277 -14.8916 -2.1053 0.9044
-19.7112 -15.3521 -2.1008 0.9046
-19.6056 -15.4656 -2.0997 0.9046
-19.3925 -15.6905 -2.0975 0.9047
-19.1771 -15.9128 -2.0953 0.9048
-18.9596 -16.1322 -2.0932 0.9049
-18.8499 -16.2410 -2.0921 0.9049
-17.8381 -17.1882 -2.0829 0.9053
-17.6075 -17.3910 -2.0809 0.9054
-17.4913 -17.4914 -2.0799 0.9055
-17.1400 -17.7881 -2.0770 0.9056
-17.0219 -17.8856 -2.0761 0.9056
-16.9032 -17.9823 -2.0752 0.9057
-16.5445 -18.2682 -2.0724 0.9058
-16.3029 -18.4552 -2.0705 0.9059
-15.9370 -18.7301 -2.0679 0.9060
-15.5671 -18.9985 -2.0652 0.9061
-15.3182 -19.1737 -2.0635 0.9062
-15.1931 -19.2602 -2.0627 0.9062
-15.0676 -19.3459 -2.0618 0.9063
-14.9416 -19.4309 -2.0610 0.9063
-14.6885 -19.5986 -2.0594 0.9064
-14.5613 -19.6813 -2.0586 0.9064
-13.3519 -19.2651 -1.9709 0.9102
-13.2010 -19.3013 -1.9662 0.9104
-13.0721 -19.3686 -1.9648 0.9105
-13.1374 -19.7275 -1.9929 0.9092
-13.3985 -20.3919 -2.0516 0.9067
-13.2674 -20.4670 -2.0509 0.9067
-13.1359 -20.5413 -2.0502 0.9068
-13.0040 -20.6149 -2.0494 0.9068
-12.8718 -20.6878 -2.0487 0.9068
-12.7392 -20.7598 -2.0480 0.9069
-12.2055 -21.0403 -2.0453 0.9070
-11.8016 -21.2425 -2.0433 0.9071
-11.5307 -21.3734 -2.0420 0.9071
-11.3948 -21.4377 -2.0414 0.9071
-11.1220 -21.5639 -2.0401 0.9072
-10.8480 -21.6870 -2.0389 0.9072
-10.7106 -21.7473 -2.0383 0.9073
-9.8800 -22.0928 -2.0349 0.9074
-9.7406 -22.1476 -2.0344 0.9074
-9.6009 -22.2017 -2.0339 0.9075
-9.3209 -22.3073 -2.0328 0.9075
-9.1804 -22.3589 -2.0323 0.9075
-8.8988 -22.4597 -2.0313 0.9076
-8.0484 -22.7430 -2.0285 0.9077
-7.9059 -22.7875 -2.0281 0.9077
-7.6203 -22.8739 -2.0272 0.9078
-7.3338 -22.9570 -2.0264 0.9078
-7.1903 -22.9974 -2.0260 0.9078
-7.0465 -23.0370 -2.0256 0.9078
-6.6143 -23.1509 -2.0245 0.9079
-6.3252 -23.2227 -2.0238 0.9079
-6.1804 -23.2574 -2.0234 0.9079
-6.0355 -23.2913 -2.0231 0.9079
-5.8904 -23.3243 -2.0228 0.9079
-5.7451 -23.3567 -2.0225 0.9080
-5.5997 -23.3881 -2.0221 0.9080
-5.0165 -23.5058 -2.0210 0.9080
-4.8704 -23.5332 -2.0207 0.9080
-4.4313 -23.6104 -2.0199 0.9081
-4.1380 -23.6578 -2.0194 0.9081
-3.9911 -23.6803 -2.0192 0.9081
-3.6972 -23.7228 -2.0188 0.9081
-3.2555 -23.7804 -2.0182 0.9081
-3.1081 -23.7979 -2.0180 0.9082
-2.9606 -23.8147 -2.0178 0.9082
-2.8130 -23.8306 -2.0177 0.9082
-2.6654 -23.8457 -2.0175 0.9082
-2.5177 -23.8600 -2.0174 0.9082
-2.3699 -23.8735 -2.0172 0.9082
-2.0742 -23.8979 -2.0170 0.9082
-1.3341 -23.9447 -2.0165 0.9082
-1.0378 -23.9576 -2.0163 0.9082
-0.8896 -23.9629 -2.0163 0.9082
-0.4448 -23.9737 -2.0161 0.9082
-0.2965 -23.9756 -2.0161 0.9082
-0.1482 -23.9768 -2.0161 0.9082
0.0000 -23.9771 -2.0161 0.9082
0.1483 -23.9766 -2.0161 0.9082
0.2965 -23.9752 -2.0161 0.9082
0.8445 -22.7497 -1.9142 0.9127
0.9793 -22.6075 -1.9027 0.9132
1.3741 -22.1910 -1.8695 0.9146
1.5199 -22.3081 -1.8801 0.9142
1.9013 -21.9057 -1.8488 0.9155
2.0027 -21.5278 -1.8180 0.9169
2.1244 -21.3995 -1.8082 0.9173
2.3638 -21.1470 -1.7892 0.9181
2.7190 -19.8614 -1.6856 0.9227
2.8633 -19.9945 -1.6984 0.9221
3.2699 -20.1611 -1.7174 0.9213
3.7492 -20.6805 -1.7672 0.9191
4.0661 -21.6643 -1.8534 0.9153
4.2363 -21.8260 -1.8695 0.9146
4.5858 -22.1579 -1.9026 0.9132
4.7653 -22.3283 -1.9197 0.9124
5.3236 -22.8585 -1.9735 0.9101
5.7137 -23.2289 -2.0114 0.9084
5.8884 -23.3166 -2.0221 0.9080
6.0334 -23.2833 -2.0224 0.9080
6.1783 -23.2493 -2.0227 0.9080
6.6118 -23.1422 -2.0237 0.9079
6.9000 -23.0668 -2.0245 0.9079
7.0438 -23.0279 -2.0248 0.9079
7.3308 -22.9476 -2.0256 0.9078
7.4740 -22.9062 -2.0260 0.9078
7.7598 -22.8211 -2.0268 0.9078
7.9024 -22.7773 -2.0272 0.9078
8.0448 -22.7327 -2.0276 0.9077
8.1870 -22.6874 -2.0280 0.9077
8.4706 -22.5942 -2.0289 0.9077
8.7534 -22.4978 -2.0298 0.9076
8.1978 -20.6903 -1.8713 0.9145
8.2788 -20.1630 -1.8327 0.9162
8.5484 -20.1081 -1.8372 0.9160
8.6837 -20.0806 -1.8396 0.9159
10.0136 -22.0250 -2.0343 0.9074
10.2907 -21.9109 -2.0354 0.9074
10.5666 -21.7938 -2.0365 0.9074
10.7042 -21.7342 -2.0371 0.9073
10.8414 -21.6737 -2.0377 0.9073
10.9784 -21.6124 -2.0383 0.9073
11.2515 -21.4875 -2.0395 0.9072
11.3875 -21.4239 -2.0401 0.9072
11.5233 -21.3595 -2.0407 0.9072
11.6587 -21.2943 -2.0413 0.9071
12.5974 -20.8163 -2.0459 0.9069
12.7301 -20.7449 -2.0466 0.9069
12.8625 -20.6727 -2.0472 0.9069
13.1262 -20.5261 -2.0486 0.9068
13.5190 -20.3004 -2.0508 0.9067
13.6491 -20.2237 -2.0515 0.9067
13.9083 -20.0679 -2.0530 0.9066
14.0373 -19.9889 -2.0538 0.9066
14.5494 -19.6652 -2.0569 0.9065
14.6764 -19.5824 -2.0577 0.9064
14.8029 -19.4988 -2.0585 0.9064
14.9291 -19.4145 -2.0593 0.9064
15.0548 -19.3295 -2.0601 0.9063
15.5534 -18.9818 -2.0634 0.9062
15.6770 -18.8931 -2.0643 0.9062
15.8001 -18.8036 -2.0651 0.9061
15.9227 -18.7134 -2.0660 0.9061
16.1666 -18.5306 -2.0678 0.9060
16.4087 -18.3451 -2.0695 0.9059
16.5291 -18.2512 -2.0704 0.9059
16.6489 -18.1566 -2.0713 0.9058
16.8872 -17.9652 -2.0732 0.9058
17.2408 -17.6727 -2.0760 0.9056
17.3577 -17.5738 -2.0769 0.9056
17.5900 -17.3738 -2.0789 0.9055
18.0484 -16.9654 -2.0828 0.9054
18.1616 -16.8615 -2.0838 0.9053
18.7198 -16.3318 -2.0889 0.9051
18.8298 -16.2237 -2.0899 0.9050
19.2642 -15.7848 -2.0941 0.9049
19.4779 -15.5613 -2.0963 0.9048
19.5839 -15.4485 -2.0974 0.9047
19.8983 -15.1062 -2.1006 0.9046
20.0019 -14.9908 -2.1018 0.9045
20.1049 -14.8747 -2.1029 0.9045
20.5107 -14.4038 -2.1074 0.9043
20.7099 -14.1645 -2.1097 0.9042
