ply
format ascii 1.0
element vertex 1569
property float32 x
property float32 y
property float32 z
property float32 I
end_header
-2.0049 10.6821 -2.2335 0.9566
-2.0686 10.6576 -2.2310 0.9566
-2.1413 10.0334 -2.1083 0.9590
-2.2567 9.9685 -2.1004 0.9591
-2.2967 9.3372 -1.9760 0.9615
-2.3358 9.2492 -1.9604 0.9618
-2.4439 9.1964 -1.9555 0.9619
-2.5371 9.0928 -1.9400 0.9622
-2.5832 9.0415 -1.9324 0.9623
-2.6289 8.9907 -1.9250 0.9625
-2.7571 8.8183 -1.8987 0.9630
-2.9018 8.8932 -1.9224 0.9625
-3.0638 8.8308 -1.9209 0.9625
-3.1178 8.8101 -1.9205 0.9626
-3.2796 8.7478 -1.9199 0.9626
-3.3335 8.7270 -1.9198 0.9626
-3.3874 8.7063 -1.9198 0.9626
-3.4491 8.5502 -1.8947 0.9631
-3.5856 8.5811 -1.9112 0.9627
-4.0393 8.6005 -1.9526 0.9619
-4.3004 8.8697 -2.0257 0.9605
-4.6058 9.0670 -2.0899 0.9593
-4.7317 9.0365 -2.0962 0.9592
-5.4050 10.0186 -2.3394 0.9546
-5.7681 9.8031 -2.3374 0.9546
-6.0641 9.6131 -2.3357 0.9546
-6.1225 9.5740 -2.3354 0.9547
-6.2386 9.4947 -2.3347 0.9547
-5.4614 8.0921 -2.0062 0.9609
-5.4987 8.0396 -2.0016 0.9610
-5.5279 7.9761 -1.9943 0.9611
-5.5858 7.8503 -1.9800 0.9614
-5.6645 7.6563 -1.9572 0.9619
-5.7592 7.6844 -1.9734 0.9615
-5.9620 7.7532 -2.0099 0.9608
-7.0739 8.8543 -2.3290 0.9548
-7.1273 8.8088 -2.3286 0.9548
-7.1803 8.7630 -2.3281 0.9548
-7.2331 8.7169 -2.3277 0.9548
-7.2856 8.6705 -2.3273 0.9548
-7.3377 8.6237 -2.3269 0.9548
-7.4411 8.5292 -2.3261 0.9548
-7.4924 8.4815 -2.3256 0.9548
-7.5939 8.3850 -2.3248 0.9549
-7.6442 8.3363 -2.3243 0.9549
-7.7437 8.2380 -2.3234 0.9549
-7.8907 8.0883 -2.3221 0.9549
-7.9390 8.0378 -2.3217 0.9549
-7.9870 7.9870 -2.3212 0.9549
-8.0820 7.8845 -2.3203 0.9549
-8.1289 7.8328 -2.3198 0.9549
-8.1756 7.7808 -2.3194 0.9550
-8.2219 7.7285 -2.3189 0.9550
-8.2678 7.6759 -2.3184 0.9550
-8.3134 7.6231 -2.3179 0.9550
-8.3587 7.5700 -2.3175 0.9550
-8.4482 7.4629 -2.3165 0.9550
-8.4924 7.4090 -2.3160 0.9550
-8.5363 7.3548 -2.3155 0.9550
-8.6229 7.2456 -2.3146 0.9550
-8.6658 7.1906 -2.3141 0.9551
-8.7503 7.0798 -2.3131 0.9551
-8.8743 6.9118 -2.3116 0.9551
-8.9950 6.7414 -2.3100 0.9551
-9.0346 6.6842 -2.3095 0.9551
-9.0737 6.6268 -2.3090 0.9552
-9.3567 6.7451 -2.3704 0.9540
-9.7712 6.9525 -2.4644 0.9522
-9.8520 6.8280 -2.4633 0.9522
-9.8917 6.7654 -2.4627 0.9522
-9.9311 6.7026 -2.4622 0.9523
-9.9701 6.6395 -2.4616 0.9523
-10.0468 6.5127 -2.4605 0.9523
-10.0845 6.4489 -2.4599 0.9523
-10.1218 6.3849 -2.4593 0.9523
-10.1587 6.3207 -2.4587 0.9523
-10.1952 6.2563 -2.4582 0.9523
-10.2313 6.1917 -2.4576 0.9523
-10.2669 6.1268 -2.4570 0.9523
-10.3022 6.0618 -2.4564 0.9524
-10.3370 5.9965 -2.4558 0.9524
-10.3714 5.9310 -2.4552 0.9524
-10.4054 5.8654 -2.4546 0.9524
-10.4389 5.7995 -2.4541 0.9524
-10.5048 5.6672 -2.4529 0.9524
-10.5370 5.6008 -2.4523 0.9524
-10.6313 5.4004 -2.4505 0.9525
-10.6619 5.3332 -2.4498 0.9525
-10.6920 5.2658 -2.4492 0.9525
-10.7217 5.1983 -2.4486 0.9525
-10.7509 5.1306 -2.4480 0.9525
-10.7798 5.0628 -2.4474 0.9525
-10.8082 4.9948 -2.4468 0.9525
-10.8907 4.7898 -2.4450 0.9526
-10.9174 4.7212 -2.4443 0.9526
-10.9947 4.5144 -2.4425 0.9526
-11.0196 4.4452 -2.4418 0.9526
-11.1147 4.1670 -2.4393 0.9527
-11.1373 4.0973 -2.4387 0.9527
-11.1596 4.0271 -2.4381 0.9527
-11.2237 3.8164 -2.4362 0.9527
-11.2837 3.6046 -2.4343 0.9528
-11.3028 3.5339 -2.4336 0.9528
-11.3397 3.3921 -2.4323 0.9528
-11.3916 3.1785 -2.4304 0.9529
-11.4240 3.0358 -2.4291 0.9529
-11.4395 2.9643 -2.4285 0.9529
-11.4971 2.6776 -2.4259 0.9529
-11.5103 2.6057 -2.4252 0.9530
-11.5588 2.3177 -2.4226 0.9530
-11.5904 2.1012 -2.4207 0.9530
-11.6001 2.0290 -2.4200 0.9530
-11.6093 1.9566 -2.4194 0.9531
-11.6180 1.8843 -2.4187 0.9531
-11.6341 1.7396 -2.4174 0.9531
-11.6415 1.6671 -2.4168 0.9531
-11.6484 1.5946 -2.4161 0.9531
-11.6549 1.5222 -2.4154 0.9531
-11.6609 1.4497 -2.4148 0.9531
-11.6805 1.1596 -2.4122 0.9532
-11.6876 1.0144 -2.4108 0.9532
-11.6904 0.9418 -2.4102 0.9532
-11.6982 0.5067 -2.4062 0.9533
-11.6944 0.2170 -2.4036 0.9534
-11.6923 0.1446 -2.4030 0.9534
-11.2587 -0.0696 -2.4010 0.9550
-11.2364 -0.4171 -2.3978 0.9551
-11.2307 -0.4865 -2.3972 0.9551
-11.2245 -0.5558 -2.3966 0.9551
-11.2179 -0.6250 -2.3960 0.9551
-11.2035 -0.7633 -2.3947 0.9551
-11.1956 -0.8324 -2.3941 0.9551
-11.1873 -0.9013 -2.3934 0.9551
-11.1786 -0.9703 -2.3928 0.9551
-11.1695 -1.0391 -2.3922 0.9552
-11.1600 -1.1079 -2.3916 0.9552
-11.1176 -1.3822 -2.3891 0.9552
-11.0939 -1.5187 -2.3878 0.9552
-11.0552 -1.7229 -2.3860 0.9553
-11.0273 -1.8586 -2.3848 0.9553
-11.0128 -1.9263 -2.3841 0.9553
-10.9825 -2.0613 -2.3829 0.9553
-10.9667 -2.1286 -2.3823 0.9553
-10.9505 -2.1958 -2.3817 0.9553
-10.9339 -2.2629 -2.3811 0.9554
-10.8818 -2.4635 -2.3793 0.9554
-10.8636 -2.5301 -2.3787 0.9554
-10.8449 -2.5966 -2.3781 0.9554
-10.8065 -2.7291 -2.3769 0.9554
-10.7665 -2.8611 -2.3757 0.9555
-10.7459 -2.9269 -2.3751 0.9555
-10.7249 -2.9925 -2.3745 0.9555
-10.6817 -3.1234 -2.3733 0.9555
-10.6595 -3.1886 -2.3727 0.9555
-10.5669 -3.4479 -2.3703 0.9556
-10.5428 -3.5123 -2.3697 0.9556
-10.4933 -3.6406 -2.3686 0.9556
-10.4680 -3.7045 -2.3680 0.9556
-10.4424 -3.7682 -2.3674 0.9556
-10.4163 -3.8318 -2.3668 0.9556
-10.3899 -3.8952 -2.3663 0.9556
-10.3084 -4.0844 -2.3645 0.9557
-10.2804 -4.1470 -2.3640 0.9557
-10.2521 -4.2095 -2.3634 0.9557
-10.2234 -4.2718 -2.3628 0.9557
-10.1650 -4.3958 -2.3617 0.9557
-10.1352 -4.4575 -2.3611 0.9557
-10.0745 -4.5804 -2.3600 0.9557
-10.0436 -4.6415 -2.3595 0.9558
-10.0123 -4.7024 -2.3589 0.9558
-9.9807 -4.7631 -2.3584 0.9558
-9.9488 -4.8236 -2.3578 0.9558
-9.9164 -4.8839 -2.3573 0.9558
-9.8837 -4.9440 -2.3567 0.9558
-9.8507 -5.0039 -2.3562 0.9558
-9.7494 -5.1822 -2.3545 0.9558
-9.7150 -5.2412 -2.3540 0.9559
-9.6450 -5.3585 -2.3529 0.9559
-9.6095 -5.4168 -2.3524 0.9559
-9.5737 -5.4749 -2.3519 0.9559
-9.5375 -5.5328 -2.3513 0.9559
-9.5010 -5.5904 -2.3508 0.9559
-9.3894 -5.7619 -2.3492 0.9559
-9.2359 -5.9871 -2.3472 0.9560
-9.1572 -6.0982 -2.3462 0.9560
-9.1174 -6.1534 -2.3457 0.9560
-9.0772 -6.2083 -2.3452 0.9560
-8.9959 -6.3175 -2.3442 0.9560
-8.9133 -6.4255 -2.3432 0.9561
-8.7871 -6.5856 -2.3417 0.9561
-8.7444 -6.6385 -2.3412 0.9561
-8.6581 -6.7434 -2.3403 0.9561
-8.6144 -6.7954 -2.3398 0.9561
-8.5705 -6.8472 -2.3393 0.9561
-8.5263 -6.8987 -2.3389 0.9561
-8.4818 -6.9499 -2.3384 0.9561
-8.3918 -7.0514 -2.3375 0.9562
-8.3464 -7.1018 -2.3370 0.9562
-8.3007 -7.1519 -2.3365 0.9562
-8.2547 -7.2016 -2.3361 0.9562
-8.2084 -7.2512 -2.3356 0.9562
-8.0679 -7.3979 -2.3343 0.9562
-8.0204 -7.4463 -2.3339 0.9562
-7.9727 -7.4943 -2.3334 0.9562
-7.9247 -7.5421 -2.3330 0.9562
-7.8279 -7.6367 -2.3321 0.9563
-7.7791 -7.6835 -2.3317 0.9563
-7.7301 -7.7301 -2.3313 0.9563
-7.6807 -7.7763 -2.3308 0.9563
-7.4807 -7.9582 -2.3292 0.9563
-7.3791 -8.0473 -2.3283 0.9563
-7.2248 -8.1786 -2.3271 0.9563
-7.1728 -8.2217 -2.3267 0.9564
-6.8561 -8.4737 -2.3244 0.9564
-6.8024 -8.5146 -2.3241 0.9564
-6.6945 -8.5953 -2.3233 0.9564
-6.5308 -8.7139 -2.3222 0.9564
-6.4758 -8.7528 -2.3219 0.9564
-6.4205 -8.7913 -2.3215 0.9565
-6.3094 -8.8674 -2.3208 0.9565
-6.2535 -8.9049 -2.3205 0.9565
-6.1974 -8.9421 -2.3201 0.9565
-6.1411 -8.9789 -2.3198 0.9565
-6.0846 -9.0154 -2.3194 0.9565
-5.9709 -9.0874 -2.3188 0.9565
-5.9138 -9.1229 -2.3185 0.9565
-5.8564 -9.1580 -2.3181 0.9565
-5.7989 -9.1927 -2.3178 0.9565
-5.6832 -9.2612 -2.3172 0.9565
-5.6250 -9.2950 -2.3169 0.9565
-5.5667 -9.3283 -2.3166 0.9565
-5.3315 -9.4583 -2.3154 0.9566
-5.2128 -9.5211 -2.3148 0.9566
-5.1532 -9.5519 -2.3145 0.9566
-5.0334 -9.6126 -2.3139 0.9566
-4.9130 -9.6719 -2.3134 0.9566
-4.8525 -9.7010 -2.3131 0.9566
-4.7311 -9.7580 -2.3126 0.9566
-4.6701 -9.7859 -2.3123 0.9566
-4.6090 -9.8135 -2.3121 0.9566
-4.4247 -9.8942 -2.3113 0.9566
-4.3011 -9.9460 -2.3108 0.9566
-4.2391 -9.9714 -2.3106 0.9567
-4.0522 -10.0454 -2.3099 0.9567
-3.7379 -10.1611 -2.3088 0.9567
-3.6747 -10.1831 -2.3086 0.9567
-3.6113 -10.2047 -2.3084 0.9567
-3.4842 -10.2469 -2.3080 0.9567
-3.3567 -10.2875 -2.3076 0.9567
-3.2927 -10.3072 -2.3075 0.9567
-3.2287 -10.3266 -2.3073 0.9567
-3.1645 -10.3455 -2.3071 0.9567
-3.1002 -10.3641 -2.3069 0.9567
-2.9714 -10.4002 -2.3066 0.9567
-2.9068 -10.4176 -2.3064 0.9567
-2.7773 -10.4513 -2.3061 0.9567
-2.7125 -10.4675 -2.3059 0.9567
-2.6475 -10.4834 -2.3058 0.9567
-2.4521 -10.5288 -2.3054 0.9567
-2.3214 -10.5571 -2.3051 0.9568
-2.0592 -10.6090 -2.3046 0.9568
-1.9276 -10.6326 -2.3044 0.9568
-1.7958 -10.6546 -2.3042 0.9568
-1.7298 -10.6651 -2.3041 0.9568
-1.5976 -10.6848 -2.3039 0.9568
-1.5314 -10.6940 -2.3038 0.9568
-1.3326 -10.7194 -2.3035 0.9568
-1.2663 -10.7271 -2.3034 0.9568
-1.1999 -10.7344 -2.3034 0.9568
-1.1334 -10.7413 -2.3033 0.9568
-1.0004 -10.7539 -2.3032 0.9568
-0.9339 -10.7596 -2.3031 0.9568
-0.8673 -10.7649 -2.3031 0.9568
-0.6007 -10.7822 -2.3029 0.9568
-0.3339 -10.7931 -2.3028 0.9568
-0.2671 -10.7949 -2.3027 0.9568
-0.1335 -10.7972 -2.3027 0.9568
-0.0000 -10.7979 -2.3027 0.9568
0.0668 -10.7977 -2.3027 0.9568
0.1336 -10.7971 -2.3027 0.9568
0.2003 -10.7961 -2.3027 0.9568
0.2671 -10.7946 -2.3027 0.9568
0.4006 -10.7906 -2.3027 0.9568
0.6007 -10.7817 -2.3028 0.9568
0.6674 -10.7778 -2.3028 0.9568
0.7340 -10.7737 -2.3028 0.9568
0.9338 -10.7587 -2.3029 0.9568
1.0003 -10.7529 -2.3030 0.9568
1.0669 -10.7468 -2.3030 0.9568
1.1998 -10.7333 -2.3031 0.9568
1.2661 -10.7259 -2.3032 0.9568
1.3325 -10.7182 -2.3033 0.9568
1.4650 -10.7015 -2.3034 0.9568
1.5312 -10.6926 -2.3035 0.9568
1.5974 -10.6833 -2.3036 0.9568
1.6635 -10.6736 -2.3036 0.9568
1.9273 -10.6308 -2.3040 0.9568
1.9931 -10.6192 -2.3041 0.9568
2.1900 -10.5818 -2.3044 0.9568
2.2555 -10.5686 -2.3045 0.9568
2.4516 -10.5266 -2.3049 0.9568
2.5819 -10.4967 -2.3051 0.9568
2.6469 -10.4811 -2.3053 0.9568
2.9061 -10.4150 -2.3058 0.9567
3.0351 -10.3796 -2.3062 0.9567
3.1636 -10.3427 -2.3065 0.9567
3.2278 -10.3237 -2.3066 0.9567
3.4832 -10.2438 -2.3073 0.9567
3.5467 -10.2229 -2.3075 0.9567
3.6735 -10.1799 -2.3079 0.9567
3.7998 -10.1354 -2.3083 0.9567
3.8627 -10.1126 -2.3085 0.9567
4.1132 -10.0176 -2.3093 0.9567
4.2375 -9.9678 -2.3098 0.9567
4.3614 -9.9166 -2.3102 0.9567
4.4230 -9.8904 -2.3104 0.9567
4.4846 -9.8639 -2.3107 0.9567
4.5460 -9.8370 -2.3109 0.9566
4.7899 -9.7256 -2.3119 0.9566
4.8505 -9.6969 -2.3122 0.9566
5.0912 -9.5783 -2.3132 0.9566
5.2105 -9.5168 -2.3137 0.9566
5.4469 -9.3896 -2.3149 0.9566
5.5056 -9.3569 -2.3152 0.9566
5.6804 -9.2567 -2.3161 0.9566
5.7383 -9.2226 -2.3164 0.9565
5.8535 -9.1534 -2.3170 0.9565
5.9108 -9.1182 -2.3173 0.9565
5.9679 -9.0828 -2.3176 0.9565
6.0247 -9.0469 -2.3179 0.9565
6.0814 -9.0107 -2.3182 0.9565
6.1379 -8.9742 -2.3186 0.9565
6.2502 -8.9001 -2.3192 0.9565
6.4170 -8.7865 -2.3202 0.9565
6.5271 -8.7090 -2.3209 0.9565
6.7447 -8.5501 -2.3223 0.9564
6.8521 -8.4687 -2.3231 0.9564
6.9054 -8.4275 -2.3234 0.9564
6.9585 -8.3860 -2.3238 0.9564
7.0113 -8.3441 -2.3242 0.9564
7.2719 -8.1301 -2.3261 0.9564
7.6756 -7.7712 -2.3293 0.9563
7.8227 -7.6315 -2.3305 0.9563
7.8712 -7.5844 -2.3310 0.9563
7.9673 -7.4892 -2.3318 0.9563
8.0149 -7.4412 -2.3323 0.9563
8.0623 -7.3928 -2.3327 0.9562
8.1094 -7.3442 -2.3331 0.9562
8.1561 -7.2953 -2.3336 0.9562
8.2027 -7.2461 -2.3340 0.9562
8.2489 -7.1966 -2.3344 0.9562
8.2948 -7.1468 -2.3349 0.9562
8.3405 -7.0967 -2.3353 0.9562
8.3858 -7.0464 -2.3358 0.9562
8.4309 -6.9957 -2.3362 0.9562
8.5201 -6.8936 -2.3372 0.9562
8.6949 -6.6861 -2.3390 0.9561
8.7378 -6.6335 -2.3395 0.9561
8.7805 -6.5807 -2.3400 0.9561
8.9065 -6.4206 -2.3414 0.9561
8.9479 -6.3667 -2.3419 0.9561
9.0297 -6.2581 -2.3429 0.9561
9.0701 -6.2035 -2.3434 0.9561
9.1500 -6.0934 -2.3443 0.9560
9.1895 -6.0380 -2.3448 0.9560
9.4565 -5.6432 -2.3484 0.9560
9.5297 -5.5282 -2.3494 0.9559
9.5659 -5.4704 -2.3499 0.9559
9.6016 -5.4123 -2.3505 0.9559
9.6371 -5.3540 -2.3510 0.9559
9.6722 -5.2955 -2.3515 0.9559
9.7413 -5.1778 -2.3526 0.9559
9.8424 -4.9996 -2.3542 0.9559
9.9080 -4.8797 -2.3553 0.9558
9.9403 -4.8195 -2.3558 0.9558
9.9722 -4.7590 -2.3563 0.9558
10.0350 -4.6375 -2.3574 0.9558
10.0658 -4.5764 -2.3580 0.9558
10.1264 -4.4536 -2.3591 0.9558
10.1855 -4.3301 -2.3602 0.9557
10.2145 -4.2680 -2.3608 0.9557
10.2993 -4.0807 -2.3624 0.9557
10.3268 -4.0179 -2.3630 0.9557
10.3807 -3.8918 -2.3641 0.9557
10.4070 -3.8284 -2.3647 0.9557
10.4330 -3.7649 -2.3653 0.9556
10.4587 -3.7012 -2.3659 0.9556
10.5333 -3.5091 -2.3676 0.9556
10.6272 -3.2507 -2.3699 0.9556
10.6937 -3.0552 -2.3717 0.9555
10.7360 -2.9242 -2.3729 0.9555
10.7566 -2.8585 -2.3735 0.9555
10.7965 -2.7266 -2.3747 0.9555
10.8159 -2.6604 -2.3753 0.9555
10.8894 -2.3945 -2.3777 0.9554
10.9067 -2.3277 -2.3783 0.9554
10.9564 -2.1266 -2.3801 0.9554
10.9721 -2.0593 -2.3807 0.9554
10.9875 -1.9920 -2.3813 0.9554
11.0024 -1.9244 -2.3819 0.9553
11.0169 -1.8569 -2.3825 0.9553
11.0310 -1.7891 -2.3831 0.9553
11.0447 -1.7213 -2.3837 0.9553
11.0833 -1.5173 -2.3856 0.9553
11.0954 -1.4491 -2.3862 0.9553
11.1070 -1.3808 -2.3868 0.9553
11.1927 -0.7626 -2.3924 0.9552
11.2002 -0.6935 -2.3930 0.9551
11.2072 -0.6244 -2.3937 0.9551
11.2137 -0.5553 -2.3943 0.9551
11.2256 -0.4167 -2.3955 0.9551
11.2309 -0.3474 -2.3962 0.9551
11.2403 -0.2086 -2.3974 0.9551
11.2443 -0.1391 -2.3980 0.9550
11.2610 0.4180 -2.4031 0.9550
11.2531 0.9066 -2.4075 0.9549
11.2502 0.9765 -2.4081 0.9549
11.2469 1.0463 -2.4088 0.9549
11.2390 1.1859 -2.4100 0.9548
11.2294 1.3256 -2.4113 0.9548
11.2239 1.3953 -2.4119 0.9548
11.2180 1.4651 -2.4126 0.9548
11.2117 1.5348 -2.4132 0.9548
11.2049 1.6046 -2.4138 0.9548
11.1900 1.7440 -2.4151 0.9547
11.1820 1.8136 -2.4157 0.9547
11.1645 1.9528 -2.4170 0.9547
11.1551 2.0223 -2.4176 0.9547
11.1453 2.0918 -2.4183 0.9547
11.1351 2.1612 -2.4189 0.9547
11.1244 2.2307 -2.4195 0.9547
11.1017 2.3693 -2.4208 0.9546
11.0773 2.5077 -2.4220 0.9546
11.0512 2.6459 -2.4233 0.9546
11.0233 2.7838 -2.4245 0.9546
11.0087 2.8527 -2.4252 0.9546
10.9937 2.9215 -2.4258 0.9545
10.9782 2.9902 -2.4264 0.9545
10.9623 3.0587 -2.4270 0.9545
10.9460 3.1273 -2.4277 0.9545
10.8764 3.4006 -2.4301 0.9545
10.8579 3.4687 -2.4308 0.9545
10.8197 3.6045 -2.4320 0.9544
10.7797 3.7400 -2.4332 0.9544
10.7591 3.8075 -2.4338 0.9544
10.7381 3.8749 -2.4344 0.9544
10.6947 4.0095 -2.4357 0.9544
10.6496 4.1435 -2.4369 0.9543
10.6028 4.2770 -2.4381 0.9543
10.5543 4.4100 -2.4393 0.9543
10.5295 4.4763 -2.4399 0.9543
10.4785 4.6085 -2.4411 0.9543
10.4523 4.6743 -2.4417 0.9543
9.4515 4.2971 -2.2141 0.9584
6.8578 3.2208 -1.6157 0.9695
6.8401 3.2643 -1.6163 0.9695
6.6807 3.6577 -1.6242 0.9693
6.6272 3.7899 -1.6280 0.9693
6.6092 3.8340 -1.6294 0.9692
6.5913 3.8783 -1.6309 0.9692
6.5553 3.9671 -1.6340 0.9691
6.5373 4.0116 -1.6356 0.9691
6.5192 4.0562 -1.6374 0.9691
6.4829 4.1457 -1.6410 0.9690
6.4647 4.1907 -1.6429 0.9690
6.4465 4.2357 -1.6449 0.9689
6.4098 4.3261 -1.6491 0.9689
6.3174 4.5541 -1.6608 0.9687
6.2613 4.6926 -1.6686 0.9685
6.2235 4.7857 -1.6742 0.9684
6.1473 4.9738 -1.6863 0.9682
6.1087 5.0689 -1.6928 0.9681
6.0893 5.1167 -1.6961 0.9680
6.0503 5.2129 -1.7031 0.9679
6.0307 5.2613 -1.7067 0.9678
6.0110 5.3100 -1.7104 0.9677
5.9312 5.5066 -1.7259 0.9674
5.9111 5.5564 -1.7300 0.9674
5.8500 5.7071 -1.7428 0.9671
5.8294 5.7578 -1.7473 0.9670
5.7671 5.9115 -1.7612 0.9668
5.7461 5.9633 -1.7660 0.9667
5.7249 6.0154 -1.7709 0.9666
7.3523 8.0181 -2.3199 0.9565
7.2553 8.1114 -2.3208 0.9565
7.0575 8.2944 -2.3224 0.9564
6.8036 8.5160 -2.3245 0.9564
6.7001 8.6025 -2.3253 0.9564
6.2750 8.9355 -2.3284 0.9563
5.9444 9.1701 -2.3305 0.9563
5.8885 9.2081 -2.3308 0.9563
5.8324 9.2459 -2.3312 0.9563
5.7194 9.3202 -2.3319 0.9563
5.6054 9.3932 -2.3327 0.9562
5.5480 9.4291 -2.3330 0.9562
5.4904 9.4646 -2.3334 0.9562
5.4325 9.4997 -2.3337 0.9562
5.3161 9.5688 -2.3343 0.9562
5.2575 9.6028 -2.3346 0.9562
5.1397 9.6696 -2.3353 0.9562
4.7811 9.8612 -2.3370 0.9562
4.7206 9.8917 -2.3373 0.9562
4.6599 9.9220 -2.3376 0.9562
4.5379 9.9812 -2.3382 0.9561
4.4766 10.0102 -2.3384 0.9561
4.4151 10.0388 -2.3387 0.9561
4.3535 10.0671 -2.3390 0.9561
4.2296 10.1224 -2.3395 0.9561
4.0423 10.2024 -2.3402 0.9561
3.9796 10.2283 -2.3405 0.9561
3.7268 10.3277 -2.3414 0.9561
3.6633 10.3515 -2.3416 0.9561
3.4715 10.4206 -2.3423 0.9561
3.4073 10.4428 -2.3425 0.9561
3.3430 10.4646 -2.3427 0.9561
3.1491 10.5274 -2.3433 0.9561
3.0191 10.5673 -2.3437 0.9560
2.9539 10.5866 -2.3438 0.9560
2.5141 9.7022 -2.1373 0.9598
2.4433 9.6750 -2.1280 0.9600
2.3731 9.6480 -2.1188 0.9602
2.3180 9.6815 -2.1229 0.9601
2.2787 9.7842 -2.1423 0.9597
2.2388 9.8893 -2.1623 0.9594
2.1981 9.9963 -2.1827 0.9590
2.0295 10.1210 -2.2013 0.9587
1.8896 10.0680 -2.1845 0.9590
1.8205 10.0417 -2.1763 0.9591
1.6837 9.9899 -2.1604 0.9594
1.5490 9.9388 -2.1450 0.9597
1.4823 9.9135 -2.1376 0.9598
1.3503 9.8634 -2.1230 0.9601
1.0794 9.1438 -1.9635 0.9630
0.9599 9.0967 -1.9506 0.9633
0.9008 9.0737 -1.9445 0.9634
0.8420 9.0512 -1.9385 0.9635
0.7837 9.0288 -1.9326 0.9636
0.7264 9.0155 -1.9288 0.9637
0.5817 9.3941 -2.0072 0.9622
0.5308 9.5272 -2.0348 0.9617
0.4785 9.6636 -2.0633 0.9612
0.1784 9.6130 -2.0503 0.9614
0.1186 9.5897 -2.0452 0.9615
0.0592 9.5666 -2.0401 0.9616
-0.2339 9.4526 -2.0164 0.9621
-0.3492 9.4078 -2.0076 0.9622
-0.4066 9.3855 -2.0033 0.9623
-0.4758 8.5401 -1.8240 0.9656
-0.5791 8.4995 -1.8167 0.9658
-0.6304 8.4793 -1.8132 0.9658
-0.6819 8.4632 -1.8106 0.9659
-0.8945 9.0108 -1.9310 0.9636
-1.2270 9.8694 -2.1209 0.9601
-1.3206 10.1111 -2.1745 0.9592
-1.6193 10.8297 -2.3351 0.9562
-1.6839 10.8048 -2.3320 0.9563
-1.8127 10.7553 -2.3259 0.9564
-1.9409 10.7060 -2.3203 0.9565
-2.0685 10.6569 -2.3150 0.9566
-2.1955 10.6081 -2.3101 0.9567
-2.1206 9.9363 -2.1667 0.9593
-2.1594 9.8202 -2.1442 0.9597
-2.2200 9.8061 -2.1441 0.9597
-2.2804 9.7916 -2.1440 0.9597
-2.3965 9.2483 -2.0374 0.9617
-2.4437 9.1959 -2.0291 0.9618
-2.4905 9.1438 -2.0210 0.9620
-2.5370 9.0922 -2.0130 0.9621
-2.6742 8.9398 -1.9899 0.9626
-2.7062 8.8472 -1.9730 0.9629
-2.7570 8.8178 -1.9702 0.9629
-2.8475 8.9135 -1.9954 0.9625
-2.9016 8.8926 -1.9948 0.9625
-3.0096 8.8510 -1.9936 0.9625
-3.2254 8.7680 -1.9923 0.9625
-3.2794 8.7472 -1.9921 0.9625
-3.3333 8.7264 -1.9921 0.9625
-3.3872 8.7057 -1.9921 0.9625
-3.4488 8.5496 -1.9660 0.9630
-3.5853 8.5804 -1.9831 0.9627
-3.9166 8.6146 -2.0180 0.9620
-4.2999 8.8687 -2.1018 0.9605
-4.3767 8.8866 -2.1125 0.9603
-4.4824 8.9609 -2.1367 0.9598
-4.5371 8.9319 -2.1364 0.9599
-4.5917 8.9026 -2.1361 0.9599
-4.6897 8.9561 -2.1559 0.9595
-5.2008 9.6402 -2.3359 0.9562
-5.2596 9.6066 -2.3356 0.9562
-5.3183 9.5727 -2.3353 0.9562
-5.4349 9.5037 -2.3347 0.9562
-5.5505 9.4332 -2.3340 0.9562
-5.6080 9.3974 -2.3337 0.9562
-5.7222 9.3248 -2.3331 0.9562
-5.8355 9.2507 -2.3324 0.9563
-5.3929 8.0981 -2.0748 0.9610
-5.4229 8.0349 -2.0672 0.9611
-5.5445 7.7923 -2.0394 0.9616
-5.8903 7.6600 -2.0606 0.9612
-6.0026 7.7070 -2.0832 0.9608
-6.8593 8.4777 -2.3255 0.9564
-6.9613 8.3894 -2.3247 0.9564
-7.0118 8.3447 -2.3243 0.9564
-7.3573 8.0235 -2.3215 0.9565
-7.4532 7.9290 -2.3206 0.9565
-7.5007 7.8813 -2.3202 0.9565
-7.5479 7.8333 -2.3198 0.9565
-7.5948 7.7850 -2.3193 0.9565
-7.6414 7.7365 -2.3189 0.9565
-7.6876 7.6876 -2.3185 0.9565
-7.7792 7.5891 -2.3176 0.9565
-7.8244 7.5394 -2.3171 0.9565
-7.8694 7.4894 -2.3167 0.9565
-7.9140 7.4391 -2.3162 0.9565
-7.9583 7.3886 -2.3158 0.9566
-8.1748 7.1319 -2.3135 0.9566
-8.3006 6.9748 -2.3121 0.9566
-8.3419 6.9219 -2.3116 0.9566
-8.4636 6.7617 -2.3102 0.9567
-8.6210 6.5448 -2.3082 0.9567
-8.6595 6.4900 -2.3077 0.9567
-8.9085 6.5061 -2.3524 0.9559
-9.4070 6.6934 -2.4620 0.9539
-9.4461 6.6336 -2.4615 0.9539
-9.5989 6.3923 -2.4593 0.9539
-9.6361 6.3314 -2.4588 0.9539
-9.7093 6.2089 -2.4577 0.9540
-9.9194 5.8365 -2.4543 0.9540
-9.9530 5.7738 -2.4538 0.9540
-9.9862 5.7107 -2.4532 0.9540
-10.0190 5.6476 -2.4526 0.9541
-10.0514 5.5842 -2.4521 0.9541
-10.0834 5.5207 -2.4515 0.9541
-10.1461 5.3930 -2.4503 0.9541
-10.2372 5.2001 -2.4486 0.9541
-10.2667 5.1355 -2.4480 0.9541
-10.3245 5.0057 -2.4469 0.9542
-10.3528 4.9406 -2.4463 0.9542
-10.4081 4.8099 -2.4451 0.9542
-10.4617 4.6785 -2.4439 0.9542
-10.5390 4.4804 -2.4421 0.9542
-10.5639 4.4140 -2.4415 0.9543
-10.6125 4.2809 -2.4403 0.9543
-10.6593 4.1473 -2.4391 0.9543
-10.7045 4.0131 -2.4379 0.9543
-10.7480 3.8785 -2.4367 0.9543
-10.7690 3.8110 -2.4361 0.9544
-10.8099 3.6757 -2.4349 0.9544
-10.8491 3.5399 -2.4336 0.9544
-10.8866 3.4037 -2.4324 0.9544
-10.9223 3.2672 -2.4312 0.9544
-10.9395 3.1988 -2.4305 0.9545
-10.9563 3.1303 -2.4299 0.9545
-10.9726 3.0617 -2.4293 0.9545
-11.0191 2.8554 -2.4274 0.9545
-11.0337 2.7864 -2.4268 0.9545
-11.0750 2.5793 -2.4250 0.9546
-11.1003 2.4409 -2.4237 0.9546
-11.1350 2.2328 -2.4218 0.9546
-11.1457 2.1634 -2.4212 0.9546
-11.1560 2.0938 -2.4206 0.9546
-11.1658 2.0242 -2.4199 0.9546
-11.1927 1.8153 -2.4180 0.9547
-11.2008 1.7456 -2.4174 0.9547
-11.2085 1.6759 -2.4168 0.9547
-11.2157 1.6061 -2.4162 0.9547
-11.2288 1.4665 -2.4149 0.9547
-11.2347 1.3967 -2.4143 0.9548
-11.2402 1.3268 -2.4136 0.9548
-11.2452 1.2570 -2.4130 0.9548
-11.2499 1.1871 -2.4124 0.9548
-11.2540 1.1172 -2.4117 0.9548
-11.2578 1.0473 -2.4111 0.9548
-11.2639 0.9075 -2.4098 0.9548
-11.2718 0.5581 -2.4067 0.9549
-11.2721 0.4882 -2.4060 0.9549
-11.2703 0.2788 -2.4041 0.9549
-11.2688 0.2090 -2.4035 0.9549
-11.2670 0.1393 -2.4029 0.9550
-11.2646 0.0697 -2.4022 0.9550
-10.8593 -0.1344 -2.4004 0.9565
-10.8466 -0.3355 -2.3985 0.9565
-10.8416 -0.4025 -2.3979 0.9565
-10.8362 -0.4694 -2.3973 0.9565
-10.8303 -0.5362 -2.3967 0.9566
-10.8241 -0.6031 -2.3961 0.9566
-10.8174 -0.6698 -2.3955 0.9566
-10.8103 -0.7365 -2.3949 0.9566
-10.8028 -0.8032 -2.3943 0.9566
-10.7949 -0.8697 -2.3937 0.9566
-10.7866 -0.9363 -2.3931 0.9566
-10.7779 -1.0027 -2.3925 0.9566
-10.7688 -1.0691 -2.3919 0.9566
-10.7494 -1.2015 -2.3907 0.9567
-10.7390 -1.2677 -2.3901 0.9567
-10.7056 -1.4656 -2.3883 0.9567
-10.6937 -1.5314 -2.3877 0.9567
-10.6554 -1.7282 -2.3859 0.9567
-10.6280 -1.8590 -2.3847 0.9568
-10.5838 -2.0543 -2.3829 0.9568
-10.5682 -2.1191 -2.3824 0.9568
-10.5193 -2.3131 -2.3806 0.9568
-10.5022 -2.3776 -2.3800 0.9568
-10.4848 -2.4419 -2.3794 0.9569
-10.4669 -2.5061 -2.3788 0.9569
-10.4486 -2.5701 -2.3783 0.9569
-10.4300 -2.6340 -2.3777 0.9569
-10.3916 -2.7615 -2.3765 0.9569
-10.3516 -2.8884 -2.3754 0.9569
-10.2888 -3.0777 -2.3736 0.9570
-10.2671 -3.1405 -2.3731 0.9570
-10.2225 -3.2657 -2.3719 0.9570
-10.1997 -3.3281 -2.3714 0.9570
-10.1765 -3.3903 -2.3708 0.9570
-10.1529 -3.4523 -2.3702 0.9570
-10.0800 -3.6375 -2.3686 0.9571
-10.0295 -3.7601 -2.3674 0.9571
-9.9775 -3.8820 -2.3663 0.9571
-9.9510 -3.9428 -2.3658 0.9571
-9.9241 -4.0033 -2.3652 0.9571
-9.8969 -4.0636 -2.3647 0.9571
-9.8130 -4.2436 -2.3630 0.9571
-9.7843 -4.3032 -2.3625 0.9572
-9.7553 -4.3626 -2.3620 0.9572
-9.6961 -4.4809 -2.3609 0.9572
-9.6661 -4.5397 -2.3603 0.9572
-9.6356 -4.5984 -2.3598 0.9572
-9.6048 -4.6569 -2.3593 0.9572
-9.5422 -4.7731 -2.3582 0.9572
-9.4457 -4.9460 -2.3566 0.9573
-9.4128 -5.0032 -2.3561 0.9573
-9.3797 -5.0603 -2.3556 0.9573
-9.3123 -5.1736 -2.3546 0.9573
-9.2781 -5.2300 -2.3541 0.9573
-9.1735 -5.3977 -2.3525 0.9573
-9.1021 -5.5083 -2.3515 0.9574
-8.9926 -5.6726 -2.3500 0.9574
-8.9555 -5.7269 -2.3495 0.9574
-8.8802 -5.8348 -2.3485 0.9574
-8.8421 -5.8884 -2.3480 0.9574
-8.7650 -5.9948 -2.3471 0.9574
-8.7260 -6.0477 -2.3466 0.9574
-8.6866 -6.1002 -2.3461 0.9574
-8.5667 -6.2566 -2.3447 0.9575
-8.3188 -6.5622 -2.3419 0.9575
-8.2765 -6.6122 -2.3414 0.9575
-8.1909 -6.7115 -2.3405 0.9575
-8.0603 -6.8584 -2.3392 0.9576
-8.0162 -6.9068 -2.3387 0.9576
-7.9719 -6.9549 -2.3383 0.9576
-7.9272 -7.0028 -2.3379 0.9576
-7.8823 -7.0503 -2.3374 0.9576
-7.8371 -7.0976 -2.3370 0.9576
-7.7916 -7.1446 -2.3366 0.9576
-7.7459 -7.1914 -2.3361 0.9576
-7.6536 -7.2840 -2.3353 0.9576
-7.6070 -7.3299 -2.3349 0.9576
-7.5131 -7.4207 -2.3340 0.9577
-7.4657 -7.4657 -2.3336 0.9577
-7.4181 -7.5104 -2.3332 0.9577
-7.3221 -7.5990 -2.3324 0.9577
-7.2737 -7.6428 -2.3320 0.9577
-7.1762 -7.7295 -2.3312 0.9577
-7.0777 -7.8151 -2.3304 0.9577
-7.0280 -7.8574 -2.3300 0.9577
-6.9280 -7.9411 -2.3293 0.9577
-6.8776 -7.9825 -2.3289 0.9578
-6.7762 -8.0643 -2.3281 0.9578
-6.7251 -8.1047 -2.3278 0.9578
-6.5705 -8.2243 -2.3267 0.9578
-6.5185 -8.2635 -2.3263 0.9578
-6.4663 -8.3023 -2.3259 0.9578
-6.3612 -8.3791 -2.3252 0.9578
-6.3083 -8.4170 -2.3249 0.9578
-6.2019 -8.4919 -2.3242 0.9578
-6.1483 -8.5289 -2.3239 0.9578
-6.0946 -8.5654 -2.3235 0.9578
-5.9865 -8.6377 -2.3229 0.9579
-5.8775 -8.7087 -2.3222 0.9579
-5.7678 -8.7782 -2.3216 0.9579
-5.6572 -8.8465 -2.3209 0.9579
-5.6017 -8.8802 -2.3206 0.9579
-5.5459 -8.9134 -2.3203 0.9579
-5.4900 -8.9464 -2.3200 0.9579
-5.4338 -8.9790 -2.3197 0.9579
-5.3210 -9.0432 -2.3191 0.9579
-5.2643 -9.0748 -2.3188 0.9579
-5.1504 -9.1370 -2.3182 0.9579
-4.9782 -9.2276 -2.3174 0.9580
-4.9205 -9.2571 -2.3171 0.9580
-4.8625 -9.2863 -2.3169 0.9580
-4.8045 -9.3151 -2.3166 0.9580
-4.6293 -9.3995 -2.3158 0.9580
-4.5705 -9.4269 -2.3156 0.9580
-4.4526 -9.4806 -2.3151 0.9580
-4.3935 -9.5070 -2.3148 0.9580
-4.3341 -9.5330 -2.3146 0.9580
-4.2747 -9.5586 -2.3143 0.9580
-4.2150 -9.5839 -2.3141 0.9580
-4.1553 -9.6088 -2.3139 0.9580
-4.0954 -9.6334 -2.3136 0.9580
-3.9751 -9.6814 -2.3132 0.9580
-3.9148 -9.7049 -2.3130 0.9580
-3.7331 -9.7731 -2.3123 0.9580
-3.6722 -9.7952 -2.3121 0.9581
-3.5502 -9.8381 -2.3117 0.9581
-3.4890 -9.8591 -2.3115 0.9581
-3.4277 -9.8796 -2.3113 0.9581
-3.3047 -9.9197 -2.3110 0.9581
-3.2430 -9.9392 -2.3108 0.9581
-3.0574 -9.9953 -2.3103 0.9581
-2.8708 -10.0482 -2.3098 0.9581
-2.7459 -10.0815 -2.3094 0.9581
-2.5579 -10.1287 -2.3090 0.9581
-2.3061 -10.1865 -2.3085 0.9581
-2.2429 -10.2000 -2.3083 0.9581
-2.1797 -10.2131 -2.3082 0.9581
-2.0530 -10.2382 -2.3080 0.9581
-1.7988 -10.2839 -2.3075 0.9581
-1.4797 -10.3325 -2.3070 0.9581
-1.3516 -10.3493 -2.3069 0.9581
-1.2235 -10.3645 -2.3067 0.9581
-1.1593 -10.3715 -2.3067 0.9581
-1.0951 -10.3782 -2.3066 0.9582
-1.0309 -10.3845 -2.3065 0.9582
-0.9666 -10.3904 -2.3065 0.9582
-0.9023 -10.3959 -2.3064 0.9582
-0.7737 -10.4058 -2.3063 0.9582
-0.6449 -10.4142 -2.3062 0.9582
-0.5160 -10.4211 -2.3061 0.9582
-0.4515 -10.4239 -2.3061 0.9582
-0.2581 -10.4301 -2.3060 0.9582
-0.1290 -10.4324 -2.3060 0.9582
-0.0645 -10.4329 -2.3060 0.9582
0.0000 -10.4331 -2.3060 0.9582
0.1290 -10.4323 -2.3060 0.9582
0.2581 -10.4299 -2.3060 0.9582
0.3226 -10.4282 -2.3060 0.9582
0.3870 -10.4260 -2.3060 0.9582
0.4515 -10.4235 -2.3060 0.9582
0.5804 -10.4173 -2.3061 0.9582
0.7736 -10.4051 -2.3062 0.9582
0.8379 -10.4004 -2.3062 0.9582
0.9023 -10.3951 -2.3062 0.9582
1.0308 -10.3836 -2.3063 0.9582
1.1592 -10.3705 -2.3064 0.9582
1.2874 -10.3559 -2.3065 0.9582
1.3515 -10.3480 -2.3066 0.9581
1.4155 -10.3398 -2.3067 0.9581
1.4795 -10.3311 -2.3068 0.9581
1.5434 -10.3222 -2.3068 0.9581
1.6072 -10.3128 -2.3069 0.9581
1.7348 -10.2929 -2.3071 0.9581
1.8621 -10.2714 -2.3073 0.9581
2.0526 -10.2364 -2.3076 0.9581
2.1160 -10.2240 -2.3077 0.9581
2.2425 -10.1980 -2.3079 0.9581
2.3687 -10.1706 -2.3081 0.9581
2.4317 -10.1563 -2.3082 0.9581
2.4946 -10.1416 -2.3084 0.9581
2.6827 -10.0953 -2.3088 0.9581
2.7453 -10.0791 -2.3089 0.9581
2.8077 -10.0626 -2.3090 0.9581
2.9324 -10.0284 -2.3093 0.9581
3.1804 -9.9555 -2.3100 0.9581
3.2421 -9.9364 -2.3101 0.9581
3.3653 -9.8970 -2.3105 0.9581
3.5491 -9.8352 -2.3110 0.9581
3.7926 -9.7476 -2.3118 0.9581
3.8531 -9.7248 -2.3120 0.9581
3.9135 -9.7016 -2.3122 0.9581
3.9738 -9.6781 -2.3124 0.9580
4.0339 -9.6542 -2.3126 0.9580
4.0939 -9.6300 -2.3128 0.9580
4.2731 -9.5551 -2.3135 0.9580
4.3918 -9.5034 -2.3139 0.9580
4.4509 -9.4770 -2.3142 0.9580
4.7443 -9.3398 -2.3154 0.9580
4.8025 -9.3113 -2.3156 0.9580
4.9184 -9.2532 -2.3162 0.9580
5.0336 -9.1937 -2.3167 0.9580
5.0909 -9.1635 -2.3170 0.9580
5.1481 -9.1329 -2.3172 0.9580
5.2051 -9.1020 -2.3175 0.9580
5.2619 -9.0707 -2.3178 0.9580
5.3186 -9.0391 -2.3181 0.9579
5.3750 -9.0071 -2.3183 0.9579
5.4313 -8.9748 -2.3186 0.9579
5.6545 -8.8422 -2.3198 0.9579
5.7649 -8.7739 -2.3204 0.9579
5.8198 -8.7392 -2.3207 0.9579
5.9834 -8.6333 -2.3217 0.9579
6.0914 -8.5610 -2.3223 0.9579
6.3049 -8.4125 -2.3236 0.9578
6.3577 -8.3745 -2.3240 0.9578
6.4103 -8.3363 -2.3243 0.9578
6.4627 -8.2977 -2.3247 0.9578
6.5149 -8.2588 -2.3250 0.9578
6.6185 -8.1801 -2.3257 0.9578
6.6700 -8.1403 -2.3261 0.9578
6.7212 -8.1001 -2.3264 0.9578
6.7723 -8.0596 -2.3268 0.9578
6.8736 -7.9778 -2.3275 0.9578
6.9239 -7.9364 -2.3279 0.9578
6.9739 -7.8946 -2.3283 0.9578
7.0734 -7.8103 -2.3290 0.9578
7.1718 -7.7248 -2.3298 0.9577
7.2206 -7.6815 -2.3302 0.9577
7.2692 -7.6380 -2.3305 0.9577
7.3175 -7.5942 -2.3309 0.9577
7.4134 -7.5057 -2.3317 0.9577
7.4609 -7.4610 -2.3321 0.9577
7.5082 -7.4160 -2.3325 0.9577
7.5553 -7.3707 -2.3329 0.9577
7.6020 -7.3251 -2.3333 0.9577
7.6485 -7.2792 -2.3338 0.9577
7.7407 -7.1866 -2.3346 0.9577
7.7864 -7.1399 -2.3350 0.9576
7.8318 -7.0929 -2.3354 0.9576
7.8770 -7.0456 -2.3358 0.9576
7.9218 -6.9980 -2.3363 0.9576
7.9664 -6.9502 -2.3367 0.9576
8.0985 -6.8049 -2.3380 0.9576
8.2280 -6.6573 -2.3393 0.9576
8.2706 -6.6075 -2.3398 0.9576
8.3549 -6.5072 -2.3407 0.9575
8.4380 -6.4059 -2.3416 0.9575
8.4791 -6.3549 -2.3420 0.9575
8.6007 -6.2001 -2.3434 0.9575
8.6406 -6.1480 -2.3439 0.9575
8.7194 -6.0431 -2.3448 0.9575
8.7584 -5.9903 -2.3453 0.9575
8.8354 -5.8839 -2.3463 0.9574
8.8735 -5.8304 -2.3467 0.9574
8.9857 -5.6682 -2.3482 0.9574
9.0950 -5.5040 -2.3497 0.9574
9.1308 -5.4488 -2.3502 0.9574
9.2362 -5.2819 -2.3517 0.9573
9.2707 -5.2258 -2.3522 0.9573
9.3721 -5.0562 -2.3537 0.9573
9.4705 -4.8846 -2.3553 0.9573
9.5026 -4.8271 -2.3558 0.9573
9.5658 -4.7112 -2.3568 0.9573
9.6881 -4.4772 -2.3589 0.9572
9.7761 -4.2996 -2.3605 0.9572
9.8047 -4.2400 -2.3611 0.9572
9.8330 -4.1803 -2.3616 0.9572
9.8609 -4.1203 -2.3621 0.9572
9.9157 -3.9999 -2.3632 0.9571
9.9690 -3.8787 -2.3643 0.9571
10.0209 -3.7569 -2.3654 0.9571
10.0462 -3.6957 -2.3660 0.9571
10.0713 -3.6343 -2.3665 0.9571
10.0959 -3.5728 -2.3671 0.9571
10.1202 -3.5111 -2.3676 0.9571
10.1441 -3.4493 -2.3682 0.9571
10.1908 -3.3251 -2.3693 0.9570
10.2360 -3.2004 -2.3704 0.9570
10.2797 -3.0750 -2.3716 0.9570
10.3426 -2.8857 -2.3733 0.9570
10.3626 -2.8225 -2.3738 0.9570
10.4207 -2.6317 -2.3756 0.9569
10.4575 -2.5038 -2.3767 0.9569
10.4753 -2.4397 -2.3773 0.9569
10.5099 -2.3111 -2.3785 0.9569
10.5587 -2.1172 -2.3802 0.9568
10.6040 -1.9224 -2.3820 0.9568
10.6322 -1.7920 -2.3831 0.9568
10.6457 -1.7266 -2.3837 0.9568
10.6715 -1.5956 -2.3849 0.9568
10.6958 -1.4642 -2.3861 0.9567
10.7073 -1.3984 -2.3867 0.9567
10.7184 -1.3325 -2.3873 0.9567
10.7291 -1.2665 -2.3879 0.9567
10.7395 -1.2004 -2.3885 0.9567
10.7494 -1.1343 -2.3891 0.9567
10.7680 -1.0017 -2.3903 0.9567
10.7767 -0.9354 -2.3909 0.9567
10.7928 -0.8024 -2.3921 0.9566
10.8003 -0.7358 -2.3927 0.9566
10.8140 -0.6025 -2.3939 0.9566
10.8315 -0.4021 -2.3957 0.9566
10.8412 -0.2683 -2.3969 0.9565
10.8453 -0.2012 -2.3975 0.9565
10.8555 -0.0000 -2.3993 0.9565
10.8601 0.1343 -2.4006 0.9565
10.8646 0.4706 -2.4036 0.9564
10.8642 0.5379 -2.4042 0.9564
10.8634 0.6053 -2.4048 0.9564
10.8622 0.6726 -2.4054 0.9564
10.8606 0.7399 -2.4060 0.9564
10.8586 0.8073 -2.4067 0.9564
10.8533 0.9420 -2.4079 0.9564
10.8463 1.0767 -2.4091 0.9563
10.8422 1.1440 -2.4097 0.9563
10.8376 1.2114 -2.4103 0.9563
10.8273 1.3460 -2.4115 0.9563
10.8086 1.5478 -2.4134 0.9563
10.7941 1.6822 -2.4146 0.9562
10.7862 1.7494 -2.4152 0.9562
10.7779 1.8165 -2.4158 0.9562
10.7600 1.9507 -2.4170 0.9562
10.7505 2.0177 -2.4176 0.9562
10.6964 2.3521 -2.4207 0.9561
10.6843 2.4188 -2.4213 0.9561
10.6589 2.5520 -2.4225 0.9561
10.6455 2.6185 -2.4231 0.9561
10.6176 2.7513 -2.4243 0.9561
10.6030 2.8176 -2.4249 0.9561
10.5239 3.1480 -2.4279 0.9560
10.4893 3.2795 -2.4291 0.9560
10.4714 3.3451 -2.4297 0.9560
10.4343 3.4761 -2.4309 0.9559
10.3956 3.6067 -2.4321 0.9559
10.3132 3.8664 -2.4344 0.9559
10.2915 3.9311 -2.4350 0.9559
10.2695 3.9956 -2.4356 0.9559
10.2471 4.0600 -2.4362 0.9559
10.2010 4.1885 -2.4373 0.9558
10.1532 4.3163 -2.4385 0.9558
9.4373 4.2906 -2.2914 0.9584
7.2385 3.3451 -1.7625 0.9679
6.8576 3.2207 -1.6745 0.9694
6.8399 3.2642 -1.6751 0.9694
6.7870 3.3949 -1.6773 0.9694
6.7693 3.4386 -1.6782 0.9694
6.7339 3.5261 -1.6801 0.9693
6.7161 3.5698 -1.6811 0.9693
6.6983 3.6137 -1.6822 0.9693
6.6091 3.8339 -1.6888 0.9692
6.5911 3.8782 -1.6903 0.9692
6.5371 4.0115 -1.6952 0.9691
6.5009 4.1008 -1.6989 0.9690
6.4463 4.2356 -1.7048 0.9689
6.4280 4.2807 -1.7070 0.9689
6.3544 4.4624 -1.7162 0.9687
6.2611 4.6925 -1.7294 0.9685
6.1854 4.8793 -1.7413 0.9682
6.0305 5.2612 -1.7689 0.9677
5.9910 5.3587 -1.7766 0.9676
5.9711 5.4077 -1.7806 0.9675
5.8907 5.6062 -1.7974 0.9672
5.8498 5.7069 -1.8063 0.9671
5.8293 5.7576 -1.8109 0.9670
5.7669 5.9113 -1.8253 0.9667
5.7459 5.9632 -1.8303 0.9666
7.1321 7.6821 -2.3169 0.9580
6.8973 7.9058 -2.3189 0.9579
6.8495 7.9497 -2.3193 0.9579
6.8013 7.9933 -2.3197 0.9579
6.7529 8.0366 -2.3201 0.9579
6.6553 8.1223 -2.3209 0.9579
6.5067 8.2484 -2.3221 0.9579
6.4062 8.3310 -2.3228 0.9579
6.3048 8.4123 -2.3236 0.9578
6.2027 8.4930 -2.3245 0.9578
6.0989 8.5716 -2.3252 0.9578
5.8885 8.7248 -2.3265 0.9578
5.7817 8.7995 -2.3272 0.9578
5.7280 8.8363 -2.3275 0.9578
5.6740 8.8728 -2.3278 0.9578
5.5109 8.9805 -2.3289 0.9578
5.4561 9.0158 -2.3292 0.9577
5.4010 9.0507 -2.3296 0.9577
5.3457 9.0852 -2.3299 0.9577
5.2902 9.1194 -2.3302 0.9577
5.2344 9.1531 -2.3305 0.9577
5.1221 9.2196 -2.3311 0.9577
5.0657 9.2523 -2.3315 0.9577
4.9521 9.3167 -2.3321 0.9577
4.7802 9.4104 -2.3329 0.9577
4.7225 9.4410 -2.3332 0.9577
4.6065 9.5010 -2.3338 0.9577
4.4896 9.5594 -2.3343 0.9577
4.3130 9.6444 -2.3351 0.9576
4.2537 9.6719 -2.3354 0.9576
4.0149 9.7783 -2.3364 0.9576
3.8945 9.8292 -2.3368 0.9576
3.7733 9.8786 -2.3373 0.9576
3.7125 9.9027 -2.3375 0.9576
3.6516 9.9264 -2.3377 0.9576
3.5905 9.9497 -2.3380 0.9576
3.4678 9.9952 -2.3384 0.9576
3.3444 10.0391 -2.3388 0.9576
3.2206 10.0814 -2.3392 0.9576
3.0337 10.1419 -2.3398 0.9576
2.9712 10.1613 -2.3399 0.9576
2.4442 9.6784 -2.2063 0.9599
2.3178 9.6809 -2.2002 0.9600
2.2786 9.7838 -2.2204 0.9597
2.1980 9.9959 -2.2621 0.9589
2.1290 9.9759 -2.2546 0.9591
2.0591 9.9494 -2.2457 0.9592
1.9210 9.8970 -2.2283 0.9595
1.8529 9.8726 -2.2202 0.9597
1.6698 9.9071 -2.2206 0.9597
1.4822 9.9127 -2.2153 0.9598
1.2200 9.8133 -2.1857 0.9603
1.0198 9.1231 -2.0290 0.9631
0.9602 9.0996 -2.0224 0.9632
0.9011 9.0766 -2.0160 0.9633
0.7839 9.0317 -2.0038 0.9635
0.6311 9.2635 -2.0522 0.9627
0.5817 9.3937 -2.0802 0.9622
0.5308 9.5267 -2.1089 0.9617
0.3519 9.4805 -2.0969 0.9619
0.2334 9.4344 -2.0859 0.9621
0.1746 9.4115 -2.0805 0.9622
0.1163 9.3985 -2.0775 0.9622
0.0581 9.3991 -2.0775 0.9622
0.0000 9.3992 -2.0775 0.9622
-0.1162 9.3984 -2.0775 0.9622
-0.2325 9.3961 -2.0774 0.9622
-0.2906 9.3944 -2.0774 0.9622
-0.3487 9.3923 -2.0774 0.9622
-0.4065 9.3848 -2.0762 0.9622
-0.4636 9.3626 -2.0719 0.9623
-0.5277 8.5223 -1.8873 0.9656
-0.8944 9.0098 -2.0012 0.9636
-1.2268 9.8681 -2.1979 0.9601
-1.5030 10.4952 -2.3434 0.9575
-1.5678 10.4853 -2.3433 0.9575
-1.6325 10.4750 -2.3432 0.9575
-1.6972 10.4643 -2.3431 0.9575
-1.7618 10.4532 -2.3430 0.9575
-1.9552 10.4173 -2.3427 0.9575
-2.0195 10.4045 -2.3426 0.9575
-2.1478 10.3777 -2.3424 0.9575
-2.1205 9.9361 -2.2456 0.9592
-2.1753 9.6088 -2.1775 0.9604
-2.2164 9.5165 -2.1597 0.9608
-2.4436 9.1953 -2.1030 0.9618
-2.4904 9.1433 -2.0945 0.9619
-2.6286 8.9897 -2.0702 0.9624
-2.6740 8.9393 -2.0623 0.9625
-2.7568 8.8172 -2.0419 0.9629
-2.9014 8.8921 -2.0673 0.9624
-3.0094 8.8505 -2.0662 0.9624
-3.0634 8.8297 -2.0657 0.9624
-3.1174 8.8089 -2.0653 0.9624
-3.1624 8.7634 -2.0592 0.9626
-3.2791 8.7466 -2.0646 0.9625
-3.3331 8.7259 -2.0646 0.9625
-3.3870 8.7051 -2.0646 0.9625
-3.4409 8.6844 -2.0646 0.9625
-3.4486 8.5490 -2.0375 0.9629
-3.5850 8.5798 -2.0552 0.9626
-3.7161 8.5933 -2.0693 0.9624
-3.7824 8.6001 -2.0766 0.9622
-3.9840 8.6209 -2.0991 0.9618
-4.0390 8.5998 -2.1000 0.9618
-4.3597 8.7158 -2.1540 0.9609
-4.4469 8.7544 -2.1703 0.9606
-4.6890 8.9548 -2.2342 0.9594
-5.0110 9.2884 -2.3327 0.9577
-5.0677 9.2561 -2.3324 0.9577
-5.1805 9.1904 -2.3318 0.9577
-5.2924 9.1232 -2.3312 0.9577
-5.4034 9.0547 -2.3306 0.9577
-5.5136 8.9848 -2.3300 0.9577
-5.5683 8.9494 -2.3297 0.9577
-5.3703 8.1733 -2.1616 0.9607
-5.3927 8.0978 -2.1504 0.9609
-5.4501 7.9686 -2.1338 0.9612
-5.4785 7.9048 -2.1258 0.9614
-5.5067 7.8414 -2.1178 0.9615
-5.5347 7.7785 -2.1100 0.9616
-5.6230 7.6002 -2.0896 0.9620
-5.6766 7.5741 -2.0921 0.9620
-5.8864 7.6549 -2.1343 0.9612
-6.0018 7.7059 -2.1589 0.9608
-6.2514 7.8248 -2.2136 0.9598
-6.8538 7.9547 -2.3208 0.9579
-6.9493 7.8667 -2.3200 0.9579
-6.9966 7.8222 -2.3196 0.9579
-7.2287 7.5955 -2.3176 0.9580
-7.3195 7.5028 -2.3167 0.9580
-7.3644 7.4561 -2.3163 0.9580
-7.5411 7.2663 -2.3146 0.9580
-7.5844 7.2182 -2.3142 0.9580
-7.7548 7.0231 -2.3124 0.9580
-7.7966 6.9736 -2.3120 0.9581
-7.8792 6.8740 -2.3111 0.9581
-7.9200 6.8238 -2.3107 0.9581
-7.9605 6.7734 -2.3102 0.9581
-8.0007 6.7227 -2.3098 0.9581
-8.0405 6.6718 -2.3093 0.9581
-8.1192 6.5692 -2.3084 0.9581
-8.1580 6.5176 -2.3079 0.9581
-8.2346 6.4136 -2.3070 0.9581
-8.3099 6.3086 -2.3060 0.9582
-8.3471 6.2558 -2.3056 0.9582
-8.8322 6.4504 -2.4173 0.9562
-9.0297 6.5094 -2.4603 0.9554
-9.0679 6.4521 -2.4598 0.9554
-9.1057 6.3946 -2.4593 0.9554
-9.2169 6.2206 -2.4577 0.9555
-9.2892 6.1035 -2.4567 0.9555
-9.3247 6.0446 -2.4562 0.9555
-9.3599 5.9855 -2.4556 0.9555
-9.3947 5.9262 -2.4551 0.9555
-9.7214 5.3225 -2.4497 0.9556
-9.7821 5.1995 -2.4485 0.9556
-9.8118 5.1377 -2.4480 0.9556
-9.8701 5.0137 -2.4469 0.9557
-9.9268 4.8890 -2.4458 0.9557
-9.9819 4.7637 -2.4446 0.9557
-10.0089 4.7007 -2.4441 0.9557
-10.0615 4.5745 -2.4429 0.9557
-10.1376 4.3839 -2.4412 0.9558
-10.1621 4.3201 -2.4406 0.9558
-10.1862 4.2562 -2.4400 0.9558
-10.2099 4.1921 -2.4395 0.9558
-10.2332 4.1279 -2.4389 0.9558
-10.2786 3.9991 -2.4377 0.9558
-10.3006 3.9345 -2.4371 0.9558
-10.3644 3.7401 -2.4354 0.9559
-10.3848 3.6750 -2.4348 0.9559
-10.4048 3.6099 -2.4342 0.9559
-10.4244 3.5446 -2.4336 0.9559
-10.4808 3.3482 -2.4319 0.9559
-10.5334 3.1508 -2.4301 0.9560
-10.5501 3.0849 -2.4295 0.9560
-10.5663 3.0188 -2.4289 0.9560
-10.6127 2.8202 -2.4271 0.9560
-10.6273 2.7538 -2.4265 0.9560
-10.6941 2.4210 -2.4235 0.9561
-10.7062 2.3542 -2.4229 0.9561
-10.7291 2.2205 -2.4217 0.9561
-10.7879 1.8182 -2.4180 0.9562
-10.8116 1.6166 -2.4162 0.9562
-10.8253 1.4820 -2.4150 0.9562
-10.8315 1.4146 -2.4144 0.9562
-10.8373 1.3473 -2.4138 0.9562
-10.8427 1.2799 -2.4132 0.9563
-10.8477 1.2125 -2.4126 0.9563
-10.8522 1.1451 -2.4119 0.9563
-10.8564 1.0777 -2.4113 0.9563
-10.8662 0.8755 -2.4095 0.9563
-10.8687 0.8080 -2.4089 0.9563
-10.8707 0.7406 -2.4083 0.9563
-10.8723 0.6732 -2.4077 0.9564
-10.8743 0.5384 -2.4065 0.9564
-10.8747 0.4710 -2.4058 0.9564
-10.8733 0.2690 -2.4040 0.9564
-10.8703 0.1344 -2.4028 0.9564
-10.8681 0.0672 -2.4022 0.9565
-10.4950 0.0000 -2.4015 0.9578
-10.4891 -0.1297 -2.4004 0.9579
-10.4617 -0.5180 -2.3968 0.9579
-10.4557 -0.5826 -2.3963 0.9579
-10.4494 -0.6471 -2.3957 0.9579
-10.4426 -0.7115 -2.3951 0.9580
-10.4200 -0.9045 -2.3933 0.9580
-10.4117 -0.9686 -2.3928 0.9580
-10.4030 -1.0327 -2.3922 0.9580
-10.3939 -1.0968 -2.3916 0.9580
-10.3642 -1.2885 -2.3899 0.9580
-10.3310 -1.4795 -2.3881 0.9581
-10.3069 -1.6063 -2.3870 0.9581
-10.2680 -1.7960 -2.3853 0.9581
-10.2542 -1.8590 -2.3847 0.9581
-10.2255 -1.9847 -2.3835 0.9582
-10.1953 -2.1101 -2.3824 0.9582
-10.1472 -2.2972 -2.3807 0.9582
-10.1132 -2.4213 -2.3796 0.9582
-10.0217 -2.7296 -2.3768 0.9583
-10.0023 -2.7909 -2.3762 0.9583
-9.9825 -2.8521 -2.3757 0.9583
-9.9418 -2.9739 -2.3746 0.9583
-9.9209 -3.0347 -2.3740 0.9583
-9.8997 -3.0952 -2.3734 0.9583
-9.8337 -3.2761 -2.3718 0.9584
-9.7880 -3.3959 -2.3707 0.9584
-9.7166 -3.5744 -2.3691 0.9584
-9.6921 -3.6336 -2.3686 0.9584
-9.6673 -3.6926 -2.3680 0.9584
-9.6165 -3.8102 -2.3669 0.9584
-9.5906 -3.8687 -2.3664 0.9585
-9.5108 -4.0433 -2.3648 0.9585
-9.4835 -4.1011 -2.3643 0.9585
-9.4559 -4.1588 -2.3638 0.9585
-9.4279 -4.2162 -2.3632 0.9585
-9.3709 -4.3306 -2.3622 0.9585
-9.2528 -4.5571 -2.3601 0.9586
-9.2224 -4.6132 -2.3596 0.9586
-9.1918 -4.6691 -2.3591 0.9586
-9.1607 -4.7249 -2.3586 0.9586
-9.0977 -4.8358 -2.3576 0.9586
-9.0334 -4.9458 -2.3566 0.9586
-8.9344 -5.1093 -2.3551 0.9586
-8.9007 -5.1634 -2.3546 0.9587
-8.8668 -5.2172 -2.3541 0.9587
-8.8325 -5.2708 -2.3536 0.9587
-8.7980 -5.3243 -2.3531 0.9587
-8.7278 -5.4304 -2.3522 0.9587
-8.6565 -5.5357 -2.3512 0.9587
-8.6203 -5.5880 -2.3507 0.9587
-8.5838 -5.6401 -2.3503 0.9587
-8.5100 -5.7435 -2.3493 0.9587
-8.3587 -5.9475 -2.3475 0.9588
-8.1629 -6.1971 -2.3452 0.9588
-8.1229 -6.2462 -2.3447 0.9588
-8.0419 -6.3438 -2.3438 0.9588
-8.0010 -6.3922 -2.3434 0.9588
-7.9599 -6.4404 -2.3430 0.9589
-7.7924 -6.6303 -2.3412 0.9589
-7.7069 -6.7237 -2.3404 0.9589
-7.6638 -6.7701 -2.3399 0.9589
-7.6204 -6.8161 -2.3395 0.9589
-7.5768 -6.8619 -2.3391 0.9589
-7.4887 -6.9526 -2.3383 0.9589
-7.4442 -6.9976 -2.3379 0.9589
-7.3995 -7.0422 -2.3374 0.9590
-7.2638 -7.1746 -2.3362 0.9590
-7.1721 -7.2614 -2.3354 0.9590
-7.1259 -7.3044 -2.3350 0.9590
-7.0794 -7.3470 -2.3347 0.9590
-7.0326 -7.3895 -2.3343 0.9590
-6.9856 -7.4316 -2.3339 0.9590
-6.8432 -7.5562 -2.3327 0.9590
-6.7470 -7.6378 -2.3320 0.9590
-6.6986 -7.6781 -2.3316 0.9591
-6.6500 -7.7182 -2.3313 0.9591
-6.6011 -7.7580 -2.3309 0.9591
-6.5026 -7.8366 -2.3302 0.9591
-6.2525 -8.0278 -2.3284 0.9591
-6.2018 -8.0652 -2.3281 0.9591
-5.9970 -8.2113 -2.3267 0.9591
-5.9452 -8.2471 -2.3264 0.9591
-5.7362 -8.3870 -2.3251 0.9592
-5.6835 -8.4211 -2.3248 0.9592
-5.6305 -8.4550 -2.3245 0.9592
-5.5774 -8.4885 -2.3242 0.9592
-5.4706 -8.5546 -2.3236 0.9592
-5.3630 -8.6194 -2.3230 0.9592
-5.3089 -8.6513 -2.3227 0.9592
-5.2002 -8.7141 -2.3221 0.9592
-5.1456 -8.7450 -2.3218 0.9592
-4.9806 -8.8358 -2.3210 0.9592
-4.8142 -8.9236 -2.3201 0.9592
-4.7584 -8.9521 -2.3199 0.9593
-4.7024 -8.9804 -2.3196 0.9593
-4.6462 -9.0083 -2.3194 0.9593
-4.5335 -9.0631 -2.3189 0.9593
-4.4768 -9.0900 -2.3186 0.9593
-4.3631 -9.1427 -2.3181 0.9593
-4.3061 -9.1686 -2.3179 0.9593
-4.1915 -9.2192 -2.3174 0.9593
-4.0763 -9.2686 -2.3169 0.9593
-4.0186 -9.2927 -2.3167 0.9593
-3.9606 -9.3165 -2.3165 0.9593
-3.8444 -9.3630 -2.3161 0.9593
-3.7276 -9.4081 -2.3156 0.9593
-3.6691 -9.4302 -2.3154 0.9593
-3.5515 -9.4732 -2.3150 0.9593
-3.4335 -9.5148 -2.3147 0.9593
-3.3743 -9.5350 -2.3145 0.9593
-3.3150 -9.5550 -2.3143 0.9593
-3.0169 -9.6492 -2.3134 0.9594
-2.8969 -9.6843 -2.3131 0.9594
-2.7162 -9.7345 -2.3126 0.9594
-2.6557 -9.7504 -2.3124 0.9594
-2.2914 -9.8387 -2.3116 0.9594
-2.2304 -9.8521 -2.3115 0.9594
-2.1693 -9.8652 -2.3113 0.9594
-2.0469 -9.8903 -2.3111 0.9594
-1.8628 -9.9251 -2.3108 0.9594
-1.8013 -9.9360 -2.3107 0.9594
-1.7397 -9.9465 -2.3106 0.9594
-1.6164 -9.9664 -2.3104 0.9594
-1.5547 -9.9758 -2.3103 0.9594
-1.4311 -9.9936 -2.3101 0.9594
-1.3692 -10.0019 -2.3100 0.9594
-1.3073 -10.0098 -2.3099 0.9594
-1.2453 -10.0173 -2.3099 0.9594
-1.0592 -10.0378 -2.3097 0.9594
-0.9971 -10.0439 -2.3096 0.9594
-0.9349 -10.0497 -2.3096 0.9594
-0.8727 -10.0550 -2.3095 0.9594
-0.8105 -10.0600 -2.3094 0.9594
-0.6237 -10.0727 -2.3093 0.9594
-0.5614 -10.0762 -2.3093 0.9594
-0.4991 -10.0793 -2.3092 0.9594
-0.3744 -10.0845 -2.3092 0.9594
-0.3120 -10.0865 -2.3092 0.9594
-0.2496 -10.0881 -2.3091 0.9594
-0.1248 -10.0903 -2.3091 0.9594
-0.0624 -10.0908 -2.3091 0.9594
0.0000 -10.0910 -2.3091 0.9594
0.0624 -10.0908 -2.3091 0.9594
0.3120 -10.0862 -2.3091 0.9594
0.3743 -10.0841 -2.3091 0.9594
0.4991 -10.0789 -2.3091 0.9594
0.5614 -10.0757 -2.3092 0.9594
0.6237 -10.0721 -2.3092 0.9594
0.7482 -10.0640 -2.3092 0.9594
1.1832 -10.0235 -2.3096 0.9594
1.2452 -10.0163 -2.3096 0.9594
1.3072 -10.0087 -2.3097 0.9594
1.4309 -9.9923 -2.3098 0.9594
1.6162 -9.9650 -2.3101 0.9594
1.7395 -9.9450 -2.3102 0.9594
1.8010 -9.9344 -2.3103 0.9594
1.8625 -9.9235 -2.3104 0.9594
1.9853 -9.9005 -2.3106 0.9594
2.1689 -9.8634 -2.3109 0.9594
2.4127 -9.8087 -2.3114 0.9594
2.4734 -9.7941 -2.3115 0.9594
2.7155 -9.7322 -2.3120 0.9594
2.7759 -9.7158 -2.3122 0.9594
2.8361 -9.6991 -2.3123 0.9594
2.9562 -9.6645 -2.3126 0.9594
3.0759 -9.6285 -2.3130 0.9594
3.1952 -9.5911 -2.3133 0.9594
3.3141 -9.5523 -2.3136 0.9594
3.3733 -9.5323 -2.3138 0.9594
3.4915 -9.4913 -2.3142 0.9594
3.6092 -9.4489 -2.3145 0.9593
3.6679 -9.4272 -2.3147 0.9593
3.9013 -9.3368 -2.3155 0.9593
3.9593 -9.3133 -2.3157 0.9593
4.0172 -9.2895 -2.3159 0.9593
4.0749 -9.2653 -2.3161 0.9593
4.3615 -9.1393 -2.3172 0.9593
4.4751 -9.0865 -2.3177 0.9593
4.5881 -9.0323 -2.3182 0.9593
4.6444 -9.0047 -2.3184 0.9593
4.7005 -8.9768 -2.3187 0.9593
4.7564 -8.9485 -2.3189 0.9593
4.8678 -8.8909 -2.3194 0.9593
4.9785 -8.8320 -2.3200 0.9593
5.1433 -8.7412 -2.3208 0.9592
5.1979 -8.7103 -2.3210 0.9592
5.4143 -8.5832 -2.3222 0.9592
5.5215 -8.5177 -2.3228 0.9592
5.8382 -8.3135 -2.3246 0.9592
5.9939 -8.2071 -2.3255 0.9592
6.0453 -8.1710 -2.3258 0.9592
6.1477 -8.0979 -2.3265 0.9591
6.1985 -8.0609 -2.3268 0.9591
6.2491 -8.0235 -2.3272 0.9591
6.3997 -7.9097 -2.3282 0.9591
6.4495 -7.8711 -2.3285 0.9591
6.5483 -7.7931 -2.3292 0.9591
6.6462 -7.7138 -2.3299 0.9591
6.6948 -7.6737 -2.3303 0.9591
6.7913 -7.5927 -2.3310 0.9591
6.8868 -7.5105 -2.3317 0.9590
7.0750 -7.3426 -2.3332 0.9590
7.1215 -7.2999 -2.3336 0.9590
7.1677 -7.2569 -2.3340 0.9590
7.2136 -7.2136 -2.3344 0.9590
7.2593 -7.1701 -2.3348 0.9590
7.3047 -7.1262 -2.3352 0.9590
7.3499 -7.0821 -2.3356 0.9590
7.4838 -6.9481 -2.3368 0.9590
7.5719 -6.8574 -2.3376 0.9589
7.6155 -6.8116 -2.3380 0.9589
7.6588 -6.7656 -2.3384 0.9589
7.7446 -6.6727 -2.3392 0.9589
7.7872 -6.6259 -2.3397 0.9589
7.9130 -6.4838 -2.3409 0.9589
7.9544 -6.4360 -2.3414 0.9589
8.1172 -6.2419 -2.3431 0.9589
8.1572 -6.1927 -2.3435 0.9588
8.1969 -6.1433 -2.3440 0.9588
8.2363 -6.0937 -2.3444 0.9588
8.2754 -6.0437 -2.3449 0.9588
8.3142 -5.9936 -2.3453 0.9588
8.3527 -5.9433 -2.3458 0.9588
8.3909 -5.8926 -2.3462 0.9588
8.4289 -5.8417 -2.3467 0.9588
8.4665 -5.7907 -2.3472 0.9588
8.5408 -5.6877 -2.3481 0.9588
8.5775 -5.6359 -2.3485 0.9588
8.6139 -5.5839 -2.3490 0.9588
8.7913 -5.3203 -2.3514 0.9587
8.8259 -5.2669 -2.3519 0.9587
8.8601 -5.2133 -2.3523 0.9587
8.8940 -5.1595 -2.3528 0.9587
8.9275 -5.1054 -2.3533 0.9587
8.9608 -5.0511 -2.3538 0.9587
8.9937 -4.9966 -2.3543 0.9587
9.0906 -4.8320 -2.3558 0.9586
9.1222 -4.7767 -2.3563 0.9586
9.2152 -4.6096 -2.3578 0.9586
9.2755 -4.4972 -2.3588 0.9586
9.3051 -4.4407 -2.3593 0.9586
9.3344 -4.3840 -2.3598 0.9586
9.4758 -4.0978 -2.3624 0.9585
9.5300 -3.9820 -2.3634 0.9585
9.6086 -3.8071 -2.3650 0.9585
9.6593 -3.6896 -2.3661 0.9585
9.6841 -3.6306 -2.3666 0.9584
9.7085 -3.5714 -2.3671 0.9584
9.7326 -3.5121 -2.3677 0.9584
9.8255 -3.2733 -2.3698 0.9584
9.9538 -2.9105 -2.3731 0.9583
9.9740 -2.8496 -2.3736 0.9583
9.9937 -2.7885 -2.3742 0.9583
10.0131 -2.7273 -2.3747 0.9583
10.0508 -2.6045 -2.3758 0.9583
10.1044 -2.4193 -2.3775 0.9583
10.1216 -2.3573 -2.3781 0.9583
10.1384 -2.2952 -2.3786 0.9582
10.1548 -2.2330 -2.3792 0.9582
10.1864 -2.1082 -2.3803 0.9582
10.2166 -1.9830 -2.3815 0.9582
10.2311 -1.9203 -2.3820 0.9582
10.2723 -1.7313 -2.3837 0.9582
10.2852 -1.6681 -2.3843 0.9581
10.3333 -1.4146 -2.3866 0.9581
10.3444 -1.3510 -2.3872 0.9581
10.3550 -1.2873 -2.3877 0.9581
10.3653 -1.2236 -2.3883 0.9581
10.3751 -1.1597 -2.3889 0.9581
10.3846 -1.0958 -2.3895 0.9581
10.3937 -1.0318 -2.3900 0.9580
10.4024 -0.9677 -2.3906 0.9580
10.4333 -0.7108 -2.3929 0.9580
10.4523 -0.5176 -2.3947 0.9580
10.4678 -0.3238 -2.3965 0.9579
10.4797 -0.1296 -2.3982 0.9579
10.4856 0.0000 -2.3994 0.9579
10.4899 0.1297 -2.4006 0.9579
10.4934 0.3246 -2.4023 0.9578
10.4938 0.3896 -2.4029 0.9578
10.4933 0.5196 -2.4041 0.9578
10.4912 0.6496 -2.4053 0.9578
10.4896 0.7146 -2.4059 0.9578
10.4850 0.8447 -2.4070 0.9578
10.4753 1.0399 -2.4088 0.9577
10.4618 1.2350 -2.4106 0.9577
10.4565 1.3000 -2.4112 0.9577
10.4509 1.3649 -2.4117 0.9577
10.4314 1.5597 -2.4135 0.9576
10.4241 1.6246 -2.4141 0.9576
10.4164 1.6894 -2.4147 0.9576
10.3997 1.8190 -2.4159 0.9576
10.3908 1.8837 -2.4164 0.9576
10.3718 2.0131 -2.4176 0.9576
10.3616 2.0777 -2.4182 0.9576
10.3511 2.1422 -2.4188 0.9576
10.3401 2.2068 -2.4194 0.9575
10.3170 2.3356 -2.4205 0.9575
10.2793 2.5284 -2.4223 0.9575
10.2522 2.6567 -2.4235 0.9575
10.2380 2.7207 -2.4240 0.9575
10.2235 2.7846 -2.4246 0.9575
10.2085 2.8484 -2.4252 0.9574
10.1773 2.9759 -2.4264 0.9574
10.1611 3.0395 -2.4269 0.9574
10.1276 3.1665 -2.4281 0.9574
10.0557 3.4192 -2.4304 0.9574
10.0173 3.5450 -2.4315 0.9573
9.9774 3.6703 -2.4327 0.9573
9.9359 3.7952 -2.4338 0.9573
9.9145 3.8575 -2.4344 0.9573
9.8927 3.9197 -2.4349 0.9573
9.8481 4.0436 -2.4361 0.9573
9.7540 4.2898 -2.4383 0.9572
9.4231 4.2842 -2.3686 0.9584
7.2288 3.3407 -1.8222 0.9679
6.8221 3.3077 -1.7349 0.9694
6.8045 3.3512 -1.7356 0.9694
6.7868 3.3948 -1.7365 0.9693
6.7691 3.4385 -1.7373 0.9693
6.7337 3.5259 -1.7393 0.9693
