ply
format ascii 1.0
element vertex 1562
property float32 x
property float32 y
property float32 z
property float32 I
end_header
0.1349 10.9057 -2.1570 0.9565
0.0677 10.9525 -2.1662 0.9563
-0.0683 11.0472 -2.1849 0.9560
-0.1372 11.0952 -2.1945 0.9558
-0.4913 11.3416 -2.2452 0.9548
-0.5641 11.3923 -2.2559 0.9546
-0.6376 11.4435 -2.2667 0.9543
-0.7118 11.4951 -2.2778 0.9541
-1.0161 11.7069 -2.3240 0.9532
-1.0941 11.7612 -2.3361 0.9530
-1.1730 11.8161 -2.3484 0.9527
-1.2527 11.8716 -2.3609 0.9525
-1.4033 11.8880 -2.3675 0.9524
-1.4767 11.8786 -2.3674 0.9524
-1.6234 11.8584 -2.3672 0.9524
-1.6966 11.8476 -2.3671 0.9524
-1.7698 11.8363 -2.3670 0.9524
-1.8428 11.8246 -2.3668 0.9524
-1.9158 11.8123 -2.3667 0.9524
-2.0615 11.7864 -2.3664 0.9524
-2.2069 11.7586 -2.3662 0.9524
-2.4242 11.7133 -2.3657 0.9524
-2.5685 11.6809 -2.3654 0.9524
-2.6405 11.6639 -2.3652 0.9524
-2.7124 11.6465 -2.3650 0.9524
-2.7842 11.6286 -2.3648 0.9524
-2.8558 11.6102 -2.3647 0.9524
-3.0699 11.5524 -2.3641 0.9524
-3.1411 11.5322 -2.3639 0.9524
-3.3536 11.4688 -2.3632 0.9524
-3.4241 11.4467 -2.3630 0.9525
-3.4945 11.4242 -2.3628 0.9525
-3.5647 11.4012 -2.3625 0.9525
-3.6347 11.3778 -2.3623 0.9525
-4.0517 11.2278 -2.3607 0.9525
-4.2577 11.1468 -2.3599 0.9525
-4.4622 11.0618 -2.3590 0.9525
-4.5299 11.0326 -2.3587 0.9525
-4.5975 11.0030 -2.3584 0.9525
-4.6648 10.9729 -2.3581 0.9525
-4.7989 10.9115 -2.3575 0.9526
-4.8657 10.8802 -2.3572 0.9526
-4.9322 10.8485 -2.3569 0.9526
-4.9986 10.8163 -2.3566 0.9526
-5.2616 10.6834 -2.3553 0.9526
-5.3917 10.6144 -2.3546 0.9526
-5.4565 10.5793 -2.3542 0.9526
-5.0876 9.4304 -2.1192 0.9572
-5.1696 9.4421 -2.1290 0.9571
-5.8398 10.3600 -2.3521 0.9527
-6.0903 10.2057 -2.3505 0.9527
-6.1523 10.1661 -2.3501 0.9527
-6.2754 10.0858 -2.3493 0.9527
-6.3974 10.0040 -2.3485 0.9527
-6.5183 9.9206 -2.3477 0.9528
-6.5784 9.8783 -2.3473 0.9528
-6.6381 9.8356 -2.3468 0.9528
-6.7568 9.7492 -2.3460 0.9528
-6.8743 9.6613 -2.3451 0.9528
-6.9326 9.6168 -2.3446 0.9528
-7.1628 9.4350 -2.3428 0.9528
-7.2760 9.3420 -2.3419 0.9529
-7.3322 9.2950 -2.3414 0.9529
-7.4436 9.1998 -2.3405 0.9529
-7.4988 9.1518 -2.3400 0.9529
-7.1272 8.5893 -2.2074 0.9555
-7.4859 8.7979 -2.2846 0.9540
-7.5373 8.7481 -2.2838 0.9540
-7.5008 8.4910 -2.2407 0.9549
-7.5826 8.4774 -2.2494 0.9547
-7.6244 8.3149 -2.2312 0.9550
-7.7824 8.2793 -2.2473 0.9547
-7.7926 8.0873 -2.2212 0.9552
-7.8935 8.0912 -2.2356 0.9550
-7.9359 8.0346 -2.2335 0.9550
-7.9803 7.9803 -2.2321 0.9550
-8.1944 8.0937 -2.2779 0.9541
-8.5784 8.0637 -2.3285 0.9531
-8.6733 7.9532 -2.3274 0.9532
-8.7203 7.8975 -2.3268 0.9532
-8.7668 7.8415 -2.3262 0.9532
-8.8130 7.7852 -2.3257 0.9532
-8.8588 7.7287 -2.3251 0.9532
-8.9043 7.6719 -2.3245 0.9532
-8.9940 7.5574 -2.3234 0.9532
-9.0383 7.4998 -2.3228 0.9532
-9.0822 7.4419 -2.3222 0.9533
-9.1258 7.3837 -2.3216 0.9533
-9.1689 7.3253 -2.3211 0.9533
-9.3378 7.0890 -2.3187 0.9533
-9.4603 6.9091 -2.3169 0.9534
-9.5950 6.8271 -2.3290 0.9531
-10.2702 7.1179 -2.4713 0.9503
-10.4319 6.8543 -2.4687 0.9504
-10.4713 6.7879 -2.4680 0.9504
-10.5102 6.7211 -2.4674 0.9504
-10.6983 6.3842 -2.4640 0.9505
-10.7346 6.3162 -2.4633 0.9505
-10.8408 6.1108 -2.4612 0.9505
-10.9094 5.9729 -2.4598 0.9506
-10.9431 5.9037 -2.4591 0.9506
-10.9763 5.8342 -2.4584 0.9506
-11.0090 5.7646 -2.4577 0.9506
-11.0413 5.6948 -2.4570 0.9506
-11.1045 5.5546 -2.4556 0.9506
-11.2833 5.1299 -2.4514 0.9507
-11.3115 5.0586 -2.4507 0.9507
-11.3666 4.9154 -2.4492 0.9508
-11.4198 4.7716 -2.4478 0.9508
-11.4961 4.5549 -2.4456 0.9508
-11.5206 4.4824 -2.4449 0.9508
-11.5446 4.4097 -2.4441 0.9509
-11.6141 4.1911 -2.4420 0.9509
-11.6363 4.1179 -2.4412 0.9509
-11.6579 4.0446 -2.4405 0.9509
-11.6792 3.9712 -2.4397 0.9509
-11.7001 3.8978 -2.4390 0.9510
-11.7204 3.8242 -2.4383 0.9510
-11.7596 3.6767 -2.4368 0.9510
-11.7786 3.6028 -2.4361 0.9510
-11.7970 3.5288 -2.4353 0.9510
-11.8325 3.3806 -2.4338 0.9511
-11.8662 3.2320 -2.4323 0.9511
-11.9131 3.0086 -2.4301 0.9511
-11.9278 2.9339 -2.4293 0.9511
-11.9420 2.8592 -2.4286 0.9512
-11.9691 2.7096 -2.4271 0.9512
-12.0061 2.4848 -2.4248 0.9512
-12.0389 2.2596 -2.4226 0.9513
-12.0489 2.1844 -2.4218 0.9513
-12.0584 2.1091 -2.4211 0.9513
-12.0675 2.0339 -2.4203 0.9513
-12.0918 1.8080 -2.4181 0.9514
-12.1177 1.5065 -2.4150 0.9514
-12.1230 1.4310 -2.4143 0.9514
-12.1278 1.3556 -2.4135 0.9515
-12.1394 1.1293 -2.4112 0.9515
-12.1424 1.0539 -2.4105 0.9515
-12.1448 0.9785 -2.4097 0.9515
-12.1469 0.9031 -2.4090 0.9515
-12.1484 0.8277 -2.4082 0.9516
-12.1495 0.7523 -2.4075 0.9516
-12.1502 0.6016 -2.4060 0.9516
-12.1499 0.5263 -2.4052 0.9516
-12.1491 0.4510 -2.4045 0.9516
-12.1462 0.3005 -2.4029 0.9517
-11.6748 -0.0722 -2.3992 0.9534
-11.6706 -0.1444 -2.3985 0.9535
-11.6608 -0.2885 -2.3971 0.9535
-11.6553 -0.3605 -2.3963 0.9535
-11.6430 -0.5044 -2.3949 0.9535
-11.6289 -0.6480 -2.3935 0.9536
-11.6211 -0.7196 -2.3927 0.9536
-11.6130 -0.7912 -2.3920 0.9536
-11.5859 -1.0056 -2.3899 0.9536
-11.5760 -1.0769 -2.3892 0.9536
-11.5549 -1.2193 -2.3877 0.9537
-11.5200 -1.4322 -2.3856 0.9537
-11.5075 -1.5030 -2.3849 0.9537
-11.4946 -1.5737 -2.3842 0.9537
-11.4533 -1.7850 -2.3821 0.9538
-11.4386 -1.8553 -2.3814 0.9538
-11.3419 -2.2743 -2.3772 0.9539
-11.3243 -2.3437 -2.3765 0.9539
-11.2498 -2.6200 -2.3737 0.9539
-11.2301 -2.6888 -2.3730 0.9539
-11.2100 -2.7574 -2.3723 0.9540
-11.1686 -2.8941 -2.3710 0.9540
-11.1473 -2.9623 -2.3703 0.9540
-11.1256 -3.0303 -2.3696 0.9540
-11.0108 -3.3680 -2.3662 0.9541
-10.9867 -3.4351 -2.3656 0.9541
-10.9621 -3.5020 -2.3649 0.9541
-10.9372 -3.5687 -2.3642 0.9541
-10.8599 -3.7678 -2.3622 0.9541
-10.7514 -4.0308 -2.3596 0.9542
-10.6948 -4.1612 -2.3583 0.9542
-10.6660 -4.2260 -2.3577 0.9542
-10.5770 -4.4195 -2.3557 0.9543
-10.5466 -4.4837 -2.3551 0.9543
-10.5158 -4.5476 -2.3544 0.9543
-10.4531 -4.6747 -2.3532 0.9543
-10.3890 -4.8011 -2.3519 0.9543
-10.3232 -4.9266 -2.3506 0.9544
-10.1526 -5.2365 -2.3475 0.9544
-10.0818 -5.3588 -2.3463 0.9544
-10.0459 -5.4197 -2.3457 0.9545
-10.0096 -5.4803 -2.3451 0.9545
-9.9359 -5.6008 -2.3439 0.9545
-9.8986 -5.6607 -2.3433 0.9545
-9.7844 -5.8389 -2.3415 0.9545
-9.7066 -5.9565 -2.3404 0.9546
-9.6671 -6.0149 -2.3398 0.9546
-9.4649 -6.3031 -2.3369 0.9546
-9.4234 -6.3600 -2.3363 0.9546
-9.2544 -6.5849 -2.3341 0.9547
-9.1679 -6.6956 -2.3330 0.9547
-9.1241 -6.7506 -2.3324 0.9547
-9.0801 -6.8053 -2.3319 0.9547
-8.9910 -6.9139 -2.3308 0.9547
-8.9461 -6.9677 -2.3303 0.9548
-8.9008 -7.0213 -2.3297 0.9548
-8.8092 -7.1276 -2.3287 0.9548
-8.6225 -7.3367 -2.3266 0.9548
-8.4793 -7.4905 -2.3250 0.9548
-8.4310 -7.5411 -2.3245 0.9549
-8.3824 -7.5915 -2.3240 0.9549
-8.3335 -7.6415 -2.3235 0.9549
-8.2843 -7.6913 -2.3230 0.9549
-8.2348 -7.7407 -2.3225 0.9549
-8.1350 -7.8387 -2.3216 0.9549
-8.0847 -7.8872 -2.3211 0.9549
-8.0341 -7.9354 -2.3206 0.9549
-7.8290 -8.1251 -2.3187 0.9550
-7.7770 -8.1717 -2.3182 0.9550
-7.7248 -8.2180 -2.3178 0.9550
-7.6723 -8.2640 -2.3173 0.9550
-7.6196 -8.3096 -2.3169 0.9550
-7.5133 -8.4000 -2.3160 0.9550
-7.4060 -8.4890 -2.3151 0.9550
-7.3520 -8.5330 -2.3146 0.9550
-7.2431 -8.6201 -2.3138 0.9551
-7.0781 -8.7481 -2.3125 0.9551
-6.8546 -8.9142 -2.3108 0.9551
-6.7982 -8.9548 -2.3104 0.9551
-6.7415 -8.9951 -2.3100 0.9551
-6.6275 -9.0747 -2.3092 0.9551
-6.5125 -9.1529 -2.3085 0.9552
-6.2800 -9.3050 -2.3070 0.9552
-6.1625 -9.3790 -2.3062 0.9552
-6.1034 -9.4154 -2.3059 0.9552
-6.0441 -9.4515 -2.3055 0.9552
-5.8650 -9.5577 -2.3044 0.9552
-5.7447 -9.6266 -2.3038 0.9553
-5.6235 -9.6941 -2.3031 0.9553
-5.2556 -9.8878 -2.3012 0.9553
-5.1937 -9.9188 -2.3008 0.9553
-5.1316 -9.9494 -2.3005 0.9553
-5.0693 -9.9796 -2.3002 0.9553
-5.0068 -10.0095 -2.2999 0.9553
-4.9442 -10.0390 -2.2997 0.9553
-4.6921 -10.1532 -2.2985 0.9554
-4.6286 -10.1808 -2.2982 0.9554
-4.5013 -10.2349 -2.2977 0.9554
-4.3734 -10.2874 -2.2972 0.9554
-4.3092 -10.3131 -2.2969 0.9554
-4.2449 -10.3385 -2.2967 0.9554
-4.0511 -10.4121 -2.2960 0.9554
-3.9862 -10.4359 -2.2957 0.9554
-3.9212 -10.4593 -2.2955 0.9554
-3.7908 -10.5049 -2.2950 0.9554
-3.6599 -10.5490 -2.2946 0.9554
-3.5942 -10.5705 -2.2944 0.9554
-3.3966 -10.6325 -2.2938 0.9554
-3.0650 -10.7280 -2.2928 0.9555
-2.9984 -10.7460 -2.2927 0.9555
-2.9317 -10.7635 -2.2925 0.9555
-2.8648 -10.7806 -2.2923 0.9555
-2.7979 -10.7973 -2.2922 0.9555
-2.7309 -10.8137 -2.2920 0.9555
-2.5966 -10.8452 -2.2917 0.9555
-2.5293 -10.8603 -2.2915 0.9555
-2.1239 -10.9428 -2.2907 0.9555
-1.9203 -10.9786 -2.2904 0.9555
-1.6478 -11.0208 -2.2900 0.9555
-1.5112 -11.0395 -2.2898 0.9555
-1.4429 -11.0482 -2.2897 0.9555
-1.3745 -11.0565 -2.2896 0.9555
-0.9632 -11.0979 -2.2892 0.9555
-0.6884 -11.1175 -2.2890 0.9555
-0.6196 -11.1214 -2.2890 0.9555
-0.5508 -11.1248 -2.2890 0.9555
-0.4820 -11.1279 -2.2889 0.9555
-0.4131 -11.1306 -2.2889 0.9555
-0.3443 -11.1328 -2.2889 0.9555
-0.2066 -11.1361 -2.2889 0.9555
0.2755 -11.1347 -2.2889 0.9555
0.3444 -11.1329 -2.2889 0.9555
0.4821 -11.1281 -2.2890 0.9555
0.6884 -11.1178 -2.2891 0.9555
0.7572 -11.1135 -2.2891 0.9555
0.8259 -11.1089 -2.2892 0.9555
1.0320 -11.0924 -2.2894 0.9555
1.1006 -11.0862 -2.2894 0.9555
1.2377 -11.0725 -2.2896 0.9555
1.3747 -11.0571 -2.2897 0.9555
1.4431 -11.0488 -2.2898 0.9555
1.5114 -11.0401 -2.2899 0.9555
1.5797 -11.0310 -2.2900 0.9555
1.6480 -11.0214 -2.2901 0.9555
1.7162 -11.0115 -2.2902 0.9555
1.9204 -10.9794 -2.2905 0.9555
1.9884 -10.9679 -2.2907 0.9555
2.0563 -10.9560 -2.2908 0.9555
2.1919 -10.9307 -2.2910 0.9555
2.2596 -10.9178 -2.2912 0.9555
2.3272 -10.9043 -2.2913 0.9555
2.5296 -10.8613 -2.2917 0.9555
2.6641 -10.8307 -2.2921 0.9555
2.7982 -10.7984 -2.2924 0.9555
2.8651 -10.7817 -2.2926 0.9555
2.9320 -10.7646 -2.2927 0.9555
3.1320 -10.7109 -2.2933 0.9555
3.1984 -10.6922 -2.2935 0.9554
3.4631 -10.6136 -2.2943 0.9554
3.5290 -10.5929 -2.2945 0.9554
3.5948 -10.5719 -2.2947 0.9554
3.6604 -10.5504 -2.2949 0.9554
3.7914 -10.5064 -2.2954 0.9554
3.8567 -10.4838 -2.2956 0.9554
3.9868 -10.4374 -2.2961 0.9554
4.1165 -10.3895 -2.2965 0.9554
4.2456 -10.3401 -2.2970 0.9554
4.3100 -10.3148 -2.2973 0.9554
4.3741 -10.2891 -2.2976 0.9554
4.4382 -10.2630 -2.2978 0.9554
4.6295 -10.1825 -2.2986 0.9554
4.6929 -10.1549 -2.2989 0.9553
4.7562 -10.1270 -2.2992 0.9553
4.8194 -10.0986 -2.2995 0.9553
4.8824 -10.0699 -2.2998 0.9553
5.0703 -9.9815 -2.3007 0.9553
5.1326 -9.9512 -2.3010 0.9553
5.3185 -9.8583 -2.3019 0.9553
5.4416 -9.7946 -2.3026 0.9553
5.5028 -9.7621 -2.3029 0.9553
5.5639 -9.7293 -2.3032 0.9553
5.6247 -9.6961 -2.3036 0.9553
5.6854 -9.6625 -2.3039 0.9553
5.7459 -9.6286 -2.3042 0.9552
5.9263 -9.5247 -2.3053 0.9552
6.0455 -9.4536 -2.3060 0.9552
6.1048 -9.4176 -2.3064 0.9552
6.1639 -9.3811 -2.3067 0.9552
6.2815 -9.3072 -2.3075 0.9552
6.3400 -9.2697 -2.3079 0.9552
6.3983 -9.2318 -2.3082 0.9552
6.4563 -9.1936 -2.3086 0.9552
6.5717 -9.1161 -2.3094 0.9551
6.6863 -9.0372 -2.3102 0.9551
6.8564 -8.9163 -2.3114 0.9551
6.9126 -8.8754 -2.3118 0.9551
7.0244 -8.7924 -2.3127 0.9551
7.0799 -8.7504 -2.3131 0.9551
7.1903 -8.6654 -2.3140 0.9551
7.2451 -8.6224 -2.3144 0.9551
7.2997 -8.5790 -2.3148 0.9550
7.4081 -8.4913 -2.3157 0.9550
7.4619 -8.4469 -2.3162 0.9550
7.5154 -8.4022 -2.3166 0.9550
7.5687 -8.3573 -2.3171 0.9550
7.7271 -8.2203 -2.3184 0.9550
7.8313 -8.1274 -2.3194 0.9550
7.9344 -8.0332 -2.3203 0.9549
8.0871 -7.8895 -2.3218 0.9549
8.1375 -7.8410 -2.3223 0.9549
8.3850 -7.5938 -2.3247 0.9549
8.4337 -7.5435 -2.3252 0.9548
8.4820 -7.4928 -2.3258 0.9548
8.5778 -7.3906 -2.3268 0.9548
8.6724 -7.2872 -2.3278 0.9548
8.7193 -7.2350 -2.3283 0.9548
8.9037 -7.0236 -2.3305 0.9547
8.9490 -6.9700 -2.3310 0.9547
8.9941 -6.9161 -2.3316 0.9547
9.0832 -6.8076 -2.3326 0.9547
9.1272 -6.7528 -2.3332 0.9547
9.3003 -6.5312 -2.3354 0.9547
9.3428 -6.4752 -2.3360 0.9546
9.4268 -6.3622 -2.3371 0.9546
9.4682 -6.3053 -2.3377 0.9546
9.5094 -6.2482 -2.3383 0.9546
9.5502 -6.1908 -2.3388 0.9546
9.6308 -6.0752 -2.3400 0.9546
9.7101 -5.9586 -2.3412 0.9545
9.7492 -5.8999 -2.3418 0.9545
9.7880 -5.8410 -2.3424 0.9545
9.9022 -5.6627 -2.3442 0.9545
9.9396 -5.6028 -2.3448 0.9545
9.9766 -5.5427 -2.3454 0.9545
10.0133 -5.4823 -2.3460 0.9545
10.0496 -5.4217 -2.3466 0.9544
10.0856 -5.3608 -2.3472 0.9544
10.1212 -5.2997 -2.3478 0.9544
10.1564 -5.2384 -2.3484 0.9544
10.1913 -5.1769 -2.3490 0.9544
10.2258 -5.1151 -2.3497 0.9544
10.3603 -4.8658 -2.3522 0.9543
10.3929 -4.8029 -2.3528 0.9543
10.4253 -4.7398 -2.3534 0.9543
10.4572 -4.6765 -2.3541 0.9543
10.4888 -4.6130 -2.3547 0.9543
10.5199 -4.5493 -2.3553 0.9543
10.5812 -4.4213 -2.3566 0.9543
10.6991 -4.1628 -2.3592 0.9542
10.7275 -4.0976 -2.3599 0.9542
10.7557 -4.0323 -2.3605 0.9542
10.8108 -3.9012 -2.3618 0.9542
10.8643 -3.7693 -2.3632 0.9541
10.9162 -3.6367 -2.3645 0.9541
10.9416 -3.5701 -2.3652 0.9541
10.9666 -3.5034 -2.3658 0.9541
10.9911 -3.4365 -2.3665 0.9541
11.0153 -3.3694 -2.3672 0.9540
11.0391 -3.3021 -2.3679 0.9540
11.0854 -3.1672 -2.3692 0.9540
11.1519 -2.9635 -2.3713 0.9540
11.2146 -2.7585 -2.3733 0.9539
11.2544 -2.6211 -2.3747 0.9539
11.2925 -2.4831 -2.3761 0.9539
11.3466 -2.2753 -2.3782 0.9538
11.3638 -2.2057 -2.3789 0.9538
11.3806 -2.1360 -2.3796 0.9538
11.3969 -2.0662 -2.3803 0.9538
11.4434 -1.8560 -2.3824 0.9538
11.4581 -1.7858 -2.3831 0.9537
11.4861 -1.6449 -2.3845 0.9537
11.4995 -1.5743 -2.3852 0.9537
11.5124 -1.5036 -2.3859 0.9537
11.5249 -1.4328 -2.3866 0.9537
11.5486 -1.2909 -2.3880 0.9537
11.5598 -1.2198 -2.3887 0.9536
11.5706 -1.1487 -2.3895 0.9536
11.5810 -1.0774 -2.3902 0.9536
11.5909 -1.0061 -2.3909 0.9536
11.6094 -0.8631 -2.3923 0.9536
11.6180 -0.7916 -2.3930 0.9536
11.6261 -0.7199 -2.3938 0.9535
11.6339 -0.6482 -2.3945 0.9535
11.6412 -0.5764 -2.3952 0.9535
11.6544 -0.4326 -2.3966 0.9535
11.6710 -0.2166 -2.3988 0.9535
11.6756 -0.1445 -2.3995 0.9534
11.6897 0.1446 -2.4024 0.9534
11.6921 0.2169 -2.4032 0.9534
11.6973 0.5067 -2.4061 0.9533
11.6974 0.5792 -2.4068 0.9533
11.6972 0.6517 -2.4075 0.9533
11.6953 0.7968 -2.4090 0.9533
11.6936 0.8694 -2.4097 0.9532
11.6916 0.9420 -2.4104 0.9532
11.6861 1.0871 -2.4119 0.9532
11.6826 1.1597 -2.4126 0.9532
11.6788 1.2324 -2.4133 0.9532
11.6697 1.3775 -2.4148 0.9531
11.6588 1.5227 -2.4162 0.9531
11.6390 1.7403 -2.4184 0.9531
11.5970 2.1024 -2.4220 0.9530
11.5770 2.2470 -2.4235 0.9530
11.5664 2.3192 -2.4242 0.9530
11.5062 2.6797 -2.4278 0.9529
11.4790 2.8235 -2.4293 0.9529
11.4192 3.1102 -2.4321 0.9528
11.4031 3.1817 -2.4328 0.9528
11.3864 3.2532 -2.4336 0.9528
11.3695 3.3245 -2.4343 0.9528
11.3520 3.3957 -2.4350 0.9528
11.3341 3.4669 -2.4357 0.9528
11.2970 3.6089 -2.4371 0.9527
11.2777 3.6798 -2.4378 0.9527
11.2580 3.7505 -2.4385 0.9527
11.1747 4.0325 -2.4414 0.9526
11.1304 4.1728 -2.4428 0.9526
11.0605 4.3823 -2.4449 0.9526
10.9353 4.7289 -2.4483 0.9525
10.9089 4.7978 -2.4490 0.9525
10.8548 4.9351 -2.4504 0.9525
10.7989 5.0718 -2.4518 0.9524
10.7703 5.1399 -2.4524 0.9524
10.6517 5.4107 -2.4551 0.9524
10.5897 5.5451 -2.4565 0.9524
10.5261 5.6787 -2.4578 0.9523
10.4273 5.8778 -2.4598 0.9523
10.3594 6.0095 -2.4611 0.9523
10.2897 6.1404 -2.4624 0.9522
10.2184 6.2705 -2.4637 0.9522
10.1821 6.3352 -2.4644 0.9522
10.1454 6.3998 -2.4650 0.9522
10.1082 6.4641 -2.4657 0.9522
10.0707 6.5281 -2.4663 0.9522
9.9943 6.6556 -2.4676 0.9521
9.9555 6.7190 -2.4682 0.9521
9.8767 6.8452 -2.4695 0.9521
9.7142 7.0945 -2.4720 0.9521
9.6305 7.2177 -2.4732 0.9520
9.5880 7.2789 -2.4738 0.9520
9.5452 7.3399 -2.4744 0.9520
9.5019 7.4006 -2.4750 0.9520
9.4143 7.5212 -2.4762 0.9520
9.3698 7.5811 -2.4768 0.9520
9.3250 7.6408 -2.4774 0.9520
9.2342 7.7592 -2.4786 0.9519
9.1882 7.8180 -2.4792 0.9519
8.5176 7.4310 -2.3229 0.9549
8.4735 7.4853 -2.3234 0.9549
8.3842 7.5930 -2.3245 0.9549
8.2934 7.6996 -2.3256 0.9548
8.2475 7.7525 -2.3261 0.9548
8.1546 7.8575 -2.3271 0.9548
8.1077 7.9095 -2.3277 0.9548
8.0604 7.9613 -2.3282 0.9548
7.8189 8.2156 -2.3307 0.9547
7.7696 8.2656 -2.3312 0.9547
7.6700 8.3646 -2.3322 0.9547
7.6198 8.4136 -2.3327 0.9547
7.5692 8.4624 -2.3332 0.9547
7.3636 8.6541 -2.3351 0.9547
7.2589 8.7480 -2.3360 0.9546
7.2061 8.7945 -2.3365 0.9546
7.0995 8.8864 -2.3374 0.9546
6.9375 9.0218 -2.3388 0.9546
6.8279 9.1104 -2.3396 0.9546
6.7727 9.1541 -2.3401 0.9546
6.7172 9.1975 -2.3405 0.9546
6.6614 9.2406 -2.3409 0.9545
6.5490 9.3256 -2.3418 0.9545
6.4924 9.3676 -2.3422 0.9545
6.4354 9.4093 -2.3426 0.9545
6.3783 9.4505 -2.3430 0.9545
6.3208 9.4915 -2.3434 0.9545
6.2630 9.5320 -2.3438 0.9545
6.2050 9.5722 -2.3442 0.9545
6.0883 9.6514 -2.3450 0.9545
6.0294 9.6905 -2.3454 0.9545
5.9704 9.7292 -2.3458 0.9545
5.8515 9.8055 -2.3466 0.9544
5.7316 9.8802 -2.3473 0.9544
5.6107 9.9534 -2.3480 0.9544
5.4888 10.0251 -2.3488 0.9544
5.4275 10.0604 -2.3491 0.9544
5.0549 10.2636 -2.3511 0.9544
4.9920 10.2961 -2.3514 0.9543
4.9289 10.3282 -2.3518 0.9543
4.5091 9.6007 -2.1797 0.9576
4.3898 9.4990 -2.1504 0.9582
4.2365 9.3182 -2.1035 0.9591
3.9951 9.2384 -2.0684 0.9597
3.9077 9.1919 -2.0526 0.9600
3.7192 9.0581 -2.0123 0.9608
3.6347 9.1736 -2.0278 0.9605
2.6641 7.3826 -1.6129 0.9685
2.6094 7.3736 -1.6074 0.9686
2.5551 7.3646 -1.6019 0.9687
2.5011 7.3557 -1.5966 0.9688
2.4521 7.3605 -1.5943 0.9688
2.4143 7.3995 -1.5995 0.9687
2.3524 7.6906 -1.6527 0.9677
2.4683 9.2882 -1.9750 0.9615
2.2041 9.4640 -1.9969 0.9611
2.1509 9.5010 -2.0019 0.9610
2.0974 9.5383 -2.0070 0.9609
2.0436 9.5757 -2.0121 0.9608
1.7705 9.7660 -2.0396 0.9603
1.5946 9.8315 -2.0468 0.9601
1.4489 10.1179 -2.1005 0.9591
1.3907 10.1585 -2.1071 0.9590
1.2057 10.2141 -2.1136 0.9589
1.0332 10.4074 -2.1493 0.9582
0.9721 10.4499 -2.1567 0.9580
0.8488 10.5358 -2.1721 0.9578
0.7235 10.6192 -2.1873 0.9575
0.6562 10.5967 -2.1818 0.9576
0.4606 10.6345 -2.1875 0.9575
0.3957 10.6603 -2.1922 0.9574
0.0677 10.9516 -2.2506 0.9563
-0.1372 11.0943 -2.2801 0.9557
-0.4191 11.2905 -2.3218 0.9549
-0.4913 11.3407 -2.3327 0.9547
-0.5640 11.3914 -2.3438 0.9545
-0.7107 11.4784 -2.3633 0.9541
-0.7817 11.4735 -2.3633 0.9541
-0.9943 11.4562 -2.3631 0.9541
-1.0651 11.4495 -2.3630 0.9541
-1.1359 11.4423 -2.3630 0.9541
-1.2066 11.4347 -2.3629 0.9541
-1.2772 11.4266 -2.3628 0.9541
-1.4888 11.3996 -2.3625 0.9541
-1.5592 11.3897 -2.3624 0.9541
-1.6296 11.3793 -2.3623 0.9541
-1.6998 11.3685 -2.3622 0.9541
-1.9102 11.3333 -2.3619 0.9542
-1.9801 11.3207 -2.3617 0.9542
-2.1894 11.2800 -2.3613 0.9542
-2.3284 11.2507 -2.3610 0.9542
-2.4671 11.2195 -2.3607 0.9542
-2.5362 11.2032 -2.3605 0.9542
-2.6053 11.1866 -2.3604 0.9542
-2.8117 11.1338 -2.3598 0.9542
-2.8803 11.1153 -2.3597 0.9542
-3.0853 11.0572 -2.3591 0.9542
-3.3566 10.9735 -2.3582 0.9542
-3.5585 10.9062 -2.3575 0.9542
-3.6256 10.8828 -2.3573 0.9542
-3.8256 10.8103 -2.3565 0.9543
-3.8920 10.7853 -2.3563 0.9543
-3.9582 10.7598 -2.3560 0.9543
-4.1556 10.6808 -2.3552 0.9543
-4.2211 10.6537 -2.3549 0.9543
-4.2864 10.6261 -2.3547 0.9543
-4.3515 10.5981 -2.3544 0.9543
-4.4164 10.5696 -2.3541 0.9543
-4.4811 10.5408 -2.3538 0.9543
-4.5456 10.5116 -2.3535 0.9543
-4.6741 10.4518 -2.3529 0.9543
-4.8018 10.3905 -2.3523 0.9543
-4.9286 10.3276 -2.3516 0.9543
-4.9917 10.2955 -2.3513 0.9544
-5.0546 10.2630 -2.3510 0.9544
-5.1173 10.2302 -2.3507 0.9544
-5.1797 10.1969 -2.3503 0.9544
-5.3645 9.5168 -2.2450 0.9564
-5.6709 9.9165 -2.3475 0.9544
-5.7312 9.8797 -2.3472 0.9544
-5.9107 9.7670 -2.3461 0.9545
-6.0291 9.6900 -2.3453 0.9545
-6.0879 9.6509 -2.3449 0.9545
-6.2627 9.5315 -2.3437 0.9545
-6.3204 9.4909 -2.3433 0.9545
-6.4920 9.3671 -2.3421 0.9545
-6.5486 9.3251 -2.3417 0.9545
-6.6049 9.2827 -2.3412 0.9545
-6.6610 9.2400 -2.3408 0.9546
-6.7723 9.1535 -2.3399 0.9546
-6.8275 9.1098 -2.3395 0.9546
-6.8824 9.0657 -2.3391 0.9546
-6.9370 9.0213 -2.3386 0.9546
-7.3627 8.6530 -2.3348 0.9547
-7.4658 8.5575 -2.3338 0.9547
-7.5169 8.5092 -2.3332 0.9547
-7.5645 8.3526 -2.3158 0.9550
-7.6681 8.3624 -2.3316 0.9547
-7.7353 8.2291 -2.3209 0.9549
-7.7193 8.1110 -2.3010 0.9553
-7.8152 8.1107 -2.3146 0.9550
-8.0089 8.0089 -2.3276 0.9548
-8.0579 7.9588 -2.3275 0.9548
-8.1520 7.8550 -2.3264 0.9548
-8.2907 7.6972 -2.3248 0.9549
-8.4262 7.5368 -2.3232 0.9549
-8.5148 7.4286 -2.3221 0.9549
-8.5585 7.3740 -2.3216 0.9549
-8.6019 7.3192 -2.3210 0.9549
-8.6876 7.2088 -2.3199 0.9549
-8.7299 7.1532 -2.3194 0.9550
-8.7719 7.0974 -2.3188 0.9550
-8.8547 6.9849 -2.3177 0.9550
-8.9360 6.8715 -2.3165 0.9550
-9.0158 6.7571 -2.3154 0.9550
-9.0552 6.6995 -2.3148 0.9550
-9.0941 6.6417 -2.3142 0.9551
-9.1357 6.5858 -2.3144 0.9551
-9.9519 6.7166 -2.4673 0.9522
-9.9907 6.6532 -2.4667 0.9522
-10.0669 6.5257 -2.4654 0.9522
-10.2858 6.1381 -2.4615 0.9523
-10.3208 6.0728 -2.4609 0.9523
-10.3554 6.0072 -2.4602 0.9523
-10.3896 5.9414 -2.4595 0.9523
-10.4566 5.8094 -2.4582 0.9523
-10.4895 5.7430 -2.4576 0.9523
-10.5220 5.6765 -2.4569 0.9524
-10.5856 5.5429 -2.4555 0.9524
-10.6475 5.4086 -2.4542 0.9524
-10.6778 5.3412 -2.4535 0.9524
-10.8777 4.8645 -2.4487 0.9525
-10.9045 4.7958 -2.4480 0.9525
-10.9308 4.7270 -2.4474 0.9525
-10.9822 4.5888 -2.4460 0.9526
-11.0319 4.4501 -2.4446 0.9526
-11.0560 4.3805 -2.4439 0.9526
-11.0797 4.3108 -2.4432 0.9526
-11.1482 4.1010 -2.4411 0.9527
-11.1701 4.0308 -2.4404 0.9527
-11.1916 3.9606 -2.4397 0.9527
-11.2126 3.8901 -2.4390 0.9527
-11.2332 3.8196 -2.4382 0.9527
-11.2533 3.7490 -2.4375 0.9527
-11.2730 3.6782 -2.4368 0.9527
-11.2923 3.6074 -2.4361 0.9527
-11.3110 3.5365 -2.4354 0.9528
-11.3294 3.4654 -2.4347 0.9528
-11.3647 3.3231 -2.4333 0.9528
-11.3817 3.2518 -2.4326 0.9528
-11.3983 3.1804 -2.4318 0.9528
-11.4143 3.1089 -2.4311 0.9528
-11.4300 3.0374 -2.4304 0.9529
-11.4451 2.9658 -2.4297 0.9529
-11.4741 2.8223 -2.4282 0.9529
-11.5143 2.6066 -2.4261 0.9529
-11.5267 2.5346 -2.4254 0.9529
-11.5503 2.3905 -2.4239 0.9530
-11.5614 2.3183 -2.4232 0.9530
-11.5721 2.2461 -2.4225 0.9530
-11.5920 2.1015 -2.4210 0.9530
-11.6013 2.0292 -2.4203 0.9530
-11.6410 1.6670 -2.4167 0.9531
-11.6476 1.5945 -2.4159 0.9531
-11.6537 1.5220 -2.4152 0.9531
-11.6594 1.4495 -2.4145 0.9532
-11.6647 1.3769 -2.4138 0.9532
-11.6738 1.2318 -2.4123 0.9532
-11.6776 1.1593 -2.4116 0.9532
-11.6810 1.0867 -2.4108 0.9532
-11.6886 0.8690 -2.4087 0.9533
-11.6902 0.7964 -2.4079 0.9533
-11.6924 0.5789 -2.4058 0.9533
-11.6916 0.4340 -2.4043 0.9533
-11.6890 0.2892 -2.4029 0.9534
-11.6847 0.1445 -2.4014 0.9534
-11.2507 -0.0696 -2.3993 0.9550
-11.2467 -0.1391 -2.3986 0.9550
-11.2425 -0.2086 -2.3979 0.9551
-11.2376 -0.2780 -2.3972 0.9551
-11.2325 -0.3475 -2.3965 0.9551
-11.2268 -0.4168 -2.3958 0.9551
-11.2208 -0.4861 -2.3951 0.9551
-11.1842 -0.8316 -2.3916 0.9552
-11.1757 -0.9004 -2.3910 0.9552
-11.1667 -0.9692 -2.3903 0.9552
-11.1572 -1.0380 -2.3896 0.9552
-11.1264 -1.2437 -2.3875 0.9552
-11.0668 -1.5848 -2.3841 0.9553
-11.0537 -1.6528 -2.3834 0.9553
-11.0261 -1.7883 -2.3821 0.9553
-11.0117 -1.8559 -2.3814 0.9554
-10.9969 -1.9235 -2.3807 0.9554
-10.9500 -2.1254 -2.3787 0.9554
-10.8995 -2.3262 -2.3767 0.9554
-10.8818 -2.3929 -2.3760 0.9555
-10.8265 -2.5921 -2.3740 0.9555
-10.8072 -2.6583 -2.3734 0.9555
-10.7875 -2.7243 -2.3727 0.9555
-10.7471 -2.8560 -2.3714 0.9555
-10.6614 -3.1175 -2.3688 0.9556
-10.6390 -3.1825 -2.3681 0.9556
-10.6162 -3.2473 -2.3675 0.9556
-10.5694 -3.3765 -2.3662 0.9556
-10.4458 -3.6967 -2.3630 0.9557
-10.4200 -3.7602 -2.3623 0.9557
-10.3937 -3.8235 -2.3617 0.9557
-10.2284 -4.1998 -2.3579 0.9558
-10.1995 -4.2618 -2.3573 0.9558
-10.1407 -4.3854 -2.3561 0.9558
-10.1108 -4.4468 -2.3555 0.9558
-10.0805 -4.5081 -2.3549 0.9558
-10.0498 -4.5691 -2.3542 0.9559
-9.9874 -4.6906 -2.3530 0.9559
-9.8582 -4.9312 -2.3506 0.9559
-9.8250 -4.9908 -2.3500 0.9559
-9.7915 -5.0502 -2.3494 0.9559
-9.6888 -5.2271 -2.3477 0.9560
-9.6187 -5.3438 -2.3465 0.9560
-9.5830 -5.4019 -2.3459 0.9560
-9.2475 -5.9137 -2.3408 0.9561
-9.2086 -5.9693 -2.3402 0.9561
-9.1693 -6.0248 -2.3397 0.9561
-9.1297 -6.0799 -2.3391 0.9561
-8.9270 -6.3519 -2.3364 0.9562
-8.8855 -6.4055 -2.3359 0.9562
-8.8437 -6.4589 -2.3354 0.9562
-8.7592 -6.5647 -2.3343 0.9562
-8.6734 -6.6697 -2.3333 0.9562
-8.6301 -6.7216 -2.3327 0.9562
-8.5426 -6.8248 -2.3317 0.9563
-8.4983 -6.8760 -2.3312 0.9563
-8.2267 -7.1773 -2.3282 0.9563
-8.1340 -7.2754 -2.3272 0.9563
-8.0400 -7.3724 -2.3262 0.9564
-7.9926 -7.4205 -2.3258 0.9564
-7.9449 -7.4682 -2.3253 0.9564
-7.8970 -7.5157 -2.3248 0.9564
-7.7025 -7.7025 -2.3229 0.9564
-7.6532 -7.7485 -2.3225 0.9564
-7.6036 -7.7941 -2.3220 0.9564
-7.3009 -8.0616 -2.3194 0.9565
-7.2495 -8.1051 -2.3189 0.9565
-7.1461 -8.1911 -2.3181 0.9565
-7.0940 -8.2336 -2.3177 0.9565
-7.0416 -8.2758 -2.3172 0.9565
-6.9891 -8.3177 -2.3168 0.9565
-6.9363 -8.3593 -2.3164 0.9565
-6.7227 -8.5223 -2.3148 0.9566
-6.6145 -8.6018 -2.3140 0.9566
-6.5601 -8.6411 -2.3136 0.9566
-6.5054 -8.6801 -2.3132 0.9566
-6.3954 -8.7570 -2.3124 0.9566
-6.2846 -8.8325 -2.3117 0.9566
-6.1729 -8.9067 -2.3109 0.9566
-6.1167 -8.9433 -2.3106 0.9567
-6.0603 -8.9796 -2.3102 0.9567
-5.9470 -9.0511 -2.3095 0.9567
-5.8328 -9.1212 -2.3088 0.9567
-5.7754 -9.1557 -2.3085 0.9567
-5.7179 -9.1899 -2.3081 0.9567
-5.3096 -9.4194 -2.3058 0.9567
-5.1913 -9.4818 -2.3052 0.9568
-5.1319 -9.5125 -2.3049 0.9568
-5.0723 -9.5428 -2.3046 0.9568
-5.0125 -9.5727 -2.3043 0.9568
-4.9526 -9.6023 -2.3040 0.9568
-4.8925 -9.6316 -2.3037 0.9568
-4.8322 -9.6604 -2.3035 0.9568
-4.5896 -9.7723 -2.3023 0.9568
-4.4674 -9.8260 -2.3018 0.9568
-4.3445 -9.8783 -2.3013 0.9568
-4.2829 -9.9039 -2.3010 0.9568
-4.2211 -9.9291 -2.3008 0.9568
-4.1591 -9.9540 -2.3005 0.9568
-4.0971 -9.9784 -2.3003 0.9568
-3.8474 -10.0726 -2.2994 0.9569
-3.7847 -10.0952 -2.2991 0.9569
-3.7218 -10.1175 -2.2989 0.9569
-3.6588 -10.1394 -2.2987 0.9569
-3.5958 -10.1609 -2.2985 0.9569
-3.5325 -10.1820 -2.2983 0.9569
-3.4057 -10.2231 -2.2979 0.9569
-3.2785 -10.2627 -2.2975 0.9569
-3.2147 -10.2819 -2.2973 0.9569
-2.9584 -10.3550 -2.2966 0.9569
-2.8941 -10.3723 -2.2964 0.9569
-2.7652 -10.4059 -2.2961 0.9569
-2.6360 -10.4378 -2.2958 0.9569
-2.5712 -10.4532 -2.2956 0.9569
-2.4414 -10.4829 -2.2953 0.9569
-2.3764 -10.4972 -2.2952 0.9569
-2.1808 -10.5376 -2.2948 0.9569
-1.7879 -10.6081 -2.2941 0.9570
-1.6564 -10.6285 -2.2939 0.9570
-1.5247 -10.6473 -2.2937 0.9570
-1.4588 -10.6561 -2.2936 0.9570
-1.3928 -10.6646 -2.2935 0.9570
-1.3268 -10.6726 -2.2935 0.9570
-1.1946 -10.6876 -2.2933 0.9570
-1.1285 -10.6944 -2.2933 0.9570
-1.0623 -10.7009 -2.2932 0.9570
-0.9960 -10.7070 -2.2931 0.9570
-0.8635 -10.7180 -2.2930 0.9570
-0.7972 -10.7229 -2.2930 0.9570
-0.7308 -10.7274 -2.2929 0.9570
-0.6645 -10.7316 -2.2929 0.9570
-0.5981 -10.7353 -2.2929 0.9570
-0.5317 -10.7387 -2.2928 0.9570
-0.4653 -10.7416 -2.2928 0.9570
-0.0665 -10.7511 -2.2927 0.9570
0.0000 -10.7513 -2.2927 0.9570
0.0665 -10.7512 -2.2927 0.9570
0.1330 -10.7506 -2.2927 0.9570
0.1995 -10.7496 -2.2928 0.9570
0.2660 -10.7483 -2.2928 0.9570
0.3324 -10.7465 -2.2928 0.9570
0.3989 -10.7444 -2.2928 0.9570
0.4653 -10.7418 -2.2928 0.9570
0.5982 -10.7357 -2.2929 0.9570
0.7973 -10.7232 -2.2931 0.9570
0.9299 -10.7130 -2.2932 0.9570
0.9961 -10.7074 -2.2932 0.9570
1.1286 -10.6948 -2.2933 0.9570
1.2608 -10.6807 -2.2935 0.9570
1.3929 -10.6651 -2.2937 0.9570
1.5249 -10.6479 -2.2938 0.9570
1.5907 -10.6387 -2.2939 0.9570
1.6565 -10.6291 -2.2940 0.9570
1.7880 -10.6088 -2.2942 0.9570
1.9193 -10.5869 -2.2945 0.9569
2.0503 -10.5634 -2.2947 0.9569
2.1157 -10.5512 -2.2948 0.9569
2.3115 -10.5119 -2.2952 0.9569
2.3766 -10.4981 -2.2954 0.9569
2.4417 -10.4838 -2.2955 0.9569
2.5715 -10.4542 -2.2958 0.9569
2.6363 -10.4388 -2.2960 0.9569
2.7656 -10.4069 -2.2963 0.9569
2.8301 -10.3903 -2.2965 0.9569
2.8945 -10.3734 -2.2966 0.9569
2.9588 -10.3561 -2.2968 0.9569
3.1512 -10.3019 -2.2974 0.9569
3.2789 -10.2639 -2.2978 0.9569
3.3426 -10.2443 -2.2980 0.9569
3.4697 -10.2040 -2.2984 0.9569
3.7224 -10.1188 -2.2992 0.9569
3.8480 -10.0740 -2.2997 0.9569
4.0355 -10.0040 -2.3004 0.9568
4.1598 -9.9555 -2.3009 0.9568
4.2836 -9.9054 -2.3014 0.9568
4.3452 -9.8799 -2.3017 0.9568
4.4681 -9.8276 -2.3022 0.9568
4.7727 -9.6906 -2.3036 0.9568
5.0733 -9.5445 -2.3050 0.9568
5.2516 -9.4526 -2.3060 0.9567
5.4283 -9.3574 -2.3069 0.9567
5.4868 -9.3250 -2.3073 0.9567
5.5452 -9.2922 -2.3076 0.9567
5.7767 -9.1576 -2.3090 0.9567
5.9483 -9.0530 -2.3100 0.9567
6.0052 -9.0175 -2.3104 0.9567
6.1744 -8.9087 -2.3115 0.9566
6.6704 -8.5643 -2.3149 0.9566
6.7244 -8.5244 -2.3153 0.9566
6.7781 -8.4841 -2.3157 0.9566
6.8317 -8.4435 -2.3162 0.9566
6.8850 -8.4026 -2.3166 0.9565
7.0435 -8.2779 -2.3178 0.9565
7.0959 -8.2358 -2.3183 0.9565
7.1480 -8.1932 -2.3187 0.9565
7.3029 -8.0637 -2.3200 0.9565
7.4049 -7.9758 -2.3209 0.9565
7.4555 -7.9314 -2.3213 0.9565
7.5058 -7.8867 -2.3218 0.9564
7.6058 -7.7963 -2.3227 0.9564
7.6554 -7.7506 -2.3231 0.9564
7.7047 -7.7047 -2.3236 0.9564
7.7537 -7.6584 -2.3241 0.9564
7.8026 -7.6119 -2.3245 0.9564
8.1364 -7.2776 -2.3279 0.9563
8.1830 -7.2287 -2.3284 0.9563
8.2753 -7.1299 -2.3294 0.9563
8.3210 -7.0802 -2.3299 0.9563
8.3665 -7.0301 -2.3304 0.9563
8.4116 -6.9797 -2.3309 0.9563
8.4564 -6.9291 -2.3314 0.9563
8.5010 -6.8781 -2.3319 0.9563
8.5453 -6.8270 -2.3324 0.9563
8.5892 -6.7755 -2.3329 0.9562
8.6329 -6.7237 -2.3335 0.9562
8.8045 -6.5140 -2.3356 0.9562
8.9300 -6.3539 -2.3372 0.9562
9.0526 -6.1915 -2.3388 0.9561
9.0929 -6.1369 -2.3394 0.9561
9.1328 -6.0819 -2.3399 0.9561
9.2117 -5.9714 -2.3410 0.9561
9.2507 -5.9157 -2.3416 0.9561
9.2893 -5.8598 -2.3422 0.9561
9.3276 -5.8036 -2.3427 0.9561
9.3656 -5.7472 -2.3433 0.9561
9.4032 -5.6905 -2.3439 0.9560
9.4775 -5.5765 -2.3450 0.9560
9.5142 -5.5192 -2.3456 0.9560
9.5505 -5.4616 -2.3462 0.9560
9.6574 -5.2874 -2.3479 0.9560
9.8618 -4.9330 -2.3515 0.9559
9.8946 -4.8731 -2.3521 0.9559
9.9272 -4.8131 -2.3527 0.9559
9.9593 -4.7529 -2.3533 0.9559
9.9910 -4.6924 -2.3539 0.9559
10.0842 -4.5097 -2.3557 0.9558
10.1146 -4.4485 -2.3563 0.9558
10.2323 -4.2013 -2.3588 0.9558
10.2608 -4.1391 -2.3594 0.9558
10.3711 -3.8882 -2.3620 0.9557
10.4240 -3.7616 -2.3632 0.9557
10.4753 -3.6344 -2.3645 0.9557
10.5252 -3.5064 -2.3658 0.9556
10.5496 -3.4422 -2.3664 0.9556
10.5736 -3.3778 -2.3671 0.9556
10.5971 -3.3133 -2.3677 0.9556
10.6203 -3.2486 -2.3684 0.9556
10.6876 -3.0535 -2.3703 0.9556
10.7718 -2.7913 -2.3730 0.9555
10.8308 -2.5932 -2.3750 0.9555
10.8497 -2.5269 -2.3756 0.9555
10.8862 -2.3938 -2.3770 0.9554
10.9039 -2.3271 -2.3776 0.9554
10.9211 -2.2603 -2.3783 0.9554
10.9380 -2.1933 -2.3790 0.9554
11.0162 -1.8567 -2.3823 0.9553
11.0841 -1.5174 -2.3857 0.9553
11.1199 -1.3127 -2.3878 0.9552
11.1310 -1.2442 -2.3885 0.9552
11.1712 -0.9696 -2.3912 0.9552
11.1803 -0.9008 -2.3919 0.9552
11.1892 -0.8324 -2.3926 0.9551
11.1970 -0.7629 -2.3933 0.9551
11.2121 -0.6247 -2.3947 0.9551
11.2190 -0.5555 -2.3954 0.9551
11.2254 -0.4863 -2.3961 0.9551
11.2371 -0.3476 -2.3975 0.9551
11.2471 -0.2087 -2.3989 0.9550
11.2514 -0.1392 -2.3996 0.9550
11.2588 -0.0000 -2.4010 0.9550
11.2645 0.1393 -2.4024 0.9550
11.2698 0.3486 -2.4045 0.9549
11.2707 0.4184 -2.4052 0.9549
11.2521 1.1873 -2.4129 0.9548
11.2479 1.2573 -2.4136 0.9548
11.2380 1.3971 -2.4150 0.9547
11.2324 1.4670 -2.4157 0.9547
11.2199 1.6067 -2.4171 0.9547
11.2056 1.7463 -2.4185 0.9547
11.1978 1.8161 -2.4192 0.9547
11.1718 2.0254 -2.4212 0.9546
11.1623 2.0950 -2.4219 0.9546
11.1524 2.1646 -2.4226 0.9546
11.1420 2.2342 -2.4233 0.9546
11.1199 2.3732 -2.4247 0.9546
11.1082 2.4425 -2.4254 0.9545
11.0961 2.5120 -2.4261 0.9545
11.0570 2.7197 -2.4282 0.9545
10.9989 2.9958 -2.4310 0.9544
10.9832 3.0646 -2.4317 0.9544
10.9672 3.1333 -2.4323 0.9544
10.9507 3.2020 -2.4330 0.9544
10.8804 3.4758 -2.4358 0.9544
10.8426 3.6121 -2.4371 0.9543
10.8231 3.6801 -2.4378 0.9543
10.8031 3.7480 -2.4385 0.9543
10.7827 3.8158 -2.4392 0.9543
10.7619 3.8836 -2.4398 0.9543
10.7190 4.0186 -2.4412 0.9543
10.6969 4.0859 -2.4419 0.9542
10.6514 4.2202 -2.4432 0.9542
10.6280 4.2872 -2.4439 0.9542
10.6042 4.3540 -2.4446 0.9542
10.4787 4.6861 -2.4479 0.9541
10.4524 4.7522 -2.4485 0.9541
10.4256 4.8180 -2.4492 0.9541
10.3708 4.9492 -2.4505 0.9541
10.3427 5.0146 -2.4512 0.9541
10.3143 5.0798 -2.4518 0.9541
10.2561 5.2097 -2.4531 0.9540
10.1347 5.4676 -2.4557 0.9540
10.1033 5.5316 -2.4563 0.9540
10.0716 5.5954 -2.4570 0.9540
10.0067 5.7225 -2.4582 0.9539
9.9065 5.9117 -2.4601 0.9539
9.8376 6.0368 -2.4614 0.9539
9.7671 6.1611 -2.4626 0.9539
9.7313 6.2230 -2.4632 0.9539
9.4302 6.7099 -2.4681 0.9538
9.3510 6.8293 -2.4693 0.9537
9.3108 6.8887 -2.4699 0.9537
9.1880 7.0652 -2.4717 0.9537
9.1463 7.1236 -2.4722 0.9537
8.9757 7.3545 -2.4746 0.9536
8.3116 7.2513 -2.3522 0.9559
8.1556 7.2045 -2.3206 0.9565
8.0695 7.3080 -2.3216 0.9565
7.9377 7.4614 -2.3232 0.9564
7.8932 7.5120 -2.3237 0.9564
7.8483 7.5623 -2.3242 0.9564
7.7574 7.6620 -2.3252 0.9564
7.6653 7.7607 -2.3262 0.9564
7.6188 7.8096 -2.3266 0.9564
7.5719 7.8582 -2.3271 0.9563
7.5247 7.9065 -2.3276 0.9563
7.3813 8.0497 -2.3290 0.9563
7.3329 8.0968 -2.3295 0.9563
7.1857 8.2363 -2.3309 0.9563
7.1360 8.2823 -2.3314 0.9563
7.0860 8.3279 -2.3318 0.9563
6.7799 8.5948 -2.3345 0.9562
6.7279 8.6382 -2.3349 0.9562
6.6230 8.7239 -2.3358 0.9562
6.5169 8.8083 -2.3366 0.9562
6.4634 8.8500 -2.3370 0.9562
6.3015 8.9731 -2.3382 0.9561
6.2469 9.0134 -2.3386 0.9561
6.1371 9.0931 -2.3394 0.9561
6.0817 9.1324 -2.3398 0.9561
6.0261 9.1714 -2.3402 0.9561
5.9703 9.2100 -2.3406 0.9561
5.9142 9.2482 -2.3410 0.9561
5.8578 9.2861 -2.3414 0.9561
5.8012 9.3236 -2.3417 0.9561
5.6298 9.4341 -2.3428 0.9561
5.5144 9.5059 -2.3435 0.9560
5.3980 9.5763 -2.3442 0.9560
5.1031 9.7455 -2.3459 0.9560
5.0434 9.7783 -2.3463 0.9560
4.8026 9.9054 -2.3475 0.9560
4.7419 9.9362 -2.3478 0.9560
4.5083 9.5991 -2.2616 0.9576
4.3697 9.4554 -2.2213 0.9583
4.2358 9.3168 -2.1825 0.9590
4.1736 9.3327 -2.1802 0.9590
4.0834 9.2847 -2.1630 0.9594
3.9947 9.2374 -2.1462 0.9597
3.9073 9.1909 -2.1297 0.9600
3.8212 9.1451 -2.1136 0.9603
3.6344 9.1728 -2.1041 0.9604
3.5684 9.1716 -2.0987 0.9605
2.7714 7.3924 -1.6836 0.9682
2.6065 7.3653 -1.6661 0.9686
2.5522 7.3564 -1.6605 0.9687
2.4491 7.3514 -1.6524 0.9688
2.4107 7.3881 -1.6573 0.9687
2.3681 7.5742 -1.6923 0.9681
2.6309 9.2085 -2.0423 0.9616
2.4143 9.3168 -2.0524 0.9614
2.0973 9.5376 -2.0825 0.9608
2.0435 9.5751 -2.0879 0.9607
1.8805 9.6886 -2.1047 0.9604
1.8256 9.7269 -2.1105 0.9603
1.7704 9.7653 -2.1164 0.9602
1.5374 9.8645 -2.1290 0.9600
1.5067 10.0769 -2.1728 0.9592
1.4488 10.1172 -2.1795 0.9591
1.3881 10.1401 -2.1825 0.9590
1.2627 10.1572 -2.1827 0.9590
1.1999 10.1652 -2.1828 0.9590
1.0749 10.1866 -2.1844 0.9590
0.8342 10.3542 -2.2152 0.9584
0.5865 10.5267 -2.2483 0.9578
0.5234 10.5706 -2.2570 0.9576
0.3957 10.6595 -2.2747 0.9573
0.3330 10.7661 -2.2970 0.9569
0.1349 10.9040 -2.3255 0.9564
0.0000 10.9979 -2.3453 0.9560
-0.2736 11.0591 -2.3591 0.9558
-0.5471 11.0485 -2.3590 0.9558
-0.7519 11.0358 -2.3589 0.9558
-0.8201 11.0307 -2.3588 0.9558
-0.8883 11.0252 -2.3588 0.9558
-0.9564 11.0192 -2.3587 0.9558
-1.0245 11.0127 -2.3586 0.9558
-1.1606 10.9986 -2.3585 0.9558
-1.2964 10.9826 -2.3583 0.9558
-1.3643 10.9740 -2.3582 0.9558
-1.4998 10.9554 -2.3580 0.9558
-1.5674 10.9454 -2.3579 0.9558
-1.7700 10.9129 -2.3576 0.9558
-1.9046 10.8891 -2.3574 0.9558
-1.9718 10.8765 -2.3572 0.9558
-2.0389 10.8635 -2.3571 0.9558
-2.1729 10.8362 -2.3568 0.9558
-2.3064 10.8071 -2.3565 0.9558
-2.3730 10.7920 -2.3564 0.9558
-2.5060 10.7603 -2.3561 0.9558
-2.6385 10.7270 -2.3557 0.9558
-2.7047 10.7096 -2.3556 0.9558
-2.7706 10.6919 -2.3554 0.9558
-3.2288 10.5558 -2.3540 0.9559
-3.3585 10.5132 -2.3536 0.9559
-3.4876 10.4688 -2.3531 0.9559
-3.6801 10.3991 -2.3524 0.9559
-3.7439 10.3750 -2.3521 0.9559
-3.9345 10.3004 -2.3514 0.9559
-4.1235 10.2222 -2.3506 0.9559
-4.1861 10.1953 -2.3503 0.9559
-4.2486 10.1680 -2.3500 0.9559
-4.3730 10.1122 -2.3495 0.9559
-4.4349 10.0837 -2.3492 0.9559
-4.4966 10.0548 -2.3489 0.9560
-4.6194 9.9959 -2.3483 0.9560
-4.7415 9.9354 -2.3476 0.9560
-4.8021 9.9046 -2.3473 0.9560
-4.9230 9.8418 -2.3467 0.9560
-4.9337 9.4221 -2.2681 0.9574
-4.9760 9.3616 -2.2609 0.9576
-5.1947 9.3502 -2.2810 0.9572
-5.3196 9.4371 -2.3102 0.9567
-5.4559 9.5405 -2.3437 0.9560
-5.5139 9.5051 -2.3434 0.9561
-5.6294 9.4334 -2.3427 0.9561
-5.8007 9.3229 -2.3416 0.9561
-5.9698 9.2093 -2.3404 0.9561
-6.0256 9.1706 -2.3400 0.9561
-6.1365 9.0924 -2.3393 0.9561
-6.1916 9.0527 -2.3389 0.9561
-6.3009 8.9724 -2.3381 0.9561
-6.4092 8.8907 -2.3372 0.9562
-6.6750 8.6805 -2.3351 0.9562
-6.8310 8.5503 -2.3338 0.9562
-7.0848 8.3264 -2.3314 0.9563
-7.2822 8.1415 -2.3294 0.9563
-7.3791 8.0474 -2.3284 0.9563
-7.4750 7.9522 -2.3274 0.9563
-7.6165 7.8073 -2.3260 0.9564
-7.6630 7.7584 -2.3255 0.9564
-7.7551 7.6597 -2.3245 0.9564
-7.8458 7.5599 -2.3235 0.9564
-7.9353 7.4591 -2.3225 0.9564
-8.1101 7.2541 -2.3204 0.9565
-8.1530 7.2022 -2.3199 0.9565
-8.1955 7.1500 -2.3193 0.9565
-8.3210 6.9919 -2.3178 0.9565
-8.3622 6.9387 -2.3172 0.9565
-8.4434 6.8316 -2.3161 0.9566
-8.4835 6.7777 -2.3156 0.9566
-8.5233 6.7235 -2.3151 0.9566
-8.6017 6.6144 -2.3140 0.9566
-8.7167 6.4491 -2.3123 0.9566
-8.7543 6.3935 -2.3117 0.9566
-9.3619 6.6613 -2.4502 0.9541
-9.4659 6.6475 -2.4667 0.9538
-9.5805 6.4660 -2.4648 0.9538
-9.7990 6.0969 -2.4611 0.9539
-9.8340 6.0347 -2.4605 0.9539
-9.8687 5.9722 -2.4599 0.9539
-9.9029 5.9096 -2.4592 0.9539
-9.9367 5.8467 -2.4586 0.9539
-10.0031 5.7204 -2.4573 0.9540
-10.0356 5.6570 -2.4567 0.9540
-10.0678 5.5933 -2.4561 0.9540
-10.0996 5.5295 -2.4554 0.9540
-10.1309 5.4655 -2.4548 0.9540
-10.1619 5.4013 -2.4541 0.9540
-10.2225 5.2725 -2.4528 0.9540
-10.2522 5.2078 -2.4522 0.9541
-10.3103 5.0779 -2.4509 0.9541
-10.3388 5.0127 -2.4502 0.9541
-10.3944 4.8818 -2.4489 0.9541
-10.4216 4.8161 -2.4483 0.9541
-10.4747 4.6843 -2.4469 0.9542
-10.5512 4.4855 -2.4449 0.9542
-10.5758 4.4190 -2.4443 0.9542
-10.6001 4.3523 -2.4436 0.9542
-10.6239 4.2855 -2.4429 0.9542
-10.6472 4.2186 -2.4423 0.9542
-10.6702 4.1515 -2.4416 0.9543
-10.7577 3.8820 -2.4389 0.9543
-10.7989 3.7466 -2.4375 0.9543
-10.8188 3.6787 -2.4369 0.9543
-10.8574 3.5426 -2.4355 0.9544
-10.8760 3.4744 -2.4348 0.9544
-10.9120 3.3378 -2.4334 0.9544
-10.9462 3.2007 -2.4321 0.9544
-10.9788 3.0634 -2.4307 0.9545
-11.0096 2.9257 -2.4293 0.9545
-11.0386 2.7877 -2.4279 0.9545
-11.0525 2.7186 -2.4272 0.9545
-11.0659 2.6494 -2.4265 0.9545
-11.0789 2.5802 -2.4258 0.9545
-11.0915 2.5109 -2.4251 0.9546
-11.1036 2.4416 -2.4244 0.9546
-11.1764 1.9548 -2.4196 0.9547
-11.1932 1.8154 -2.4182 0.9547
-11.2010 1.7456 -2.4175 0.9547
-11.2333 1.3965 -2.4140 0.9548
-11.2385 1.3266 -2.4133 0.9548
-11.2432 1.2567 -2.4126 0.9548
-11.2513 1.1169 -2.4112 0.9548
-11.2603 0.9072 -2.4091 0.9548
-11.2654 0.6976 -2.4070 0.9549
-11.2662 0.6277 -2.4063 0.9549
-11.2665 0.4880 -2.4049 0.9549
-11.2621 0.2089 -2.4021 0.9550
-11.2599 0.1392 -2.4014 0.9550
-11.2572 0.0696 -2.4007 0.9550
-10.8584 0.0000 -2.4000 0.9565
-10.8551 -0.0672 -2.3993 0.9565
-10.8429 -0.2683 -2.3973 0.9565
-10.8380 -0.3352 -2.3966 0.9566
-10.8327 -0.4022 -2.3960 0.9566
-10.8208 -0.5358 -2.3946 0.9566
-10.8143 -0.6025 -2.3940 0.9566
-10.8073 -0.6692 -2.3933 0.9566
-10.7922 -0.8024 -2.3920 0.9566
-10.7841 -0.8689 -2.3913 0.9566
-10.7665 -1.0016 -2.3900 0.9567
-10.7155 -1.3321 -2.3866 0.9567
-10.6923 -1.4638 -2.3853 0.9568
-10.6801 -1.5295 -2.3847 0.9568
-10.6411 -1.7259 -2.3827 0.9568
-10.6273 -1.7912 -2.3821 0.9568
-10.6131 -1.8564 -2.3814 0.9568
-10.5985 -1.9215 -2.3807 0.9568
-10.5836 -1.9864 -2.3801 0.9568
-10.5682 -2.0513 -2.3794 0.9569
-10.5525 -2.1160 -2.3788 0.9569
-10.5363 -2.1806 -2.3782 0.9569
-10.5197 -2.2451 -2.3775 0.9569
-10.4312 -2.5658 -2.3743 0.9569
-10.4123 -2.6296 -2.3737 0.9570
-10.3931 -2.6932 -2.3730 0.9570
-10.3735 -2.7567 -2.3724 0.9570
-10.3123 -2.9463 -2.3705 0.9570
-10.2911 -3.0092 -2.3699 0.9570
-10.2696 -3.0720 -2.3692 0.9570
-10.2477 -3.1346 -2.3686 0.9570
-10.2254 -3.1971 -2.3680 0.9571
-10.2028 -3.2594 -2.3674 0.9571
-10.1798 -3.3215 -2.3667 0.9571
-10.0590 -3.6300 -2.3637 0.9571
-10.0338 -3.6911 -2.3630 0.9571
-9.9822 -3.8130 -2.3618 0.9572
-9.9559 -3.8736 -2.3612 0.9572
-9.8748 -4.0546 -2.3594 0.9572
-9.8470 -4.1145 -2.3588 0.9572
-9.7616 -4.2932 -2.3570 0.9573
-9.7324 -4.3524 -2.3564 0.9573
-9.6730 -4.4702 -2.3552 0.9573
-9.4542 -4.8762 -2.3512 0.9574
-9.4215 -4.9334 -2.3506 0.9574
-9.3886 -4.9904 -2.3500 0.9574
-9.3552 -5.0471 -2.3495 0.9574
-9.3216 -5.1037 -2.3489 0.9574
-9.2876 -5.1600 -2.3484 0.9574
-9.2533 -5.2160 -2.3478 0.9574
-9.1838 -5.3276 -2.3467 0.9574
-9.0769 -5.4932 -2.3450 0.9575
-9.0407 -5.5479 -2.3445 0.9575
-9.0041 -5.6024 -2.3439 0.9575
-8.9672 -5.6567 -2.3434 0.9575
-8.8165 -5.8713 -2.3412 0.9575
-8.6608 -6.0822 -2.3391 0.9576
-8.5811 -6.1861 -2.3381 0.9576
-8.4593 -6.3400 -2.3366 0.9576
-8.3766 -6.4413 -2.3356 0.9576
-8.2927 -6.5417 -2.3346 0.9577
-8.2504 -6.5914 -2.3341 0.9577
-8.1215 -6.7391 -2.3326 0.9577
-8.0780 -6.7878 -2.3321 0.9577
-7.9901 -6.8843 -2.3311 0.9577
-7.9458 -6.9322 -2.3307 0.9577
-7.9012 -6.9797 -2.3302 0.9577
-7.7656 -7.1208 -2.3288 0.9578
-7.5811 -7.3050 -2.3269 0.9578
-7.5343 -7.3503 -2.3265 0.9578
-7.4400 -7.4400 -2.3256 0.9578
-7.3925 -7.4845 -2.3251 0.9578
-7.1017 -7.7449 -2.3225 0.9579
-7.0029 -7.8293 -2.3217 0.9579
-6.9030 -7.9125 -2.3209 0.9579
-6.8023 -7.9945 -2.3201 0.9579
-6.7005 -8.0752 -2.3193 0.9579
-6.5979 -8.1547 -2.3185 0.9579
-6.5462 -8.1939 -2.3181 0.9579
-6.4944 -8.2329 -2.3177 0.9580
-6.4422 -8.2715 -2.3173 0.9580
-6.3374 -8.3478 -2.3165 0.9580
-6.2846 -8.3854 -2.3162 0.9580
-6.2316 -8.4229 -2.3158 0.9580
-6.1784 -8.4599 -2.3154 0.9580
-6.0176 -8.5690 -2.3143 0.9580
-5.9636 -8.6047 -2.3140 0.9580
-5.8550 -8.6752 -2.3133 0.9580
-5.8003 -8.7099 -2.3129 0.9580
-5.6905 -8.7784 -2.3123 0.9580
-5.5242 -8.8787 -2.3113 0.9581
-5.4684 -8.9114 -2.3109 0.9581
-5.4125 -8.9438 -2.3106 0.9581
-5.3563 -8.9759 -2.3103 0.9581
-5.1868 -9.0700 -2.3094 0.9581
-5.0157 -9.1611 -2.3084 0.9581
-4.9583 -9.1907 -2.3082 0.9581
-4.9007 -9.2201 -2.3079 0.9581
-4.8430 -9.2490 -2.3076 0.9581
-4.7851 -9.2777 -2.3073 0.9581
-4.6689 -9.3339 -2.3067 0.9581
-4.5520 -9.3887 -2.3062 0.9582
-4.4345 -9.4421 -2.3057 0.9582
-4.3164 -9.4941 -2.3051 0.9582
-4.2572 -9.5196 -2.3049 0.9582
-4.0187 -9.6179 -2.3039 0.9582
-3.9588 -9.6416 -2.3037 0.9582
-3.8987 -9.6649 -2.3034 0.9582
-3.8384 -9.6879 -2.3032 0.9582
-3.7176 -9.7328 -2.3028 0.9582
-3.5963 -9.7761 -2.3023 0.9582
-3.5354 -9.7973 -2.3021 0.9582
-3.4745 -9.8181 -2.3019 0.9582
-3.1679 -9.9167 -2.3010 0.9583
-3.1063 -9.9352 -2.3008 0.9583
-2.8587 -10.0060 -2.3001 0.9583
-2.7966 -10.0228 -2.2999 0.9583
-2.6721 -10.0552 -2.2996 0.9583
-2.6096 -10.0708 -2.2994 0.9583
-2.5471 -10.0862 -2.2993 0.9583
-2.4845 -10.1011 -2.2991 0.9583
-2.2963 -10.1436 -2.2987 0.9583
-2.1704 -10.1701 -2.2985 0.9583
-2.1074 -10.1827 -2.2983 0.9583
-2.0443 -10.1950 -2.2982 0.9583
-1.9811 -10.2070 -2.2981 0.9583
-1.9179 -10.2185 -2.2980 0.9583
-1.7911 -10.2405 -2.2978 0.9583
-1.7277 -10.2509 -2.2977 0.9583
-1.6642 -10.2610 -2.2976 0.9583
-1.4097 -10.2974 -2.2972 0.9583
-1.2183 -10.3208 -2.2970 0.9583
-1.1544 -10.3278 -2.2969 0.9583
-1.0905 -10.3345 -2.2969 0.9583
-1.0265 -10.3407 -2.2968 0.9583
-0.9625 -10.3466 -2.2967 0.9583
-0.8985 -10.3522 -2.2967 0.9583
-0.8345 -10.3573 -2.2966 0.9583
-0.6421 -10.3704 -2.2965 0.9583
-0.5780 -10.3740 -2.2965 0.9583
-0.4496 -10.3802 -2.2964 0.9583
-0.2569 -10.3865 -2.2964 0.9583
-0.0642 -10.3894 -2.2964 0.9583
0.0000 -10.3896 -2.2964 0.9583
0.0643 -10.3894 -2.2964 0.9583
0.1286 -10.3888 -2.2964 0.9583
0.2570 -10.3866 -2.2964 0.9583
0.5139 -10.3775 -2.2965 0.9583
0.5781 -10.3743 -2.2965 0.9583
0.6422 -10.3707 -2.2966 0.9583
0.7063 -10.3667 -2.2966 0.9583
0.8986 -10.3525 -2.2968 0.9583
0.9626 -10.3470 -2.2968 0.9583
1.1545 -10.3282 -2.2970 0.9583
1.2184 -10.3212 -2.2971 0.9583
1.3461 -10.3061 -2.2973 0.9583
1.4098 -10.2979 -2.2973 0.9583
1.5372 -10.2805 -2.2975 0.9583
1.6008 -10.2712 -2.2976 0.9583
1.7913 -10.2412 -2.2979 0.9583
1.8547 -10.2304 -2.2980 0.9583
1.9180 -10.2192 -2.2982 0.9583
2.0445 -10.1958 -2.2984 0.9583
2.3594 -10.1306 -2.2991 0.9583
2.4848 -10.1020 -2.2993 0.9583
2.7969 -10.0238 -2.3001 0.9583
2.9831 -9.9724 -2.3007 0.9583
3.1067 -9.9364 -2.3010 0.9582
3.1683 -9.9178 -2.3012 0.9582
3.2913 -9.8795 -2.3016 0.9582
3.4750 -9.8194 -2.3022 0.9582
3.5968 -9.7774 -2.3027 0.9582
3.7787 -9.7119 -2.3033 0.9582
3.8390 -9.6892 -2.3035 0.9582
4.0194 -9.6193 -2.3043 0.9582
4.0792 -9.5953 -2.3045 0.9582
4.1985 -9.5462 -2.3050 0.9582
4.2579 -9.5211 -2.3052 0.9582
4.3763 -9.4698 -2.3058 0.9582
4.5528 -9.3903 -2.3066 0.9582
4.6114 -9.3631 -2.3068 0.9581
4.6698 -9.3355 -2.3071 0.9581
4.7280 -9.3076 -2.3074 0.9581
4.7860 -9.2793 -2.3077 0.9581
4.8439 -9.2507 -2.3080 0.9581
4.9017 -9.2217 -2.3083 0.9581
4.9592 -9.1924 -2.3086 0.9581
5.0166 -9.1627 -2.3089 0.9581
5.0739 -9.1327 -2.3092 0.9581
5.1878 -9.0717 -2.3098 0.9581
5.3011 -9.0093 -2.3104 0.9581
5.3574 -8.9776 -2.3107 0.9581
5.4696 -8.9132 -2.3114 0.9581
5.5254 -8.8804 -2.3117 0.9581
5.6365 -8.8140 -2.3124 0.9580
5.7467 -8.7462 -2.3131 0.9580
5.9649 -8.6066 -2.3145 0.9580
6.0190 -8.5709 -2.3148 0.9580
6.0728 -8.5348 -2.3152 0.9580
6.1264 -8.4985 -2.3156 0.9580
6.1799 -8.4618 -2.3159 0.9580
6.2331 -8.4247 -2.3163 0.9580
6.2861 -8.3874 -2.3167 0.9580
6.3389 -8.3497 -2.3171 0.9580
6.5478 -8.1959 -2.3186 0.9579
6.5995 -8.1566 -2.3190 0.9579
6.6510 -8.1170 -2.3194 0.9579
6.7022 -8.0772 -2.3198 0.9579
6.8040 -7.9965 -2.3206 0.9579
6.9048 -7.9145 -2.3215 0.9579
6.9549 -7.8730 -2.3219 0.9579
7.1528 -7.7043 -2.3236 0.9578
7.2016 -7.6613 -2.3240 0.9578
7.2502 -7.6181 -2.3244 0.9578
7.3945 -7.4865 -2.3258 0.9578
7.5365 -7.3523 -2.3271 0.9578
7.6761 -7.2155 -2.3285 0.9578
7.7221 -7.1693 -2.3290 0.9578
7.7679 -7.1228 -2.3294 0.9577
7.8133 -7.0761 -2.3299 0.9577
7.9481 -6.9342 -2.3313 0.9577
8.0366 -6.8382 -2.3323 0.9577
8.1240 -6.7411 -2.3333 0.9577
8.1672 -6.6921 -2.3338 0.9577
8.2102 -6.6429 -2.3343 0.9577
8.2529 -6.5934 -2.3348 0.9576
8.2953 -6.5436 -2.3353 0.9576
8.3792 -6.4433 -2.3363 0.9576
8.4207 -6.3928 -2.3368 0.9576
8.4619 -6.3419 -2.3373 0.9576
8.5838 -6.1880 -2.3388 0.9576
8.6239 -6.1362 -2.3394 0.9576
8.7421 -5.9791 -2.3409 0.9575
8.8194 -5.8732 -2.3420 0.9575
9.0800 -5.4950 -2.3458 0.9575
9.1160 -5.4400 -2.3464 0.9574
9.2219 -5.2737 -2.3480 0.9574
9.2566 -5.2178 -2.3486 0.9574
9.3248 -5.1054 -2.3497 0.9574
9.3585 -5.0488 -2.3503 0.9574
9.3918 -4.9921 -2.3509 0.9574
9.4575 -4.8779 -2.3520 0.9573
9.4898 -4.8205 -2.3526 0.9573
9.5217 -4.7629 -2.3532 0.9573
9.5847 -4.6471 -2.3543 0.9573
9.6156 -4.5888 -2.3549 0.9573
9.6765 -4.4718 -2.3561 0.9573
9.7063 -4.4130 -2.3567 0.9573
9.8506 -4.1160 -2.3597 0.9572
9.8784 -4.0560 -2.3603 0.9572
9.9058 -3.9959 -2.3609 0.9572
9.9859 -3.8144 -2.3627 0.9572
10.0628 -3.6313 -2.3645 0.9571
10.0877 -3.5699 -2.3651 0.9571
10.1122 -3.5084 -2.3658 0.9571
10.1364 -3.4467 -2.3664 0.9571
10.1602 -3.3848 -2.3670 0.9571
10.1836 -3.3228 -2.3676 0.9571
10.2066 -3.2606 -2.3682 0.9571
10.2293 -3.1983 -2.3689 0.9570
10.2516 -3.1358 -2.3695 0.9570
10.2735 -3.0731 -2.3701 0.9570
10.3162 -2.9474 -2.3714 0.9570
10.3370 -2.8843 -2.3720 0.9570
10.3775 -2.7578 -2.3733 0.9570
10.3971 -2.6942 -2.3739 0.9570
10.4164 -2.6306 -2.3746 0.9569
10.4718 -2.4388 -2.3765 0.9569
10.5069 -2.3104 -2.3778 0.9569
10.5238 -2.2460 -2.3784 0.9569
10.5723 -2.0521 -2.3804 0.9568
10.5877 -1.9872 -2.3810 0.9568
10.6587 -1.6612 -2.3843 0.9568
10.6717 -1.5956 -2.3849 0.9568
10.6843 -1.5301 -2.3856 0.9567
10.7198 -1.3327 -2.3876 0.9567
10.7414 -1.2006 -2.3889 0.9567
10.7707 -1.0020 -2.3909 0.9567
10.7798 -0.9357 -2.3916 0.9566
10.8043 -0.7361 -2.3936 0.9566
10.8117 -0.6695 -2.3942 0.9566
10.8313 -0.4692 -2.3962 0.9566
10.8370 -0.4023 -2.3969 0.9565
10.8517 -0.2014 -2.3989 0.9565
10.8595 -0.0672 -2.4003 0.9565
10.8627 -0.0000 -2.4009 0.9565
10.8680 0.1344 -2.4023 0.9565
10.8728 0.3363 -2.4043 0.9564
10.8724 0.6732 -2.4077 0.9564
10.8711 0.7406 -2.4084 0.9563
10.8672 0.8756 -2.4097 0.9563
10.8616 1.0105 -2.4111 0.9563
10.8582 1.0779 -2.4117 0.9563
10.8544 1.1453 -2.4124 0.9563
10.8501 1.2128 -2.4131 0.9563
10.8404 1.3476 -2.4144 0.9562
10.8289 1.4825 -2.4158 0.9562
10.8225 1.5499 -2.4165 0.9562
10.8159 1.6171 -2.4171 0.9562
10.8010 1.7518 -2.4185 0.9562
10.7845 1.8863 -2.4198 0.9561
10.7566 2.0878 -2.4219 0.9561
10.6895 2.4895 -2.4259 0.9560
10.6768 2.5563 -2.4265 0.9560
10.6637 2.6230 -2.4272 0.9560
10.6503 2.6896 -2.4279 0.9560
10.6363 2.7562 -2.4285 0.9560
10.6220 2.8227 -2.4292 0.9560
10.6072 2.8891 -2.4299 0.9560
10.5764 3.0218 -2.4312 0.9559
10.5440 3.1540 -2.4325 0.9559
10.4741 3.4175 -2.4352 0.9559
10.4556 3.4832 -2.4358 0.9559
10.4367 3.5487 -2.4365 0.9558
10.4173 3.6142 -2.4371 0.9558
10.3774 3.7447 -2.4384 0.9558
10.3358 3.8749 -2.4397 0.9558
10.3144 3.9398 -2.4404 0.9558
10.2926 4.0046 -2.4410 0.9558
10.2477 4.1337 -2.4423 0.9557
10.2246 4.1981 -2.4430 0.9557
10.1772 4.3266 -2.4443 0.9557
10.1529 4.3906 -2.4449 0.9557
10.0776 4.5817 -2.4468 0.9557
