ply
format ascii 1.0
element vertex 1542
property float32 x
property float32 y
property float32 z
property float32 I
end_header
17.0706 -6.0411 -2.3386 0.9296
17.1152 -5.9380 -2.3396 0.9295
17.2453 -5.6270 -2.3427 0.9294
17.4891 -4.9967 -2.3490 0.9293
17.6753 -4.4637 -2.3543 0.9291
17.7106 -4.3564 -2.3554 0.9291
17.7454 -4.2487 -2.3565 0.9290
17.7794 -4.1408 -2.3576 0.9290
17.8129 -4.0326 -2.3587 0.9290
17.9094 -3.7066 -2.3619 0.9289
17.9403 -3.5974 -2.3630 0.9289
17.9705 -3.4880 -2.3641 0.9288
18.0290 -3.2685 -2.3663 0.9288
18.0573 -3.1584 -2.3674 0.9287
18.0849 -3.0481 -2.3685 0.9287
18.1119 -2.9376 -2.3696 0.9287
18.1382 -2.8269 -2.3707 0.9286
18.3038 -2.0460 -2.3786 0.9284
18.3450 -1.8212 -2.3808 0.9283
18.3836 -1.5957 -2.3831 0.9283
18.4018 -1.4826 -2.3842 0.9282
18.4194 -1.3695 -2.3853 0.9282
18.4363 -1.2561 -2.3865 0.9282
18.4525 -1.1426 -2.3876 0.9281
18.4680 -1.0290 -2.3887 0.9281
18.5232 -0.5729 -2.3933 0.9280
18.5353 -0.4586 -2.3945 0.9279
18.5466 -0.3442 -2.3956 0.9279
18.5573 -0.2296 -2.3968 0.9279
18.5851 0.1149 -2.4002 0.9278
18.5930 0.2300 -2.4014 0.9277
18.6001 0.3451 -2.4025 0.9277
18.6066 0.4604 -2.4037 0.9277
18.6174 0.6911 -2.4060 0.9276
18.6217 0.8066 -2.4072 0.9276
18.6253 0.9222 -2.4083 0.9275
18.6328 1.5012 -2.4141 0.9274
18.6321 1.6172 -2.4153 0.9273
18.6307 1.7332 -2.4165 0.9273
18.6223 2.0816 -2.4199 0.9272
18.6073 2.4302 -2.4234 0.9271
18.5679 3.0115 -2.4293 0.9269
18.5233 3.4765 -2.4340 0.9268
18.5103 3.5927 -2.4351 0.9268
18.4966 3.7089 -2.4363 0.9267
18.4821 3.8251 -2.4375 0.9267
18.4669 3.9411 -2.4386 0.9267
18.4344 4.1732 -2.4410 0.9266
18.3989 4.4051 -2.4433 0.9265
18.3402 4.7525 -2.4468 0.9264
18.2516 5.2145 -2.4514 0.9263
18.2029 5.4450 -2.4537 0.9262
18.1774 5.5601 -2.4549 0.9262
18.1243 5.7899 -2.4572 0.9261
18.0966 5.9047 -2.4584 0.9261
18.0683 6.0193 -2.4595 0.9261
18.0093 6.2481 -2.4618 0.9260
17.9473 6.4764 -2.4641 0.9259
17.8824 6.7042 -2.4664 0.9259
17.7796 7.0445 -2.4698 0.9258
17.6702 7.3833 -2.4732 0.9257
17.4317 8.0557 -2.4800 0.9255
9.5164 4.5415 -1.3618 0.9584
9.4502 4.6543 -1.3604 0.9584
9.3511 4.8230 -1.3588 0.9585
9.3181 4.8792 -1.3584 0.9585
9.2522 4.9914 -1.3577 0.9585
9.1863 5.1036 -1.3572 0.9585
9.1205 5.2157 -1.3569 0.9585
9.0876 5.2717 -1.3568 0.9585
9.0217 5.3837 -1.3568 0.9585
8.9230 5.5519 -1.3572 0.9585
8.8901 5.6079 -1.3575 0.9585
8.7912 5.7763 -1.3585 0.9585
8.4931 6.2837 -1.3644 0.9583
8.3931 6.4540 -1.3673 0.9582
8.3596 6.5109 -1.3684 0.9582
8.2926 6.6251 -1.3708 0.9581
8.2590 6.6823 -1.3720 0.9581
8.0899 6.9702 -1.3791 0.9578
7.9532 7.2028 -1.3857 0.9576
13.4628 12.4991 -2.3725 0.9286
12.3952 11.6514 -2.1970 0.9337
13.0428 12.5676 -2.3391 0.9296
12.8052 12.4923 -2.3103 0.9304
12.7416 12.5850 -2.3128 0.9303
12.6851 12.6851 -2.3168 0.9302
12.5715 12.8864 -2.3250 0.9300
12.5144 12.9876 -2.3292 0.9298
12.7153 13.3605 -2.3820 0.9283
12.5576 13.5259 -2.3836 0.9283
12.3976 13.6893 -2.3852 0.9282
9.3085 10.4070 -1.8032 0.9452
9.2604 10.4830 -1.8064 0.9451
9.3501 10.8521 -1.8499 0.9439
9.7886 11.7967 -1.9797 0.9400
11.7357 14.3226 -2.3913 0.9280
11.6506 14.3994 -2.3921 0.9280
8.8471 11.2153 -1.8448 0.9440
11.3920 14.6265 -2.3943 0.9280
10.5588 13.9083 -2.2552 0.9320
10.4418 14.1133 -2.2673 0.9316
10.3828 14.2167 -2.2735 0.9315
10.3238 14.3209 -2.2799 0.9313
10.2047 14.5312 -2.2932 0.9309
10.0234 14.8515 -2.3140 0.9303
9.8388 15.1778 -2.3359 0.9296
9.7764 15.2879 -2.3435 0.9294
9.7137 15.3987 -2.3513 0.9292
9.5869 15.6227 -2.3672 0.9287
8.4371 13.9416 -2.1045 0.9364
8.1846 13.9101 -2.0843 0.9370
8.0133 13.8136 -2.0624 0.9376
7.7396 13.5339 -2.0135 0.9391
7.6520 13.5749 -2.0125 0.9391
7.3160 13.5609 -1.9899 0.9397
7.1860 13.5193 -1.9773 0.9401
7.0657 13.6993 -1.9907 0.9397
6.9790 13.7390 -1.9901 0.9397
6.8923 13.7787 -1.9896 0.9398
6.8056 13.8183 -1.9893 0.9398
6.3149 13.0245 -1.8693 0.9433
5.9218 12.6088 -1.7990 0.9454
5.6843 12.5026 -1.7737 0.9461
5.5599 12.4326 -1.7589 0.9466
5.2529 12.1469 -1.7091 0.9480
5.1800 12.1846 -1.7099 0.9480
4.1363 10.4394 -1.4502 0.9557
3.9025 10.6085 -1.4598 0.9554
3.6214 11.0989 -1.5077 0.9540
3.4747 11.3595 -1.5341 0.9532
3.3739 11.5385 -1.5525 0.9527
2.4745 9.7984 -1.3052 0.9601
2.4475 9.9503 -1.3233 0.9595
2.3019 9.8840 -1.3106 0.9599
2.2163 10.0788 -1.3327 0.9592
2.1690 10.1630 -1.3421 0.9590
2.1210 10.2484 -1.3516 0.9587
2.0723 10.3348 -1.3613 0.9584
1.9729 10.5115 -1.3812 0.9578
1.8058 10.7141 -1.4032 0.9571
1.7397 10.7266 -1.4034 0.9571
1.6736 10.7386 -1.4036 0.9571
1.6074 10.7502 -1.4038 0.9571
1.5359 10.7251 -1.3992 0.9572
1.0387 9.2929 -1.2076 0.9630
0.9775 9.2635 -1.2030 0.9631
0.9167 9.2343 -1.1984 0.9633
0.8661 9.3094 -1.2075 0.9630
0.7700 9.5570 -1.2382 0.9621
0.7174 9.6497 -1.2497 0.9617
0.6639 9.7442 -1.2613 0.9614
0.6094 9.8405 -1.2733 0.9610
0.5537 9.9386 -1.2855 0.9606
-0.1333 10.7734 -1.3914 0.9575
-0.1992 10.7362 -1.3868 0.9576
-0.2647 10.6993 -1.3822 0.9578
-0.3558 9.5833 -1.2385 0.9621
-0.4071 9.3991 -1.2150 0.9628
-0.4566 9.2218 -1.1924 0.9634
-0.6161 9.0429 -1.1705 0.9641
-0.6667 8.9668 -1.1612 0.9644
-0.7164 8.8919 -1.1521 0.9647
-0.7593 8.7478 -1.1340 0.9652
-0.8123 8.7315 -1.1325 0.9653
-0.9169 8.6889 -1.1284 0.9654
-1.0164 8.6100 -1.1197 0.9656
-1.2147 8.4823 -1.1066 0.9660
-1.2655 8.4635 -1.1052 0.9661
-1.3161 8.4446 -1.1037 0.9661
-1.4170 8.4071 -1.1010 0.9662
-1.5174 8.3697 -1.0985 0.9663
-1.5674 8.3511 -1.0973 0.9663
-1.7259 8.3394 -1.0998 0.9662
-1.7793 8.3371 -1.1009 0.9662
-1.9401 8.3302 -1.1046 0.9661
-2.1658 8.3579 -1.1150 0.9658
-2.2855 8.3912 -1.1232 0.9655
-2.3461 8.4080 -1.1273 0.9654
-2.4024 8.4086 -1.1294 0.9653
-2.5129 8.4007 -1.1324 0.9653
-2.6549 8.4915 -1.1490 0.9648
-3.0152 8.8674 -1.2096 0.9629
-3.1240 9.0045 -1.2309 0.9623
-3.4425 9.5397 -1.3098 0.9599
-3.6341 9.8789 -1.3594 0.9584
-3.7234 9.9317 -1.3698 0.9581
-4.1911 10.9722 -1.5169 0.9537
-4.5037 11.3668 -1.5790 0.9519
-4.8613 12.0512 -1.6782 0.9489
-6.3399 14.6607 -2.0628 0.9376
-6.5970 14.9997 -2.1162 0.9360
-6.7741 14.8997 -2.1138 0.9361
-6.8626 14.8499 -2.1127 0.9362
-7.0661 15.0452 -2.1466 0.9352
-3.5951 7.4150 -1.0642 0.9673
-3.6683 7.3335 -1.0590 0.9675
-3.7168 7.3169 -1.0599 0.9674
-3.7755 7.3201 -1.0637 0.9673
-8.3677 15.7426 -2.3024 0.9306
-9.0756 16.3358 -2.4134 0.9274
-9.1742 16.2753 -2.4128 0.9274
-9.2723 16.2141 -2.4122 0.9274
-9.5642 16.0270 -2.4103 0.9275
-9.3871 15.5115 -2.3415 0.9295
-9.8520 15.8342 -2.4084 0.9275
-10.1358 15.6359 -2.4065 0.9276
-10.2294 15.5686 -2.4058 0.9276
-10.4153 15.4321 -2.4044 0.9277
-11.3154 14.7150 -2.3973 0.9279
-9.7614 12.5330 -2.0516 0.9379
-11.5755 14.4889 -2.3950 0.9279
-11.6611 14.4124 -2.3942 0.9280
-11.7463 14.3354 -2.3935 0.9280
-11.9984 14.1012 -2.3911 0.9280
-12.0814 14.0221 -2.3903 0.9281
-12.1638 13.9425 -2.3895 0.9281
-12.3270 13.7817 -2.3879 0.9281
-12.4078 13.7005 -2.3871 0.9282
-12.5673 13.5363 -2.3854 0.9282
-12.4318 13.0626 -2.3288 0.9299
-12.4729 12.6281 -2.2922 0.9309
-12.8913 12.4216 -2.3119 0.9303
-13.0173 12.3887 -2.3208 0.9301
-13.4023 12.5980 -2.3755 0.9285
-13.4750 12.5103 -2.3746 0.9285
-13.6186 12.3335 -2.3728 0.9286
-13.6895 12.2445 -2.3719 0.9286
-13.8984 11.9748 -2.3693 0.9287
-14.0347 11.7929 -2.3674 0.9287
-14.1020 11.7014 -2.3665 0.9288
-14.1686 11.6095 -2.3656 0.9288
-14.2346 11.5172 -2.3647 0.9288
-14.2999 11.4244 -2.3638 0.9288
-14.3646 11.3313 -2.3628 0.9289
-14.4287 11.2379 -2.3619 0.9289
-15.6740 11.5964 -2.5180 0.9244
-15.7390 11.4946 -2.5170 0.9244
-15.9924 11.0837 -2.5129 0.9245
-16.1149 10.8761 -2.5108 0.9246
-16.1752 10.7718 -2.5098 0.9246
-16.2347 10.6671 -2.5087 0.9246
-16.2936 10.5621 -2.5077 0.9247
-16.4659 10.2450 -2.5045 0.9248
-16.5219 10.1387 -2.5034 0.9248
-16.6318 9.9251 -2.5013 0.9249
-16.6857 9.8178 -2.5002 0.9249
-16.7389 9.7103 -2.4992 0.9249
-16.7914 9.6024 -2.4981 0.9250
-16.8432 9.4943 -2.4970 0.9250
-17.0431 9.0590 -2.4926 0.9251
-17.1855 8.7296 -2.4893 0.9252
-17.2315 8.6194 -2.4882 0.9252
-17.2768 8.5089 -2.4871 0.9253
-17.3652 8.2871 -2.4849 0.9253
-17.4507 8.0645 -2.4827 0.9254
-17.4924 7.9529 -2.4816 0.9254
-17.5333 7.8410 -2.4805 0.9255
-17.6130 7.6167 -2.4782 0.9255
-17.6898 7.3915 -2.4760 0.9256
-17.7271 7.2787 -2.4748 0.9256
-17.7994 7.0524 -2.4726 0.9257
-17.8345 6.9390 -2.4714 0.9257
-17.9675 6.4837 -2.4669 0.9259
-18.0887 6.0261 -2.4623 0.9260
-18.1449 5.7965 -2.4600 0.9261
-18.1981 5.5664 -2.4577 0.9261
-18.2724 5.2205 -2.4542 0.9262
-18.2957 5.1050 -2.4531 0.9263
-18.3183 4.9894 -2.4519 0.9263
-18.3401 4.8737 -2.4507 0.9263
-18.3613 4.7579 -2.4496 0.9264
-18.3816 4.6421 -2.4484 0.9264
-18.4201 4.4102 -2.4461 0.9265
-18.4556 4.1781 -2.4438 0.9265
-18.4724 4.0619 -2.4426 0.9266
-18.5180 3.7132 -2.4391 0.9267
-18.5317 3.5969 -2.4379 0.9267
-18.5448 3.4805 -2.4368 0.9267
-18.5570 3.3642 -2.4356 0.9268
-18.5794 3.1314 -2.4333 0.9268
-18.5895 3.0150 -2.4321 0.9269
-18.6154 2.6658 -2.4286 0.9270
-18.6225 2.5494 -2.4274 0.9270
-18.6290 2.4330 -2.4263 0.9270
-18.6397 2.2003 -2.4239 0.9271
-18.6440 2.0840 -2.4228 0.9271
-18.6504 1.8514 -2.4204 0.9272
-18.6539 1.6191 -2.4181 0.9273
-18.6545 1.5029 -2.4169 0.9273
-18.6544 1.3869 -2.4158 0.9273
-18.6537 1.2709 -2.4146 0.9274
-18.6340 0.5764 -2.4076 0.9276
-18.6283 0.4609 -2.4065 0.9276
-18.6218 0.3455 -2.4053 0.9276
-18.6146 0.2302 -2.4042 0.9277
-17.5696 -0.0000 -2.4018 0.9315
-17.5427 -0.3255 -2.3985 0.9316
-17.5098 -0.6500 -2.3953 0.9317
-17.4975 -0.7579 -2.3942 0.9317
-17.4710 -0.9734 -2.3920 0.9318
-17.4263 -1.2956 -2.3888 0.9319
-17.3577 -1.7231 -2.3845 0.9320
-17.3195 -1.9360 -2.3823 0.9321
-17.2788 -2.1481 -2.3802 0.9321
-17.2355 -2.3595 -2.3781 0.9322
-17.2129 -2.4650 -2.3770 0.9322
-17.1897 -2.5703 -2.3760 0.9322
-17.1413 -2.7802 -2.3739 0.9323
-17.0905 -2.9893 -2.3717 0.9324
-16.9814 -3.4051 -2.3676 0.9325
-16.8930 -3.7147 -2.3645 0.9326
-16.8623 -3.8174 -2.3634 0.9326
-16.8311 -3.9199 -2.3624 0.9326
-16.7992 -4.0221 -2.3614 0.9326
-16.6999 -4.3275 -2.3583 0.9327
-16.6307 -4.5298 -2.3563 0.9328
-16.5953 -4.6306 -2.3552 0.9328
-16.4475 -5.0310 -2.3512 0.9329
-16.3305 -5.3285 -2.3482 0.9330
-16.2903 -5.4271 -2.3472 0.9330
-16.2496 -5.5254 -2.3462 0.9331
-16.1665 -5.7211 -2.3443 0.9331
-16.0810 -5.9157 -2.3423 0.9332
-16.0374 -6.0125 -2.3413 0.9332
-15.9933 -6.1090 -2.3404 0.9332
-15.9034 -6.3012 -2.3384 0.9333
-15.8112 -6.4920 -2.3365 0.9333
-15.7643 -6.5870 -2.3356 0.9333
-15.6203 -6.8699 -2.3327 0.9334
-15.5712 -6.9636 -2.3318 0.9335
-15.5216 -7.0569 -2.3308 0.9335
-15.3178 -7.4268 -2.3271 0.9336
-15.2655 -7.5184 -2.3262 0.9336
-15.2127 -7.6096 -2.3252 0.9336
-15.1055 -7.7911 -2.3234 0.9337
-15.0512 -7.8812 -2.3225 0.9337
-14.8850 -8.1496 -2.3198 0.9338
-14.8286 -8.2383 -2.3189 0.9338
-14.5980 -8.5894 -2.3154 0.9339
-14.2986 -9.0197 -2.3110 0.9340
-14.2373 -9.1046 -2.3102 0.9340
-14.1132 -9.2732 -2.3085 0.9341
-14.0504 -9.3568 -2.3076 0.9341
-13.9872 -9.4402 -2.3068 0.9341
-13.9235 -9.5230 -2.3060 0.9342
-13.7947 -9.6875 -2.3043 0.9342
-13.7296 -9.7691 -2.3035 0.9342
-13.6641 -9.8503 -2.3026 0.9343
-13.5981 -9.9311 -2.3018 0.9343
-13.3974 -10.1710 -2.2994 0.9343
-13.3296 -10.2501 -2.2986 0.9344
-13.1927 -10.4070 -2.2970 0.9344
-13.1236 -10.4847 -2.2962 0.9344
-13.0541 -10.5621 -2.2955 0.9345
-12.9841 -10.6391 -2.2947 0.9345
-12.8429 -10.7916 -2.2931 0.9345
-12.7000 -10.9423 -2.2916 0.9346
-12.2614 -11.3837 -2.2872 0.9347
-12.1869 -11.4557 -2.2864 0.9347
-12.1120 -11.5272 -2.2857 0.9347
-11.9610 -11.6688 -2.2843 0.9348
-11.8849 -11.7389 -2.2836 0.9348
-11.8085 -11.8085 -2.2829 0.9348
-11.7316 -11.8776 -2.2822 0.9348
-11.4988 -12.0823 -2.2801 0.9349
-11.1832 -12.3484 -2.2774 0.9350
-11.1034 -12.4137 -2.2767 0.9350
-11.0232 -12.4785 -2.2761 0.9350
-10.9427 -12.5429 -2.2754 0.9350
-10.7807 -12.6701 -2.2741 0.9350
-10.6172 -12.7953 -2.2729 0.9351
-10.3695 -12.9794 -2.2710 0.9351
-10.2027 -13.0996 -2.2698 0.9352
-10.1188 -13.1590 -2.2692 0.9352
-9.9501 -13.2762 -2.2680 0.9352
-9.8652 -13.3340 -2.2674 0.9352
-9.6946 -13.4481 -2.2663 0.9353
-9.5227 -13.5602 -2.2651 0.9353
-9.3497 -13.6702 -2.2640 0.9353
-9.2627 -13.7244 -2.2634 0.9353
-9.1754 -13.7781 -2.2629 0.9354
-8.9119 -13.9361 -2.2613 0.9354
-8.8235 -13.9877 -2.2608 0.9354
-8.4672 -14.1888 -2.2587 0.9355
-8.1971 -14.3340 -2.2572 0.9355
-8.0158 -14.4282 -2.2563 0.9355
-7.9248 -14.4745 -2.2558 0.9355
-7.6502 -14.6101 -2.2544 0.9356
-7.4659 -14.6977 -2.2535 0.9356
-7.3735 -14.7408 -2.2531 0.9356
-7.2808 -14.7832 -2.2527 0.9356
-7.0014 -14.9074 -2.2514 0.9357
-6.9078 -14.9476 -2.2510 0.9357
-6.6257 -15.0652 -2.2498 0.9357
-6.4367 -15.1408 -2.2490 0.9357
-6.3419 -15.1777 -2.2486 0.9357
-5.9607 -15.3200 -2.2472 0.9358
-5.6728 -15.4209 -2.2462 0.9358
-5.3834 -15.5166 -2.2452 0.9358
-5.1896 -15.5778 -2.2445 0.9359
-4.9952 -15.6365 -2.2439 0.9359
-4.7025 -15.7204 -2.2431 0.9359
-4.6046 -15.7473 -2.2428 0.9359
-4.5065 -15.7735 -2.2425 0.9359
-4.4084 -15.7992 -2.2423 0.9359
-4.3101 -15.8244 -2.2420 0.9359
-4.2117 -15.8489 -2.2417 0.9359
-4.1131 -15.8729 -2.2415 0.9359
-4.0145 -15.8963 -2.2413 0.9360
-3.9157 -15.9192 -2.2410 0.9360
-3.8168 -15.9414 -2.2408 0.9360
-3.6186 -15.9842 -2.2403 0.9360
-3.3205 -16.0442 -2.2397 0.9360
-3.0215 -16.0989 -2.2392 0.9360
-2.9217 -16.1160 -2.2390 0.9360
-2.7217 -16.1484 -2.2386 0.9360
-2.6216 -16.1638 -2.2385 0.9360
-2.5214 -16.1786 -2.2383 0.9360
-2.3208 -16.2064 -2.2380 0.9360
-2.2204 -16.2194 -2.2379 0.9360
-2.1200 -16.2319 -2.2377 0.9360
-1.8181 -16.2657 -2.2374 0.9361
-1.7175 -16.2759 -2.2373 0.9361
-1.6167 -16.2855 -2.2372 0.9361
-1.5159 -16.2945 -2.2371 0.9361
-1.3141 -16.3106 -2.2369 0.9361
-1.2132 -16.3179 -2.2368 0.9361
-1.1122 -16.3245 -2.2367 0.9361
-1.0112 -16.3306 -2.2367 0.9361
-0.9102 -16.3361 -2.2366 0.9361
-0.5058 -16.3522 -2.2364 0.9361
-0.3035 -16.3567 -2.2364 0.9361
-0.2023 -16.3582 -2.2363 0.9361
-0.1012 -16.3590 -2.2363 0.9361
0.1012 -16.3589 -2.2363 0.9361
0.2023 -16.3579 -2.2363 0.9361
0.3035 -16.3564 -2.2363 0.9361
0.6069 -16.3484 -2.2364 0.9361
0.7080 -16.3446 -2.2364 0.9361
0.8091 -16.3401 -2.2364 0.9361
1.1121 -16.3234 -2.2366 0.9361
1.3140 -16.3093 -2.2367 0.9361
1.4149 -16.3013 -2.2368 0.9361
1.5157 -16.2929 -2.2369 0.9361
1.6165 -16.2838 -2.2369 0.9361
2.0192 -16.2417 -2.2373 0.9361
2.1197 -16.2297 -2.2375 0.9361
2.2201 -16.2171 -2.2376 0.9361
2.3205 -16.2040 -2.2377 0.9361
2.5210 -16.1760 -2.2380 0.9360
2.6212 -16.1611 -2.2381 0.9360
2.8212 -16.1296 -2.2384 0.9360
3.0209 -16.0958 -2.2387 0.9360
3.1207 -16.0781 -2.2389 0.9360
3.2203 -16.0597 -2.2391 0.9360
3.3198 -16.0408 -2.2393 0.9360
3.4192 -16.0213 -2.2394 0.9360
3.6178 -15.9806 -2.2398 0.9360
3.9147 -15.9153 -2.2405 0.9360
4.0135 -15.8923 -2.2407 0.9360
4.1121 -15.8688 -2.2409 0.9360
4.2106 -15.8448 -2.2412 0.9360
4.5053 -15.7691 -2.2419 0.9359
4.6033 -15.7427 -2.2422 0.9359
4.7011 -15.7158 -2.2424 0.9359
4.7987 -15.6883 -2.2427 0.9359
5.0909 -15.6024 -2.2435 0.9359
5.1879 -15.5727 -2.2438 0.9359
5.4781 -15.4800 -2.2447 0.9359
5.7669 -15.3823 -2.2457 0.9358
5.8627 -15.3486 -2.2460 0.9358
6.0539 -15.2795 -2.2467 0.9358
6.4341 -15.1347 -2.2481 0.9358
6.7171 -15.0202 -2.2492 0.9357
6.9983 -14.9008 -2.2504 0.9357
7.0916 -14.8599 -2.2508 0.9357
7.1846 -14.8185 -2.2512 0.9357
7.2775 -14.7765 -2.2516 0.9357
7.3701 -14.7340 -2.2521 0.9357
7.6466 -14.6031 -2.2534 0.9356
7.9209 -14.4673 -2.2547 0.9356
8.0118 -14.4209 -2.2552 0.9356
8.2831 -14.2787 -2.2566 0.9355
8.5521 -14.1317 -2.2580 0.9355
9.1702 -13.7702 -2.2616 0.9354
9.6030 -13.4963 -2.2643 0.9353
9.6887 -13.4400 -2.2649 0.9353
9.7741 -13.3831 -2.2654 0.9353
9.9439 -13.2679 -2.2666 0.9353
10.0283 -13.2095 -2.2672 0.9352
10.1124 -13.1507 -2.2677 0.9352
10.1962 -13.0913 -2.2683 0.9352
10.2796 -13.0314 -2.2689 0.9352
10.6102 -12.7868 -2.2714 0.9351
10.7734 -12.6615 -2.2726 0.9351
10.9353 -12.5343 -2.2739 0.9351
11.0157 -12.4700 -2.2745 0.9350
11.0957 -12.4051 -2.2752 0.9350
11.1754 -12.3397 -2.2758 0.9350
11.2547 -12.2739 -2.2765 0.9350
11.3337 -12.2076 -2.2771 0.9350
11.4123 -12.1409 -2.2778 0.9349
11.4905 -12.0736 -2.2785 0.9349
11.6459 -11.9376 -2.2798 0.9349
11.7998 -11.7998 -2.2812 0.9348
12.0276 -11.5895 -2.2833 0.9348
12.1029 -11.5184 -2.2840 0.9348
12.3260 -11.3026 -2.2861 0.9347
12.3996 -11.2297 -2.2869 0.9347
12.4728 -11.1563 -2.2876 0.9347
12.5456 -11.0826 -2.2883 0.9347
12.6180 -11.0083 -2.2891 0.9346
12.6900 -10.9336 -2.2898 0.9346
12.7615 -10.8585 -2.2905 0.9346
13.3185 -10.2415 -2.2967 0.9344
13.4534 -10.0829 -2.2983 0.9344
13.5202 -10.0030 -2.2991 0.9344
13.5865 -9.9227 -2.2999 0.9343
13.7179 -9.7607 -2.3015 0.9343
13.7828 -9.6791 -2.3023 0.9343
13.8473 -9.5971 -2.3031 0.9342
13.9750 -9.4319 -2.3048 0.9342
14.0381 -9.3486 -2.3056 0.9342
14.1007 -9.2650 -2.3064 0.9342
14.1629 -9.1810 -2.3073 0.9341
14.2858 -9.0117 -2.3090 0.9341
14.5847 -8.5816 -2.3133 0.9340
14.7581 -8.3190 -2.3159 0.9339
14.8149 -8.2307 -2.3168 0.9339
14.9822 -7.9636 -2.3194 0.9338
15.0370 -7.8738 -2.3203 0.9338
15.0913 -7.7837 -2.3212 0.9337
15.3031 -7.4196 -2.3249 0.9336
15.3548 -7.3278 -2.3258 0.9336
15.4565 -7.1429 -2.3276 0.9336
15.6051 -6.8632 -2.3304 0.9335
15.6535 -6.7693 -2.3314 0.9335
15.7014 -6.6751 -2.3323 0.9334
15.7956 -6.4856 -2.3342 0.9334
15.8876 -6.2949 -2.3361 0.9333
15.9773 -6.1029 -2.3380 0.9333
16.0649 -5.9097 -2.3400 0.9332
16.1501 -5.7154 -2.3419 0.9332
16.1919 -5.6177 -2.3429 0.9331
16.3533 -5.2242 -2.3468 0.9330
16.3923 -5.1252 -2.3478 0.9330
16.4683 -4.9262 -2.3498 0.9330
16.5055 -4.8263 -2.3508 0.9329
16.5421 -4.7262 -2.3518 0.9329
16.6825 -4.3230 -2.3558 0.9328
16.7161 -4.2215 -2.3568 0.9328
16.7815 -4.0179 -2.3589 0.9327
16.8446 -3.8134 -2.3609 0.9326
16.8752 -3.7108 -2.3620 0.9326
16.9052 -3.6079 -2.3630 0.9326
16.9633 -3.4015 -2.3651 0.9325
17.0722 -2.9861 -2.3692 0.9324
17.0979 -2.8818 -2.3703 0.9324
17.1474 -2.6724 -2.3724 0.9323
17.1712 -2.5675 -2.3734 0.9323
17.2169 -2.3570 -2.3755 0.9322
17.3008 -1.9339 -2.3798 0.9321
17.3389 -1.7213 -2.3819 0.9321
17.3744 -1.5081 -2.3840 0.9320
17.4074 -1.2942 -2.3862 0.9320
17.4377 -1.0798 -2.3883 0.9319
17.4519 -0.9723 -2.3894 0.9319
17.4655 -0.8648 -2.3905 0.9318
17.4907 -0.6493 -2.3926 0.9318
17.5331 -0.2169 -2.3970 0.9317
17.5420 -0.1085 -2.3981 0.9316
17.5580 0.1086 -2.4002 0.9316
17.5712 0.3260 -2.4024 0.9315
17.5768 0.4349 -2.4035 0.9315
17.5818 0.5438 -2.4046 0.9314
17.5977 1.1990 -2.4112 0.9313
17.5978 1.3084 -2.4123 0.9312
17.5974 1.4178 -2.4134 0.9312
17.5920 1.7463 -2.4167 0.9311
17.5889 1.8560 -2.4178 0.9311
17.5806 2.0753 -2.4200 0.9310
17.5630 2.4043 -2.4233 0.9309
17.5558 2.5141 -2.4244 0.9309
17.5478 2.6237 -2.4255 0.9309
17.5393 2.7335 -2.4266 0.9308
17.5093 3.0625 -2.4299 0.9308
17.4980 3.1722 -2.4310 0.9307
17.4859 3.2819 -2.4321 0.9307
17.4732 3.3914 -2.4332 0.9307
17.4598 3.5010 -2.4343 0.9306
17.4457 3.6105 -2.4354 0.9306
17.4309 3.7200 -2.4365 0.9306
17.3824 4.0482 -2.4398 0.9305
17.3648 4.1575 -2.4409 0.9305
17.3466 4.2668 -2.4420 0.9304
17.3276 4.3759 -2.4431 0.9304
17.3080 4.4850 -2.4442 0.9304
17.2226 4.9205 -2.4485 0.9302
17.1995 5.0292 -2.4496 0.9302
17.0736 5.5709 -2.4551 0.9301
17.0464 5.6789 -2.4562 0.9300
17.0185 5.7867 -2.4572 0.9300
16.9605 6.0021 -2.4594 0.9299
16.9305 6.1095 -2.4605 0.9299
16.8998 6.2168 -2.4616 0.9299
16.8364 6.4310 -2.4637 0.9298
16.7360 6.7511 -2.4669 0.9297
16.7011 6.8574 -2.4680 0.9297
16.6656 6.9636 -2.4691 0.9297
16.5925 7.1753 -2.4712 0.9296
16.5549 7.2809 -2.4723 0.9296
16.5167 7.3863 -2.4733 0.9296
9.3837 4.7666 -1.4388 0.9584
9.3507 4.8228 -1.4383 0.9584
9.3177 4.8790 -1.4378 0.9584
9.2848 4.9352 -1.4374 0.9584
9.2518 4.9913 -1.4370 0.9584
9.2189 5.0473 -1.4367 0.9585
9.1859 5.1034 -1.4365 0.9585
9.1201 5.2155 -1.4362 0.9585
9.0872 5.2715 -1.4361 0.9585
9.0543 5.3275 -1.4361 0.9585
8.8238 5.7199 -1.4375 0.9584
8.7909 5.7761 -1.4379 0.9584
8.7579 5.8322 -1.4384 0.9584
8.7248 5.8884 -1.4389 0.9584
8.6918 5.9447 -1.4395 0.9584
8.5925 6.1138 -1.4416 0.9583
8.5261 6.2268 -1.4433 0.9583
8.4928 6.2834 -1.4442 0.9582
8.4262 6.3969 -1.4462 0.9582
8.3928 6.4537 -1.4473 0.9582
8.3258 6.5677 -1.4496 0.9581
8.2586 6.6821 -1.4522 0.9580
8.2250 6.7394 -1.4536 0.9580
8.1912 6.7969 -1.4550 0.9579
8.1574 6.8544 -1.4565 0.9579
8.1235 6.9121 -1.4581 0.9579
8.0214 7.0859 -1.4631 0.9577
7.9872 7.1441 -1.4649 0.9577
7.9529 7.2025 -1.4667 0.9576
12.5422 11.9365 -2.3669 0.9325
12.3360 12.1844 -2.3702 0.9324
12.2645 12.2645 -2.3710 0.9324
12.1198 12.4234 -2.3726 0.9323
12.0466 12.5021 -2.3733 0.9323
11.9729 12.5804 -2.3741 0.9323
11.8987 12.6583 -2.3749 0.9323
11.8240 12.7357 -2.3756 0.9322
11.7487 12.8126 -2.3764 0.9322
11.3645 13.1900 -2.3800 0.9321
11.0480 13.4833 -2.3829 0.9320
9.2031 11.3745 -2.0001 0.9426
10.7236 13.7684 -2.3857 0.9320
10.6413 13.8384 -2.3864 0.9319
10.3915 14.0452 -2.3884 0.9319
10.3072 14.1131 -2.3890 0.9319
10.2226 14.1805 -2.3897 0.9319
10.0518 14.3136 -2.3910 0.9318
9.8793 14.4445 -2.3922 0.9318
9.7056 14.5742 -2.3937 0.9317
9.6181 14.6381 -2.3943 0.9317
9.4416 14.7643 -2.3957 0.9317
9.3528 14.8266 -2.3964 0.9317
9.1737 14.9494 -2.3977 0.9316
8.1361 13.8276 -2.1932 0.9373
8.0123 13.8118 -2.1828 0.9376
7.6514 13.5737 -2.1300 0.9390
7.4265 13.5644 -2.1140 0.9395
7.1854 13.5183 -2.0928 0.9401
7.0653 13.6984 -2.1070 0.9397
6.8051 13.8173 -2.1055 0.9397
6.3144 13.0236 -1.9786 0.9432
5.9811 12.5330 -1.8984 0.9455
5.7911 12.5313 -1.8871 0.9458
5.6653 12.4609 -1.8712 0.9462
5.5593 12.4312 -1.8615 0.9465
5.3542 12.1740 -1.8180 0.9477
5.2527 12.1464 -1.8090 0.9480
5.1795 12.1836 -1.8098 0.9480
4.1622 10.3180 -1.5209 0.9561
3.8827 10.5547 -1.5374 0.9556
3.8549 10.6826 -1.5525 0.9552
3.8092 10.7640 -1.5609 0.9549
3.7163 10.9294 -1.5781 0.9545
3.6213 11.0984 -1.5959 0.9540
3.4745 11.3590 -1.6238 0.9532
2.5202 9.7256 -1.3734 0.9603
2.4243 9.8557 -1.3874 0.9599
2.2959 9.8579 -1.3837 0.9600
2.2628 9.9954 -1.4009 0.9595
2.2162 10.0784 -1.4106 0.9592
2.0229 10.4220 -1.4513 0.9580
1.9219 10.6012 -1.4728 0.9574
1.7234 10.6257 -1.4715 0.9575
1.6494 10.5837 -1.4643 0.9577
1.4320 10.4600 -1.4432 0.9583
1.2145 9.2993 -1.2820 0.9628
1.0297 9.2118 -1.2671 0.9633
0.9690 9.1829 -1.2623 0.9634
0.8722 9.3759 -1.2872 0.9627
0.8215 9.4653 -1.2988 0.9624
0.7700 9.5564 -1.3106 0.9620
0.7174 9.6491 -1.3227 0.9617
0.6639 9.7436 -1.3350 0.9613
0.6093 9.8398 -1.3477 0.9610
0.5537 9.9380 -1.3606 0.9606
0.4970 10.0380 -1.3739 0.9602
0.4392 10.1400 -1.3874 0.9599
0.3803 10.2440 -1.4013 0.9595
0.3202 10.3503 -1.4156 0.9591
0.2588 10.4588 -1.4302 0.9586
0.1961 10.5691 -1.4451 0.9582
0.0668 10.7968 -1.4760 0.9573
-0.0000 10.8477 -1.4829 0.9572
-0.0669 10.8101 -1.4778 0.9573
-0.3298 10.6621 -1.4582 0.9578
-0.3709 9.9914 -1.3668 0.9604
-0.4566 9.2211 -1.2621 0.9634
-0.6666 8.9662 -1.2291 0.9644
-0.7592 8.7471 -1.2002 0.9652
-0.9104 8.6273 -1.1859 0.9656
-0.9600 8.5880 -1.1813 0.9657
-1.0092 8.5490 -1.1768 0.9658
-1.1065 8.4719 -1.1680 0.9661
-1.3581 8.3731 -1.1596 0.9663
-1.4081 8.3545 -1.1582 0.9664
-1.4580 8.3359 -1.1568 0.9664
-1.6725 8.3410 -1.1629 0.9662
-1.8862 8.3319 -1.1678 0.9661
-1.9399 8.3296 -1.1691 0.9661
-1.9938 8.3273 -1.1705 0.9660
-2.0918 8.2830 -1.1678 0.9661
-2.1506 8.2993 -1.1720 0.9660
-2.2098 8.3158 -1.1762 0.9659
-2.2695 8.3324 -1.1805 0.9657
-2.5127 8.4000 -1.1986 0.9652
-2.5825 8.4428 -1.2069 0.9650
-2.6546 8.4906 -1.2161 0.9647
-2.8779 8.6385 -1.2447 0.9639
-3.1236 9.0032 -1.3027 0.9623
-3.4418 9.5377 -1.3861 0.9599
-3.6333 9.8766 -1.4386 0.9584
-3.7225 9.9293 -1.4496 0.9581
-4.1621 10.8963 -1.5945 0.9540
-4.4369 11.4036 -1.6727 0.9518
-5.1778 12.6103 -1.8635 0.9465
-6.0750 14.2900 -2.1226 0.9392
-6.3395 14.6597 -2.1833 0.9376
-6.5965 14.9987 -2.2399 0.9360
-7.0626 15.0378 -2.2711 0.9351
-3.6266 7.3637 -1.1221 0.9674
-3.6679 7.3327 -1.1208 0.9674
-3.7750 7.3191 -1.1258 0.9673
-8.2578 15.5358 -2.4051 0.9314
-8.4455 15.4254 -2.4040 0.9315
-8.5387 15.3693 -2.4035 0.9315
-8.7241 15.2554 -2.4023 0.9315
-8.8161 15.1975 -2.4018 0.9315
-8.9078 15.1390 -2.4012 0.9315
-9.3599 14.8379 -2.3982 0.9316
-9.5378 14.7134 -2.3970 0.9317
-9.6261 14.6503 -2.3963 0.9317
-9.7139 14.5866 -2.3957 0.9317
-9.8883 14.4576 -2.3944 0.9317
-9.9748 14.3922 -2.3938 0.9317
-10.0608 14.3263 -2.3931 0.9318
-10.2315 14.1929 -2.3918 0.9318
-10.3162 14.1254 -2.3911 0.9318
-10.6502 13.8499 -2.3883 0.9319
-9.7385 12.5036 -2.1665 0.9380
-9.8079 12.4334 -2.1648 0.9381
-10.9764 13.5662 -2.3855 0.9320
-11.0567 13.4939 -2.3848 0.9320
-11.2159 13.3480 -2.3833 0.9320
-11.2948 13.2742 -2.3826 0.9321
-11.4509 13.1253 -2.3811 0.9321
-11.6050 12.9745 -2.3796 0.9321
-11.6813 12.8983 -2.3788 0.9322
-12.0543 12.5100 -2.3748 0.9323
-12.2710 12.2710 -2.3723 0.9323
-12.3420 12.1903 -2.3714 0.9324
-12.6907 11.7822 -2.3672 0.9325
-12.8935 11.5326 -2.3647 0.9325
-12.9600 11.4486 -2.3639 0.9326
-13.2838 11.0226 -2.3597 0.9327
-13.4712 10.7624 -2.3571 0.9328
-13.5325 10.6749 -2.3562 0.9328
-13.5932 10.5871 -2.3553 0.9328
-13.6533 10.4989 -2.3544 0.9328
-14.7054 11.0212 -2.5122 0.9285
-14.7676 10.9259 -2.5112 0.9285
-14.8293 10.8303 -2.5102 0.9285
-14.9506 10.6379 -2.5083 0.9286
-15.0104 10.5412 -2.5074 0.9286
-15.0695 10.4441 -2.5064 0.9287
-15.1279 10.3466 -2.5054 0.9287
-15.1856 10.2489 -2.5044 0.9287
-15.2428 10.1508 -2.5035 0.9287
-15.4647 9.7553 -2.4995 0.9288
-15.5718 9.5556 -2.4975 0.9289
-15.6761 9.3547 -2.4955 0.9290
-15.7274 9.2539 -2.4945 0.9290
-15.7779 9.1528 -2.4935 0.9290
-15.8277 9.0513 -2.4925 0.9290
-15.9733 8.7454 -2.4894 0.9291
-16.0205 8.6429 -2.4884 0.9291
-16.0670 8.5401 -2.4874 0.9292
-16.1128 8.4371 -2.4863 0.9292
-16.2462 8.1266 -2.4832 0.9293
-16.2893 8.0226 -2.4822 0.9293
-16.3318 7.9184 -2.4811 0.9293
-16.4550 7.6044 -2.4780 0.9294
-16.4947 7.4993 -2.4769 0.9295
-16.6097 7.1828 -2.4738 0.9295
-16.6467 7.0769 -2.4727 0.9296
-16.7186 6.8646 -2.4706 0.9296
-16.7535 6.7582 -2.4695 0.9297
-16.7877 6.6515 -2.4685 0.9297
-16.8212 6.5447 -2.4674 0.9297
-16.8541 6.4378 -2.4663 0.9298
-16.8862 6.3307 -2.4653 0.9298
-16.9485 6.1160 -2.4631 0.9298
-17.0079 5.9007 -2.4609 0.9299
-17.0366 5.7929 -2.4599 0.9299
-17.0646 5.6849 -2.4588 0.9300
-17.1185 5.4686 -2.4566 0.9300
-17.2180 5.0346 -2.4523 0.9301
-17.2636 4.8170 -2.4501 0.9302
-17.3064 4.5990 -2.4479 0.9303
-17.3464 4.3807 -2.4457 0.9303
-17.3654 4.2714 -2.4446 0.9303
-17.3837 4.1621 -2.4435 0.9304
-17.4344 3.8337 -2.4402 0.9305
-17.4789 3.5048 -2.4369 0.9306
-17.5051 3.2854 -2.4347 0.9306
-17.5286 3.0659 -2.4325 0.9307
-17.5392 2.9561 -2.4314 0.9307
-17.5492 2.8463 -2.4303 0.9307
-17.5585 2.7364 -2.4292 0.9308
-17.5889 2.2971 -2.4248 0.9309
-17.5948 2.1874 -2.4237 0.9309
-17.6114 1.7483 -2.4193 0.9310
-17.6139 1.6386 -2.4182 0.9311
-17.6168 1.4194 -2.4160 0.9311
-17.6172 1.3097 -2.4149 0.9312
-17.6144 0.9814 -2.4116 0.9313
-17.6121 0.8720 -2.4105 0.9313
-17.6055 0.6536 -2.4083 0.9313
-17.5962 0.4353 -2.4062 0.9314
-16.6471 -0.0000 -2.4017 0.9349
-16.6396 -0.1029 -2.4007 0.9350
-16.5816 -0.7183 -2.3945 0.9351
-16.5697 -0.8205 -2.3935 0.9352
-16.5572 -0.9225 -2.3924 0.9352
-16.5161 -1.2279 -2.3894 0.9353
-16.5011 -1.3295 -2.3884 0.9353
-16.4855 -1.4309 -2.3873 0.9353
-16.4352 -1.7343 -2.3843 0.9354
-16.4171 -1.8351 -2.3833 0.9354
-16.3985 -1.9358 -2.3823 0.9354
-16.3793 -2.0363 -2.3813 0.9355
-16.3390 -2.2368 -2.3792 0.9355
-16.2963 -2.4367 -2.3772 0.9356
-16.2741 -2.5363 -2.3762 0.9356
-16.2513 -2.6358 -2.3752 0.9356
-16.2278 -2.7351 -2.3742 0.9357
-16.2038 -2.8342 -2.3732 0.9357
-16.1792 -2.9331 -2.3722 0.9357
-16.1281 -3.1304 -2.3703 0.9358
-16.1018 -3.2287 -2.3693 0.9358
-16.0748 -3.3269 -2.3683 0.9358
-16.0472 -3.4248 -2.3673 0.9358
-15.9611 -3.7173 -2.3644 0.9359
-15.8381 -4.1042 -2.3605 0.9360
-15.7733 -4.2962 -2.3585 0.9361
-15.6717 -4.5825 -2.3557 0.9361
-15.5651 -4.8665 -2.3528 0.9362
-15.4912 -5.0546 -2.3509 0.9363
-15.4535 -5.1482 -2.3500 0.9363
-15.3763 -5.3347 -2.3481 0.9363
-15.3369 -5.4275 -2.3472 0.9364
-15.1740 -5.7961 -2.3434 0.9365
-15.1319 -5.8875 -2.3425 0.9365
-15.0461 -6.0694 -2.3407 0.9365
-15.0025 -6.1600 -2.3398 0.9366
-14.9583 -6.2502 -2.3389 0.9366
-14.8225 -6.5191 -2.3362 0.9367
-14.7763 -6.6080 -2.3353 0.9367
-14.7295 -6.6967 -2.3344 0.9367
-14.6822 -6.7851 -2.3335 0.9367
-14.5861 -6.9609 -2.3317 0.9368
-14.5373 -7.0484 -2.3308 0.9368
-14.3878 -7.3086 -2.3282 0.9369
-14.2857 -7.4804 -2.3265 0.9369
-14.2338 -7.5658 -2.3256 0.9369
-14.1288 -7.7356 -2.3239 0.9370
-14.0755 -7.8199 -2.3231 0.9370
-13.6893 -8.4005 -2.3172 0.9372
-13.6322 -8.4819 -2.3164 0.9372
-13.5168 -8.6439 -2.3147 0.9372
-13.2804 -8.9631 -2.3115 0.9373
-13.2201 -9.0419 -2.3107 0.9373
-13.1595 -9.1203 -2.3099 0.9373
-13.0368 -9.2761 -2.3084 0.9374
-12.9748 -9.3534 -2.3076 0.9374
-12.9123 -9.4303 -2.3068 0.9374
-12.8495 -9.5068 -2.3060 0.9374
-12.7861 -9.5829 -2.3053 0.9375
-12.4633 -9.9572 -2.3015 0.9376
-12.3975 -10.0308 -2.3007 0.9376
-12.3312 -10.1041 -2.3000 0.9376
-12.2646 -10.1769 -2.2993 0.9376
-12.1975 -10.2493 -2.2985 0.9376
-12.0622 -10.3928 -2.2971 0.9377
-11.8563 -10.6049 -2.2949 0.9377
-11.7868 -10.6747 -2.2942 0.9378
-11.7170 -10.7441 -2.2935 0.9378
-11.5762 -10.8816 -2.2921 0.9378
-11.5053 -10.9497 -2.2915 0.9378
-11.3622 -11.0845 -2.2901 0.9379
-11.1448 -11.2835 -2.2881 0.9379
-11.0716 -11.3490 -2.2874 0.9379
-10.9980 -11.4139 -2.2868 0.9380
-10.9241 -11.4784 -2.2861 0.9380
-10.6249 -11.7319 -2.2835 0.9380
-10.5493 -11.7942 -2.2829 0.9381
-10.4732 -11.8560 -2.2823 0.9381
-10.3969 -11.9172 -2.2817 0.9381
-10.3202 -11.9781 -2.2810 0.9381
-10.0102 -12.2167 -2.2786 0.9382
-9.8532 -12.3332 -2.2774 0.9382
-9.7742 -12.3907 -2.2769 0.9382
-9.3748 -12.6711 -2.2740 0.9383
-8.8855 -12.9915 -2.2708 0.9384
-8.8030 -13.0432 -2.2702 0.9384
-8.7201 -13.0944 -2.2697 0.9384
-8.6371 -13.1451 -2.2692 0.9384
-8.4700 -13.2450 -2.2682 0.9384
-8.3861 -13.2942 -2.2677 0.9385
-8.3019 -13.3429 -2.2672 0.9385
-8.2175 -13.3911 -2.2667 0.9385
-7.9626 -13.5327 -2.2653 0.9385
-7.8771 -13.5788 -2.2648 0.9385
-7.7914 -13.6245 -2.2643 0.9385
-7.7054 -13.6696 -2.2639 0.9386
-7.6192 -13.7143 -2.2634 0.9386
-7.4460 -13.8020 -2.2625 0.9386
-7.3591 -13.8451 -2.2621 0.9386
-7.1845 -13.9297 -2.2612 0.9386
-7.0969 -13.9713 -2.2608 0.9386
-7.0091 -14.0123 -2.2604 0.9386
-6.9211 -14.0528 -2.2600 0.9387
-6.3883 -14.2849 -2.2576 0.9387
-6.2988 -14.3218 -2.2572 0.9387
-6.1192 -14.3939 -2.2565 0.9387
-6.0291 -14.4291 -2.2561 0.9388
-5.9388 -14.4638 -2.2558 0.9388
-5.8483 -14.4980 -2.2554 0.9388
-5.4846 -14.6295 -2.2541 0.9388
-5.1182 -14.7525 -2.2528 0.9388
-5.0262 -14.7818 -2.2525 0.9389
-4.8418 -14.8390 -2.2519 0.9389
-4.6567 -14.8940 -2.2514 0.9389
-4.3780 -14.9725 -2.2506 0.9389
-4.0981 -15.0461 -2.2498 0.9389
-4.0045 -15.0695 -2.2496 0.9389
-3.9109 -15.0923 -2.2493 0.9389
-3.8171 -15.1147 -2.2491 0.9389
-3.3464 -15.2182 -2.2480 0.9390
-3.2519 -15.2373 -2.2478 0.9390
-3.1573 -15.2558 -2.2476 0.9390
-2.8731 -15.3080 -2.2471 0.9390
-2.6831 -15.3401 -2.2467 0.9390
-2.5880 -15.3553 -2.2466 0.9390
-2.3976 -15.3841 -2.2463 0.9390
-2.1114 -15.4231 -2.2459 0.9390
-1.4415 -15.4947 -2.2451 0.9390
-1.3456 -15.5027 -2.2450 0.9390
-1.2496 -15.5101 -2.2449 0.9391
-1.1537 -15.5171 -2.2448 0.9391
-0.7694 -15.5391 -2.2446 0.9391
-0.5771 -15.5468 -2.2445 0.9391
-0.4810 -15.5498 -2.2445 0.9391
-0.3848 -15.5523 -2.2444 0.9391
-0.2886 -15.5542 -2.2444 0.9391
-0.1924 -15.5555 -2.2444 0.9391
0.0000 -15.5565 -2.2444 0.9391
0.0962 -15.5562 -2.2444 0.9391
0.5771 -15.5462 -2.2444 0.9391
0.6733 -15.5426 -2.2445 0.9391
0.7694 -15.5384 -2.2445 0.9391
0.9615 -15.5283 -2.2446 0.9391
1.1536 -15.5159 -2.2447 0.9391
1.3455 -15.5014 -2.2448 0.9391
1.4414 -15.4933 -2.2449 0.9391
1.6330 -15.4754 -2.2451 0.9390
1.8244 -15.4553 -2.2452 0.9390
2.0156 -15.4330 -2.2455 0.9390
2.2066 -15.4085 -2.2457 0.9390
2.3019 -15.3954 -2.2458 0.9390
2.3972 -15.3818 -2.2459 0.9390
2.4925 -15.3675 -2.2461 0.9390
2.7777 -15.3217 -2.2465 0.9390
3.1567 -15.2528 -2.2472 0.9390
3.3457 -15.2150 -2.2475 0.9390
3.4400 -15.1954 -2.2477 0.9390
3.5342 -15.1751 -2.2479 0.9390
3.6283 -15.1543 -2.2481 0.9390
3.7223 -15.1330 -2.2483 0.9390
3.8162 -15.1111 -2.2485 0.9390
4.1904 -15.0181 -2.2495 0.9389
4.5627 -14.9165 -2.2504 0.9389
4.6554 -14.8897 -2.2507 0.9389
4.7479 -14.8624 -2.2510 0.9389
4.9326 -14.8061 -2.2515 0.9389
5.0247 -14.7772 -2.2518 0.9389
5.1166 -14.7478 -2.2521 0.9389
5.3000 -14.6872 -2.2527 0.9388
5.3915 -14.6561 -2.2530 0.9388
5.5739 -14.5924 -2.2536 0.9388
5.7556 -14.5265 -2.2543 0.9388
6.0268 -14.4237 -2.2553 0.9388
6.1168 -14.3883 -2.2556 0.9388
6.2067 -14.3525 -2.2560 0.9388
6.2963 -14.3161 -2.2563 0.9388
6.3857 -14.2792 -2.2567 0.9387
6.4750 -14.2418 -2.2571 0.9387
7.0060 -14.0062 -2.2594 0.9387
7.1813 -13.9235 -2.2602 0.9386
7.4426 -13.7955 -2.2615 0.9386
7.5292 -13.7519 -2.2619 0.9386
7.6156 -13.7078 -2.2623 0.9386
7.7017 -13.6630 -2.2628 0.9386
7.7876 -13.6179 -2.2632 0.9386
7.8732 -13.5721 -2.2637 0.9386
7.9586 -13.5259 -2.2641 0.9385
8.0437 -13.4792 -2.2646 0.9385
8.5491 -13.1883 -2.2675 0.9385
8.6324 -13.1380 -2.2680 0.9384
8.7154 -13.0873 -2.2685 0.9384
8.9628 -12.9321 -2.2700 0.9384
9.0446 -12.8794 -2.2705 0.9384
9.3693 -12.6637 -2.2727 0.9383
9.4497 -12.6085 -2.2732 0.9383
9.6096 -12.4968 -2.2743 0.9383
9.7683 -12.3831 -2.2755 0.9382
10.0039 -12.2090 -2.2772 0.9382
10.0818 -12.1501 -2.2778 0.9382
10.3135 -11.9703 -2.2796 0.9381
10.4664 -11.8482 -2.2808 0.9381
10.5423 -11.7864 -2.2814 0.9381
10.6179 -11.7241 -2.2820 0.9381
10.7680 -11.5983 -2.2833 0.9380
10.8425 -11.5347 -2.2839 0.9380
10.9167 -11.4706 -2.2845 0.9380
11.0639 -11.3411 -2.2858 0.9380
11.1370 -11.2757 -2.2865 0.9380
11.2097 -11.2098 -2.2871 0.9379
11.3541 -11.0767 -2.2885 0.9379
11.4970 -10.9418 -2.2898 0.9379
11.7084 -10.7362 -2.2919 0.9378
11.8475 -10.5970 -2.2932 0.9378
11.9164 -10.5268 -2.2939 0.9378
12.1883 -10.2415 -2.2968 0.9377
12.3217 -10.0963 -2.2982 0.9376
12.5189 -9.8754 -2.3004 0.9376
12.6483 -9.7261 -2.3019 0.9376
12.7759 -9.5752 -2.3034 0.9375
12.9019 -9.4227 -2.3049 0.9375
12.9642 -9.3458 -2.3057 0.9375
13.0261 -9.2685 -2.3065 0.9374
13.0876 -9.1909 -2.3073 0.9374
13.3882 -8.7968 -2.3112 0.9373
13.5054 -8.6365 -2.3128 0.9373
13.6776 -8.3934 -2.3152 0.9372
13.7341 -8.3115 -2.3160 0.9372
13.8457 -8.1468 -2.3177 0.9371
13.9554 -7.9806 -2.3193 0.9371
14.0095 -7.8970 -2.3202 0.9371
14.0631 -7.8130 -2.3210 0.9371
14.1163 -7.7287 -2.3219 0.9370
14.1690 -7.6440 -2.3227 0.9370
14.2212 -7.5590 -2.3235 0.9370
14.4251 -7.2156 -2.3270 0.9369
14.4748 -7.1289 -2.3278 0.9369
14.5240 -7.0419 -2.3287 0.9368
14.6210 -6.8669 -2.3305 0.9368
14.6687 -6.7789 -2.3313 0.9368
14.8088 -6.5130 -2.3340 0.9367
14.8545 -6.4238 -2.3349 0.9367
14.8996 -6.3342 -2.3358 0.9367
14.9884 -6.1542 -2.3376 0.9366
15.0319 -6.0637 -2.3385 0.9366
15.0750 -5.9729 -2.3394 0.9366
15.2823 -5.5148 -2.3440 0.9364
15.4385 -5.1433 -2.3477 0.9364
15.4762 -5.0497 -2.3486 0.9363
15.5133 -4.9559 -2.3496 0.9363
15.5499 -4.8618 -2.3505 0.9363
15.5859 -4.7675 -2.3515 0.9363
15.7245 -4.3876 -2.3553 0.9362
15.7577 -4.2920 -2.3562 0.9361
15.7904 -4.1962 -2.3572 0.9361
15.8850 -3.9073 -2.3601 0.9360
15.9153 -3.8105 -2.3610 0.9360
15.9452 -3.7136 -2.3620 0.9360
15.9744 -3.6164 -2.3630 0.9360
16.0030 -3.5190 -2.3640 0.9359
16.0311 -3.4213 -2.3649 0.9359
16.0856 -3.2255 -2.3669 0.9358
16.1119 -3.1273 -2.3679 0.9358
16.2114 -2.7323 -2.3718 0.9357
16.2347 -2.6331 -2.3728 0.9357
16.2575 -2.5338 -2.3738 0.9357
16.2797 -2.4342 -2.3748 0.9356
16.3013 -2.3345 -2.3758 0.9356
16.3427 -2.1345 -2.3778 0.9356
16.3817 -1.9338 -2.3798 0.9355
16.4003 -1.8332 -2.3808 0.9355
16.5270 -1.0234 -2.3890 0.9353
16.5401 -0.9216 -2.3900 0.9352
16.5862 -0.5131 -2.3941 0.9351
16.6223 -0.1029 -2.3982 0.9350
16.6298 -0.0000 -2.3992 0.9350
16.6484 0.3089 -2.4023 0.9349
16.6533 0.4120 -2.4033 0.9349
16.6576 0.5152 -2.4044 0.9349
16.6613 0.6185 -2.4054 0.9348
16.6642 0.7217 -2.4065 0.9348
16.6668 0.8252 -2.4075 0.9348
16.6685 0.9287 -2.4085 0.9348
16.6696 1.0322 -2.4096 0.9347
16.6700 1.2394 -2.4116 0.9347
16.6656 1.5504 -2.4148 0.9346
16.6629 1.6541 -2.4158 0.9346
16.6509 1.9655 -2.4189 0.9345
16.6456 2.0693 -2.4200 0.9345
16.6396 2.1732 -2.4210 0.9344
16.6330 2.2771 -2.4221 0.9344
16.6179 2.4847 -2.4241 0.9343
16.6094 2.5885 -2.4252 0.9343
16.5798 2.8999 -2.4283 0.9342
16.5568 3.1075 -2.4304 0.9342
16.5444 3.2112 -2.4314 0.9342
16.5313 3.3148 -2.4325 0.9341
16.4881 3.6256 -2.4356 0.9340
16.4724 3.7291 -2.4366 0.9340
16.4030 4.1424 -2.4408 0.9339
16.3841 4.2456 -2.4418 0.9339
16.3644 4.3487 -2.4429 0.9339
16.3442 4.4517 -2.4439 0.9338
16.3232 4.5546 -2.4449 0.9338
16.2794 4.7602 -2.4470 0.9337
16.2329 4.9653 -2.4491 0.9337
16.2087 5.0678 -2.4501 0.9337
16.1839 5.1701 -2.4511 0.9336
16.1054 5.4763 -2.4542 0.9336
16.0779 5.5781 -2.4552 0.9335
15.9916 5.8827 -2.4583 0.9335
15.9615 5.9840 -2.4593 0.9334
15.8994 6.1861 -2.4613 0.9334
15.8674 6.2869 -2.4624 0.9333
15.7674 6.5882 -2.4654 0.9333
15.6975 6.7883 -2.4674 0.9332
15.5878 7.0869 -2.4704 0.9331
9.4495 4.6539 -1.5197 0.9583
9.3834 4.7664 -1.5184 0.9584
9.3504 4.8227 -1.5179 0.9584
9.2185 5.0471 -1.5163 0.9584
9.1856 5.1032 -1.5160 0.9584
9.0869 5.2713 -1.5156 0.9584
8.8894 5.6075 -1.5163 0.9584
8.7905 5.7758 -1.5175 0.9584
8.7575 5.8320 -1.5180 0.9584
8.7245 5.8882 -1.5185 0.9584
8.5590 6.1701 -1.5222 0.9583
8.4592 6.3399 -1.5251 0.9582
8.4258 6.3967 -1.5262 0.9581
8.3590 6.5104 -1.5286 0.9581
8.3255 6.5675 -1.5299 0.9581
8.2919 6.6246 -1.5312 0.9580
8.2246 6.7391 -1.5340 0.9579
8.1909 6.7966 -1.5356 0.9579
8.1232 6.9118 -1.5388 0.9578
8.0211 7.0856 -1.5441 0.9577
7.9869 7.1438 -1.5460 0.9576
11.9818 11.1240 -2.3588 0.9361
11.9167 11.2016 -2.3596 0.9360
11.7850 11.3556 -2.3611 0.9360
11.5836 11.5836 -2.3634 0.9359
11.4503 11.7371 -2.3657 0.9359
11.3112 11.8851 -2.3671 0.9358
11.1701 12.0313 -2.3685 0.9358
9.3047 10.4027 -2.0136 0.9452
9.2597 10.4821 -2.0178 0.9450
10.7349 12.4593 -2.3727 0.9357
10.6607 12.5291 -2.3734 0.9357
9.7878 11.7958 -2.2114 0.9399
10.3592 12.8033 -2.3761 0.9356
10.0503 13.0698 -2.3786 0.9355
9.8931 13.2002 -2.3799 0.9355
9.6541 13.3919 -2.3818 0.9355
9.5735 13.4548 -2.3824 0.9354
9.4925 13.5171 -2.3830 0.9354
9.4111 13.5790 -2.3836 0.9354
9.3297 13.6409 -2.3843 0.9354
8.8315 14.0003 -2.3881 0.9353
8.6622 14.1158 -2.3894 0.9353
8.4680 13.9928 -2.3597 0.9360
8.0241 13.6372 -2.2828 0.9381
7.7379 13.5309 -2.2488 0.9389
7.3147 13.5585 -2.2226 0.9396
7.1849 13.5173 -2.2085 0.9400
7.0917 13.5433 -2.2056 0.9401
6.9059 13.5951 -2.1999 0.9402
6.7279 13.6605 -2.1969 0.9403
5.9212 12.6075 -2.0095 0.9453
5.5587 12.4298 -1.9644 0.9465
5.3537 12.1728 -1.9185 0.9477
5.2525 12.1460 -1.9091 0.9479
5.0888 12.1788 -1.9043 0.9481
4.1052 10.1768 -1.5832 0.9566
4.0149 10.3190 -1.5975 0.9562
3.9891 10.4433 -1.6129 0.9558
3.9000 10.6017 -1.6297 0.9554
3.8548 10.6822 -1.6384 0.9551
3.8091 10.7635 -1.6472 0.9549
3.7162 10.9289 -1.6654 0.9544
3.6211 11.0979 -1.6842 0.9539
3.5727 11.1837 -1.6938 0.9537
3.4262 11.2012 -1.6899 0.9538
3.3573 11.2235 -1.6901 0.9538
3.2882 11.2453 -1.6903 0.9538
2.7729 9.7054 -1.4562 0.9600
2.7699 9.9269 -1.4869 0.9592
2.6201 9.8596 -1.4718 0.9596
2.5465 9.8269 -1.4646 0.9598
2.4014 9.7629 -1.4505 0.9602
2.3409 9.7772 -1.4504 0.9602
2.2627 9.9949 -1.4785 0.9594
2.2161 10.0779 -1.4887 0.9592
2.1688 10.1620 -1.4991 0.9589
2.1208 10.2473 -1.5097 0.9586
1.9726 10.5104 -1.5428 0.9577
1.9106 10.5387 -1.5452 0.9576
1.8456 10.5516 -1.5454 0.9576
1.7805 10.5640 -1.5456 0.9576
1.7153 10.5760 -1.5458 0.9576
1.5036 10.4999 -1.5303 0.9580
1.0208 9.1319 -1.3257 0.9635
0.9640 9.1353 -1.3253 0.9636
0.8722 9.3753 -1.3584 0.9627
0.8215 9.4647 -1.3706 0.9623
0.6638 9.7430 -1.4089 0.9613
0.6093 9.8392 -1.4222 0.9609
0.4392 10.1393 -1.4642 0.9598
0.3803 10.2433 -1.4788 0.9594
0.3201 10.3495 -1.4938 0.9590
0.2588 10.4579 -1.5092 0.9586
0.1961 10.5685 -1.5250 0.9582
0.0668 10.7961 -1.5576 0.9573
-0.0000 10.8470 -1.5649 0.9571
-0.0668 10.8093 -1.5595 0.9573
-0.1332 10.7719 -1.5542 0.9574
-0.1992 10.7348 -1.5490 0.9575
-0.2647 10.6979 -1.5439 0.9577
-0.3298 10.6613 -1.5389 0.9578
-0.3709 9.9906 -1.4424 0.9604
-0.4566 9.2205 -1.3319 0.9634
-0.5647 9.1189 -1.3181 0.9637
-0.8100 8.7063 -1.2615 0.9653
-0.9263 8.7782 -1.2735 0.9650
-0.9780 8.7491 -1.2701 0.9650
-1.0091 8.5485 -1.2419 0.9658
-1.0579 8.5097 -1.2372 0.9659
-1.1064 8.4713 -1.2326 0.9661
-1.1565 8.4475 -1.2301 0.9661
-1.2575 8.4099 -1.2268 0.9662
-1.3579 8.3725 -1.2237 0.9663
-1.4080 8.3539 -1.2222 0.9663
-1.5575 8.2983 -1.2181 0.9665
-1.6724 8.3404 -1.2272 0.9662
-1.7257 8.3381 -1.2284 0.9662
-1.7790 8.3358 -1.2297 0.9661
-1.9398 8.3289 -1.2338 0.9660
-1.9936 8.3266 -1.2353 0.9660
-2.0476 8.3243 -1.2368 0.9659
-2.1504 8.2986 -1.2368 0.9659
-2.3174 8.5080 -1.2722 0.9650
-2.4358 8.5254 -1.2792 0.9648
-2.5140 8.5978 -1.2924 0.9644
-2.5810 8.6283 -1.2993 0.9643
-2.8121 8.6183 -1.3079 0.9640
-2.8776 8.6376 -1.3135 0.9639
-3.0143 8.8650 -1.3509 0.9629
-3.6325 9.8744 -1.5179 0.9584
-4.1905 10.9708 -1.6943 0.9536
-5.5202 13.2113 -2.0657 0.9438
-6.0301 14.1844 -2.2237 0.9396
-6.5961 14.9977 -2.3638 0.9359
-6.6847 14.9477 -2.3624 0.9360
-6.7732 14.8978 -2.3610 0.9360
-6.8617 14.8479 -2.3598 0.9360
-7.0592 15.0304 -2.3957 0.9351
-3.5955 7.5342 -1.2044 0.9668
-3.7159 7.3152 -1.1837 0.9674
-7.7956 14.6662 -2.3963 0.9351
-7.8844 14.6146 -2.3957 0.9351
-8.0610 14.5095 -2.3947 0.9351
-8.1488 14.4561 -2.3941 0.9351
-8.2361 14.4022 -2.3936 0.9351
-8.4097 14.2926 -2.3925 0.9352
-8.7525 14.0670 -2.3902 0.9352
-8.9215 13.9509 -2.3891 0.9353
-9.1719 13.7728 -2.3873 0.9353
-9.3368 13.6514 -2.3861 0.9353
-9.5810 13.4653 -2.3843 0.9354
-9.6616 13.4023 -2.3836 0.9354
-9.8213 13.2747 -2.3823 0.9354
-9.6170 12.5064 -2.2761 0.9382
-9.6915 12.4433 -2.2755 0.9382
-9.8486 12.3274 -2.2764 0.9382
-9.9332 12.2768 -2.2784 0.9382
-10.5181 12.6758 -2.3764 0.9356
-10.6679 12.5375 -2.3750 0.9356
-10.7420 12.4676 -2.3743 0.9357
-10.8889 12.3264 -2.3729 0.9357
-10.9616 12.2552 -2.3722 0.9357
-11.1769 12.0387 -2.3700 0.9358
-11.2477 11.9656 -2.3693 0.9358
-11.3179 11.8921 -2.3685 0.9358
-11.4569 11.7438 -2.3670 0.9358
-11.5254 11.6688 -2.3662 0.9359
-11.5934 11.5934 -2.3654 0.9359
-11.7943 11.3646 -2.3630 0.9360
-11.9262 11.2105 -2.3614 0.9360
-11.9914 11.1329 -2.3607 0.9360
-12.1201 10.9765 -2.3591 0.9361
-12.1837 10.8977 -2.3583 0.9361
-12.2468 10.8185 -2.3575 0.9361
-12.3093 10.7390 -2.3567 0.9361
-12.3713 10.6590 -2.3559 0.9361
-12.4937 10.4980 -2.3543 0.9362
-12.6138 10.3356 -2.3527 0.9362
-12.7318 10.1717 -2.3511 0.9363
-12.8476 10.0064 -2.3494 0.9363
-12.9047 9.9233 -2.3486 0.9363
-12.9613 9.8398 -2.3478 0.9363
-13.0172 9.7560 -2.3469 0.9364
-14.0174 10.2373 -2.5042 0.9323
-14.1328 10.0559 -2.5024 0.9323
-14.1895 9.9647 -2.5015 0.9323
-14.2456 9.8731 -2.5006 0.9323
-14.3012 9.7812 -2.4997 0.9324
-14.3561 9.6890 -2.4988 0.9324
-14.4641 9.5037 -2.4969 0.9324
-14.5172 9.4105 -2.4960 0.9325
-14.6215 9.2233 -2.4941 0.9325
-14.6727 9.1293 -2.4932 0.9325
-14.7733 8.9404 -2.4913 0.9326
-14.8227 8.8454 -2.4903 0.9326
-14.8714 8.7503 -2.4894 0.9326
-14.9195 8.6548 -2.4884 0.9327
-14.9670 8.5591 -2.4875 0.9327
-15.0139 8.4631 -2.4865 0.9327
-15.0601 8.3669 -2.4855 0.9327
-15.1057 8.2704 -2.4846 0.9328
-15.1949 8.0766 -2.4826 0.9328
-15.2386 7.9793 -2.4817 0.9328
-15.2817 7.8818 -2.4807 0.9329
-15.4070 7.5880 -2.4778 0.9329
-15.4873 7.3910 -2.4758 0.9330
-15.5651 7.1931 -2.4738 0.9330
-15.6403 6.9944 -2.4718 0.9331
-15.6770 6.8948 -2.4708 0.9331
-15.7129 6.7949 -2.4698 0.9332
-15.8170 6.4944 -2.4668 0.9332
-15.8831 6.2931 -2.4648 0.9333
-15.9152 6.1922 -2.4638 0.9333
-16.0075 5.8887 -2.4608 0.9334
-16.0659 5.6855 -2.4587 0.9334
-16.1216 5.4818 -2.4567 0.9335
-16.2003 5.1753 -2.4536 0.9336
-16.2494 4.9704 -2.4516 0.9336
-16.2730 4.8677 -2.4505 0.9337
-16.2959 4.7650 -2.4495 0.9337
-16.3609 4.4562 -2.4464 0.9338
-16.3812 4.3531 -2.4454 0.9338
-16.4383 4.0433 -2.4423 0.9339
-16.4560 3.9400 -2.4412 0.9339
-16.4730 3.8365 -2.4402 0.9339
-16.4894 3.7329 -2.4392 0.9340
-16.5347 3.4220 -2.4360 0.9340
-16.5740 3.1107 -2.4329 0.9341
-16.5859 3.0068 -2.4319 0.9341
-16.6174 2.6952 -2.4288 0.9342
-16.6266 2.5912 -2.4277 0.9343
-16.6431 2.3833 -2.4256 0.9343
-16.6504 2.2794 -2.4246 0.9343
-16.6570 2.1754 -2.4235 0.9344
-16.6629 2.0715 -2.4225 0.9344
-16.6683 1.9675 -2.4215 0.9344
-16.6729 1.8637 -2.4204 0.9344
-16.6803 1.6558 -2.4183 0.9345
-16.6851 1.4482 -2.4162 0.9346
-16.6874 1.2406 -2.4142 0.9346
-16.6875 1.1369 -2.4131 0.9346
-16.6870 1.0333 -2.4121 0.9347
-16.6841 0.8261 -2.4100 0.9347
-16.6658 0.3092 -2.4048 0.9349
-16.6540 0.1029 -2.4027 0.9349
-15.8150 -0.0000 -2.4016 0.9380
-15.8082 -0.0978 -2.4007 0.9380
-15.8008 -0.1954 -2.3997 0.9381
-15.7843 -0.3905 -2.3977 0.9381
-15.7654 -0.5853 -2.3958 0.9382
-15.7551 -0.6825 -2.3948 0.9382
-15.7326 -0.8766 -2.3928 0.9382
-15.7205 -0.9735 -2.3919 0.9383
-15.7078 -1.0703 -2.3909 0.9383
-15.6511 -1.4560 -2.3870 0.9384
-15.6355 -1.5522 -2.3861 0.9384
-15.6192 -1.6482 -2.3851 0.9384
-15.5486 -2.0307 -2.3813 0.9385
-15.5098 -2.2211 -2.3793 0.9386
-15.4688 -2.4108 -2.3774 0.9386
-15.4474 -2.5054 -2.3765 0.9386
-15.3562 -2.8821 -2.3727 0.9387
-15.2819 -3.1628 -2.3699 0.9388
-15.2560 -3.2559 -2.3689 0.9388
-15.2025 -3.4417 -2.3671 0.9389
-15.1750 -3.5342 -2.3661 0.9389
-15.1469 -3.6266 -2.3652 0.9389
-15.1183 -3.7187 -2.3643 0.9390
-15.0594 -3.9024 -2.3624 0.9390
-14.9983 -4.0852 -2.3606 0.9390
-14.9669 -4.1762 -2.3597 0.9391
-14.9350 -4.2670 -2.3588 0.9391
-14.8021 -4.6280 -2.3551 0.9392
-14.7675 -4.7176 -2.3542 0.9392
-14.6968 -4.8962 -2.3524 0.9392
-14.6607 -4.9851 -2.3515 0.9393
-14.6240 -5.0737 -2.3506 0.9393
-14.5868 -5.1621 -2.3498 0.9393
-14.3932 -5.6001 -2.3454 0.9394
-14.2709 -5.8596 -2.3427 0.9395
-14.2291 -5.9455 -2.3419 0.9395
-14.1008 -6.2016 -2.3393 0.9396
-14.0571 -6.2864 -2.3384 0.9396
-13.9229 -6.5390 -2.3359 0.9397
-13.7843 -6.7888 -2.3334 0.9397
-13.3430 -7.5213 -2.3260 0.9399
-13.2916 -7.6010 -2.3252 0.9399
-13.1348 -7.8382 -2.3228 0.9400
-13.0816 -7.9166 -2.3220 0.9400
-12.9739 -8.0723 -2.3204 0.9401
-12.9193 -8.1497 -2.3197 0.9401
-12.6969 -8.4555 -2.3166 0.9401
-12.6402 -8.5310 -2.3158 0.9402
-12.5256 -8.6810 -2.3143 0.9402
-12.4092 -8.8296 -2.3128 0.9402
-12.3504 -8.9033 -2.3121 0.9403
-12.2315 -9.0496 -2.3106 0.9403
-12.0501 -9.2661 -2.3084 0.9404
-11.9888 -9.3376 -2.3077 0.9404
-11.9271 -9.4086 -2.3070 0.9404
-11.8651 -9.4792 -2.3062 0.9404
-11.7397 -9.6194 -2.3048 0.9404
-11.5487 -9.8266 -2.3027 0.9405
-11.4195 -9.9627 -2.3014 0.9405
-11.2887 -10.0972 -2.3000 0.9406
-10.7508 -10.6187 -2.2947 0.9407
-10.6128 -10.7449 -2.2934 0.9407
-10.5432 -10.8073 -2.2928 0.9407
-10.4733 -10.8693 -2.2922 0.9408
-10.4031 -10.9309 -2.2916 0.9408
-10.2616 -11.0528 -2.2903 0.9408
-10.1903 -11.1131 -2.2897 0.9408
-10.1187 -11.1730 -2.2891 0.9408
-9.9745 -11.2913 -2.2879 0.9409
-9.8290 -11.4079 -2.2867 0.9409
-9.5342 -11.6358 -2.2844 0.9410
-9.3849 -11.7471 -2.2833 0.9410
-9.1588 -11.9105 -2.2816 0.9410
-9.0827 -11.9641 -2.2811 0.9410
-8.8530 -12.1219 -2.2795 0.9411
-8.7758 -12.1737 -2.2790 0.9411
-8.6984 -12.2250 -2.2784 0.9411
-8.5427 -12.3260 -2.2774 0.9411
-8.4644 -12.3759 -2.2769 0.9411
-8.3859 -12.4252 -2.2764 0.9412
-8.0690 -12.6180 -2.2745 0.9412
-7.9091 -12.7115 -2.2735 0.9412
-7.5047 -12.9369 -2.2712 0.9413
-7.4231 -12.9805 -2.2708 0.9413
-7.3413 -13.0237 -2.2703 0.9413
-7.1769 -13.1085 -2.2695 0.9413
-6.7620 -13.3120 -2.2674 0.9414
-6.6784 -13.3511 -2.2670 0.9414
-6.5946 -13.3898 -2.2666 0.9414
-6.5105 -13.4281 -2.2662 0.9414
-6.4262 -13.4658 -2.2658 0.9414
-6.0020 -13.6469 -2.2640 0.9415
-5.9165 -13.6816 -2.2636 0.9415
-5.8309 -13.7158 -2.2633 0.9415
-5.7451 -13.7495 -2.2629 0.9415
-5.6591 -13.7827 -2.2626 0.9415
-5.5729 -13.8154 -2.2623 0.9415
-5.4001 -13.8793 -2.2616 0.9415
-5.2265 -13.9411 -2.2610 0.9415
-5.1395 -13.9712 -2.2607 0.9415
-5.0523 -14.0009 -2.2604 0.9416
-4.8775 -14.0586 -2.2598 0.9416
-4.7899 -14.0867 -2.2595 0.9416
-4.6141 -14.1413 -2.2589 0.9416
-4.5260 -14.1679 -2.2586 0.9416
-4.4378 -14.1939 -2.2584 0.9416
-4.3495 -14.2194 -2.2581 0.9416
-4.2609 -14.2445 -2.2579 0.9416
-4.1723 -14.2689 -2.2576 0.9416
-3.9056 -14.3393 -2.2569 0.9416
-3.6378 -14.4049 -2.2562 0.9417
-3.5484 -14.4257 -2.2560 0.9417
-3.4587 -14.4461 -2.2558 0.9417
-3.3690 -14.4659 -2.2556 0.9417
-3.2792 -14.4852 -2.2554 0.9417
-3.1893 -14.5039 -2.2552 0.9417
-3.0993 -14.5221 -2.2550 0.9417
-3.0092 -14.5398 -2.2548 0.9417
-2.8287 -14.5736 -2.2544 0.9417
-2.5572 -14.6204 -2.2540 0.9417
-2.4666 -14.6350 -2.2538 0.9417
-2.2851 -14.6625 -2.2535 0.9417
-2.1943 -14.6755 -2.2534 0.9417
-2.1034 -14.6879 -2.2532 0.9417
-1.8302 -14.7220 -2.2529 0.9417
-1.7391 -14.7323 -2.2528 0.9417
-1.6478 -14.7421 -2.2527 0.9417
-1.5566 -14.7514 -2.2526 0.9418
-1.3739 -14.7683 -2.2524 0.9418
