ply
format ascii 1.0
element vertex 1572
property float32 x
property float32 y
property float32 z
property float32 I
end_header
3.2537 10.4066 -2.3252 0.9564
2.9460 10.5582 -2.3376 0.9562
2.8841 10.5887 -2.3403 0.9561
2.7597 10.6499 -2.3461 0.9560
2.6955 10.6736 -2.3476 0.9560
2.6297 10.6910 -2.3478 0.9560
2.5638 10.7080 -2.3480 0.9560
2.4977 10.7246 -2.3482 0.9560
2.4315 10.7407 -2.3484 0.9560
2.3653 10.7564 -2.3486 0.9560
2.2989 10.7717 -2.3488 0.9560
1.8315 10.8666 -2.3500 0.9559
1.6972 10.8898 -2.3503 0.9559
1.5626 10.9113 -2.3506 0.9559
1.4277 10.9311 -2.3509 0.9559
1.2248 10.9575 -2.3512 0.9559
1.1571 10.9654 -2.3514 0.9559
1.0893 10.9728 -2.3515 0.9559
1.0215 10.9799 -2.3516 0.9559
0.9536 10.9865 -2.3517 0.9559
0.8857 10.9926 -2.3518 0.9559
0.6817 11.0084 -2.3521 0.9559
0.6136 11.0129 -2.3522 0.9559
0.4092 11.0234 -2.3524 0.9559
0.2729 11.0282 -2.3525 0.9559
0.0682 11.0321 -2.3527 0.9559
-0.1365 11.0321 -2.3528 0.9559
-0.3411 11.0281 -2.3529 0.9559
-0.4775 11.0232 -2.3529 0.9559
-0.5457 11.0201 -2.3529 0.9559
-0.6138 11.0165 -2.3529 0.9559
-0.7500 11.0081 -2.3529 0.9559
-0.8861 10.9979 -2.3529 0.9559
-0.9541 10.9922 -2.3529 0.9559
-1.0900 10.9793 -2.3529 0.9559
-1.1578 10.9723 -2.3529 0.9559
-1.2256 10.9648 -2.3528 0.9559
-1.2934 10.9568 -2.3528 0.9559
-1.3611 10.9484 -2.3527 0.9559
-1.4964 10.9304 -2.3527 0.9559
-1.6313 10.9105 -2.3526 0.9559
-1.7661 10.8889 -2.3524 0.9559
-1.8333 10.8775 -2.3524 0.9559
-1.9676 10.8533 -2.3522 0.9559
-2.0346 10.8405 -2.3521 0.9559
-2.2351 10.7996 -2.3518 0.9559
-2.5011 10.7390 -2.3514 0.9559
-2.8311 10.6537 -2.3508 0.9559
-2.8968 10.6354 -2.3506 0.9559
-3.0277 10.5974 -2.3503 0.9559
-3.1582 10.5578 -2.3501 0.9559
-3.2232 10.5374 -2.3499 0.9559
-3.4175 10.4738 -2.3494 0.9559
-3.4819 10.4517 -2.3493 0.9559
-3.5463 10.4292 -2.3491 0.9559
-3.6104 10.4063 -2.3489 0.9559
-3.1921 9.0200 -2.0404 0.9616
-3.3662 8.9788 -2.0449 0.9615
-3.9921 10.2604 -2.3478 0.9560
-4.1179 10.2084 -2.3474 0.9560
-4.2431 10.1549 -2.3470 0.9560
-4.5529 10.0141 -2.3459 0.9560
-4.8578 9.8634 -2.3447 0.9560
-4.9181 9.8321 -2.3444 0.9560
-5.0980 9.7359 -2.3436 0.9560
-5.2168 9.6699 -2.3431 0.9561
-5.2759 9.6363 -2.3428 0.9561
-5.4518 9.5333 -2.3419 0.9561
-5.5099 9.4982 -2.3416 0.9561
-5.6830 9.3907 -2.3407 0.9561
-5.7972 9.3173 -2.3401 0.9561
-5.8539 9.2800 -2.3398 0.9561
-5.9104 9.2423 -2.3395 0.9561
-6.0226 9.1660 -2.3388 0.9561
-5.1996 7.8078 -2.0004 0.9624
-6.1337 9.0883 -2.3382 0.9561
-6.2439 9.0091 -2.3375 0.9562
-5.5061 7.8406 -2.0431 0.9616
-5.4982 7.7273 -2.0224 0.9620
-5.5871 7.5516 -2.0032 0.9623
-5.6339 7.5172 -2.0033 0.9623
-5.6958 7.4071 -1.9926 0.9625
-5.7241 7.3494 -1.9866 0.9626
-5.7743 7.3199 -1.9882 0.9626
-5.8055 7.2667 -1.9835 0.9627
-5.8079 7.1781 -1.9690 0.9629
-5.8634 7.1558 -1.9728 0.9629
-5.9435 7.0733 -1.9702 0.9629
-5.7125 6.7137 -1.8798 0.9646
-6.2293 7.1402 -2.0207 0.9620
-6.7182 7.4181 -2.1343 0.9599
-7.0157 7.5567 -2.1989 0.9587
-7.1666 7.6241 -2.2314 0.9581
-7.0202 7.2857 -2.1576 0.9595
-7.5937 7.7839 -2.3190 0.9565
-7.3001 7.3910 -2.2153 0.9584
-7.7565 7.6611 -2.3249 0.9564
-7.8476 7.5617 -2.3240 0.9564
-8.0698 7.3083 -2.3217 0.9564
-8.1132 7.2568 -2.3213 0.9565
-8.1562 7.2051 -2.3208 0.9565
-8.1990 7.1531 -2.3203 0.9565
-8.2414 7.1008 -2.3199 0.9565
-8.2835 7.0482 -2.3194 0.9565
-8.3666 6.9424 -2.3184 0.9565
-8.4076 6.8891 -2.3179 0.9565
-8.4886 6.7817 -2.3170 0.9565
-8.5682 6.6734 -2.3160 0.9566
-8.6464 6.5641 -2.3150 0.9566
-8.6850 6.5091 -2.3145 0.9566
-8.7231 6.4539 -2.3140 0.9566
-8.7610 6.3984 -2.3135 0.9566
-8.7985 6.3427 -2.3130 0.9566
-8.9160 6.3440 -2.3335 0.9562
-9.1712 6.4406 -2.3899 0.9552
-9.4391 6.5419 -2.4491 0.9541
-9.5512 6.5325 -2.4676 0.9538
-9.5892 6.4718 -2.4671 0.9538
-9.6269 6.4110 -2.4665 0.9538
-9.6642 6.3499 -2.4660 0.9538
-9.7010 6.2886 -2.4654 0.9538
-9.7736 6.1653 -2.4643 0.9538
-9.8093 6.1033 -2.4637 0.9538
-9.8795 5.9787 -2.4626 0.9539
-10.0150 5.7272 -2.4603 0.9539
-10.0802 5.6003 -2.4591 0.9539
-10.1751 5.4084 -2.4573 0.9540
-10.2059 5.3441 -2.4567 0.9540
-10.2363 5.2796 -2.4562 0.9540
-10.2958 5.1501 -2.4550 0.9540
-10.3537 5.0199 -2.4538 0.9540
-10.4373 4.8234 -2.4520 0.9541
-10.4909 4.6916 -2.4507 0.9541
-10.5171 4.6255 -2.4501 0.9541
-10.5429 4.5592 -2.4495 0.9541
-10.5682 4.4928 -2.4489 0.9541
-10.5931 4.4262 -2.4483 0.9541
-10.6886 4.1587 -2.4458 0.9542
-10.7113 4.0915 -2.4452 0.9542
-10.7557 3.9566 -2.4439 0.9542
-10.7772 3.8890 -2.4433 0.9542
-10.8782 3.5494 -2.4401 0.9543
-11.0014 3.0697 -2.4357 0.9544
-11.0172 3.0008 -2.4350 0.9544
-11.0622 2.7937 -2.4331 0.9544
-11.0763 2.7245 -2.4325 0.9544
-11.1161 2.5165 -2.4305 0.9545
-11.1284 2.4471 -2.4299 0.9545
-11.1404 2.3775 -2.4292 0.9545
-11.1519 2.3080 -2.4286 0.9545
-11.1629 2.2384 -2.4279 0.9545
-11.2028 1.9595 -2.4253 0.9546
-11.2117 1.8897 -2.4246 0.9546
-11.2201 1.8198 -2.4240 0.9546
-11.2356 1.6800 -2.4227 0.9546
-11.2495 1.5400 -2.4213 0.9546
-11.2557 1.4700 -2.4207 0.9546
-11.2615 1.4000 -2.4200 0.9546
-11.2669 1.3300 -2.4194 0.9547
-11.2872 0.9797 -2.4161 0.9547
-11.2900 0.9096 -2.4154 0.9547
-11.2956 0.6994 -2.4134 0.9548
-11.2973 0.4894 -2.4114 0.9548
-11.2963 0.3494 -2.4101 0.9548
-11.2891 0.0698 -2.4075 0.9549
-10.8881 0.0000 -2.4066 0.9564
-10.8776 -0.2018 -2.4047 0.9564
-10.8733 -0.2690 -2.4040 0.9564
-10.8634 -0.4033 -2.4027 0.9564
-10.8578 -0.4703 -2.4021 0.9565
-10.8454 -0.6043 -2.4008 0.9565
-10.8386 -0.6711 -2.4002 0.9565
-10.8156 -0.8714 -2.3983 0.9565
-10.8072 -0.9380 -2.3976 0.9565
-10.7983 -1.0046 -2.3970 0.9565
-10.7890 -1.0711 -2.3964 0.9566
-10.7794 -1.1375 -2.3957 0.9566
-10.7693 -1.2038 -2.3951 0.9566
-10.7479 -1.3362 -2.3938 0.9566
-10.7249 -1.4683 -2.3926 0.9566
-10.7128 -1.5341 -2.3920 0.9566
-10.6873 -1.6656 -2.3907 0.9567
-10.6740 -1.7312 -2.3901 0.9567
-10.6317 -1.9274 -2.3882 0.9567
-10.6015 -2.0577 -2.3869 0.9567
-10.5697 -2.1875 -2.3857 0.9567
-10.5532 -2.2522 -2.3851 0.9568
-10.5191 -2.3814 -2.3838 0.9568
-10.4834 -2.5100 -2.3826 0.9568
-10.4462 -2.6381 -2.3814 0.9568
-10.4270 -2.7019 -2.3807 0.9568
-10.4073 -2.7657 -2.3801 0.9568
-10.3874 -2.8292 -2.3795 0.9569
-10.3670 -2.8927 -2.3789 0.9569
-10.3463 -2.9560 -2.3783 0.9569
-10.3251 -3.0191 -2.3777 0.9569
-10.2595 -3.2077 -2.3759 0.9569
-10.2369 -3.2703 -2.3753 0.9569
-10.1904 -3.3949 -2.3741 0.9570
-10.1667 -3.4570 -2.3735 0.9570
-9.9633 -3.9476 -2.3687 0.9570
-9.9088 -4.0685 -2.3675 0.9571
-9.8528 -4.1887 -2.3664 0.9571
-9.8243 -4.2485 -2.3658 0.9571
-9.7663 -4.3675 -2.3646 0.9571
-9.7367 -4.4268 -2.3640 0.9571
-9.6765 -4.5446 -2.3629 0.9572
-9.6459 -4.6033 -2.3623 0.9572
-9.6149 -4.6617 -2.3617 0.9572
-9.5835 -4.7200 -2.3612 0.9572
-9.5519 -4.7780 -2.3606 0.9572
-9.5199 -4.8358 -2.3600 0.9572
-9.4875 -4.8934 -2.3595 0.9572
-9.2863 -5.2346 -2.3561 0.9573
-9.2516 -5.2907 -2.3556 0.9573
-9.2166 -5.3465 -2.3550 0.9573
-9.1455 -5.4576 -2.3540 0.9573
-9.0364 -5.6225 -2.3523 0.9573
-8.9621 -5.7312 -2.3513 0.9574
-8.8865 -5.8389 -2.3502 0.9574
-8.8483 -5.8925 -2.3497 0.9574
-8.8096 -5.9458 -2.3491 0.9574
-8.7708 -5.9987 -2.3486 0.9574
-8.7316 -6.0515 -2.3481 0.9574
-8.5717 -6.2602 -2.3460 0.9574
-8.5309 -6.3117 -2.3455 0.9575
-8.4899 -6.3629 -2.3450 0.9575
-8.4070 -6.4647 -2.3440 0.9575
-8.3228 -6.5654 -2.3430 0.9575
-8.1510 -6.7635 -2.3410 0.9575
-7.9746 -6.9573 -2.3391 0.9576
-7.9298 -7.0051 -2.3386 0.9576
-7.8847 -7.0525 -2.3382 0.9576
-7.8394 -7.0997 -2.3377 0.9576
-7.7479 -7.1933 -2.3367 0.9576
-7.6553 -7.2856 -2.3358 0.9576
-7.6086 -7.3314 -2.3354 0.9576
-7.5616 -7.3769 -2.3349 0.9576
-7.5144 -7.4221 -2.3345 0.9577
-7.4192 -7.5115 -2.3336 0.9577
-7.3229 -7.5998 -2.3327 0.9577
-7.2744 -7.6435 -2.3322 0.9577
-7.2257 -7.6869 -2.3318 0.9577
-7.1766 -7.7300 -2.3313 0.9577
-7.1273 -7.7728 -2.3309 0.9577
-6.9781 -7.8993 -2.3296 0.9577
-6.9279 -7.9409 -2.3292 0.9577
-6.8774 -7.9822 -2.3288 0.9578
-6.8267 -8.0231 -2.3284 0.9578
-6.7757 -8.0637 -2.3280 0.9578
-6.6731 -8.1441 -2.3271 0.9578
-6.6215 -8.1838 -2.3267 0.9578
-6.5175 -8.2622 -2.3259 0.9578
-6.3069 -8.4152 -2.3244 0.9578
-6.2537 -8.4526 -2.3240 0.9578
-6.1467 -8.5265 -2.3232 0.9579
-6.0929 -8.5630 -2.3229 0.9579
-5.8755 -8.7056 -2.3214 0.9579
-5.7655 -8.7749 -2.3207 0.9579
-5.5992 -8.8763 -2.3196 0.9579
-5.5434 -8.9094 -2.3193 0.9579
-5.4312 -8.9747 -2.3186 0.9579
-5.3748 -9.0068 -2.3183 0.9579
-5.2615 -9.0700 -2.3176 0.9580
-5.0902 -9.1622 -2.3166 0.9580
-5.0328 -9.1923 -2.3163 0.9580
-4.9752 -9.2220 -2.3160 0.9580
-4.8594 -9.2803 -2.3154 0.9580
-4.8013 -9.3090 -2.3151 0.9580
-4.6260 -9.3928 -2.3142 0.9580
-4.5672 -9.4200 -2.3139 0.9580
-4.5083 -9.4470 -2.3136 0.9580
-4.4493 -9.4735 -2.3133 0.9580
-4.3307 -9.5255 -2.3128 0.9580
-4.0318 -9.6492 -2.3114 0.9581
-3.9716 -9.6729 -2.3112 0.9581
-3.8509 -9.7191 -2.3107 0.9581
-3.7903 -9.7417 -2.3104 0.9581
-3.6687 -9.7858 -2.3099 0.9581
-3.6078 -9.8073 -2.3097 0.9581
-3.5467 -9.8284 -2.3095 0.9581
-3.4855 -9.8492 -2.3092 0.9581
-3.4242 -9.8696 -2.3090 0.9581
-3.3012 -9.9093 -2.3086 0.9581
-3.2396 -9.9286 -2.3083 0.9581
-3.0540 -9.9842 -2.3077 0.9581
-2.9919 -10.0021 -2.3075 0.9581
-2.9297 -10.0195 -2.3073 0.9581
-2.8675 -10.0366 -2.3071 0.9581
-2.8051 -10.0533 -2.3069 0.9581
-2.7427 -10.0696 -2.3067 0.9581
-2.6801 -10.0855 -2.3065 0.9582
-2.5548 -10.1163 -2.3062 0.9582
-2.4920 -10.1312 -2.3060 0.9582
-2.4291 -10.1456 -2.3058 0.9582
-2.3661 -10.1597 -2.3057 0.9582
-2.2400 -10.1868 -2.3053 0.9582
-2.1768 -10.1997 -2.3052 0.9582
-2.1135 -10.2123 -2.3050 0.9582
-1.8598 -10.2589 -2.3044 0.9582
-1.5413 -10.3086 -2.3038 0.9582
-1.4136 -10.3258 -2.3035 0.9582
-1.0293 -10.3683 -2.3029 0.9582
-0.8367 -10.3844 -2.3027 0.9582
-0.7724 -10.3891 -2.3026 0.9582
-0.7081 -10.3933 -2.3025 0.9582
-0.5151 -10.4037 -2.3023 0.9582
-0.3220 -10.4107 -2.3021 0.9582
-0.1932 -10.4134 -2.3020 0.9582
0.0000 -10.4147 -2.3019 0.9582
0.1932 -10.4125 -2.3018 0.9582
0.4507 -10.4042 -2.3018 0.9582
0.7079 -10.3898 -2.3018 0.9582
0.7721 -10.3853 -2.3018 0.9582
0.8364 -10.3804 -2.3018 0.9582
0.9005 -10.3751 -2.3018 0.9582
0.9647 -10.3694 -2.3018 0.9582
1.0929 -10.3569 -2.3018 0.9582
1.2849 -10.3352 -2.3019 0.9582
1.3488 -10.3273 -2.3020 0.9582
1.4127 -10.3190 -2.3020 0.9582
1.4765 -10.3102 -2.3021 0.9582
1.5403 -10.3011 -2.3021 0.9582
1.6040 -10.2916 -2.3022 0.9582
1.6676 -10.2818 -2.3022 0.9582
1.7947 -10.2609 -2.3024 0.9582
1.9850 -10.2268 -2.3026 0.9582
2.1114 -10.2021 -2.3027 0.9582
2.3635 -10.1485 -2.3031 0.9582
2.4264 -10.1341 -2.3032 0.9582
2.4891 -10.1194 -2.3033 0.9582
2.5518 -10.1042 -2.3034 0.9582
2.6768 -10.0729 -2.3036 0.9582
2.7392 -10.0567 -2.3038 0.9582
2.8637 -10.0231 -2.3040 0.9582
3.0496 -9.9700 -2.3044 0.9582
3.7230 -9.7469 -2.3061 0.9582
3.7836 -9.7245 -2.3063 0.9582
3.9643 -9.6550 -2.3069 0.9581
4.0841 -9.6068 -2.3073 0.9581
4.1438 -9.5822 -2.3075 0.9581
4.3220 -9.5062 -2.3081 0.9581
4.3811 -9.4802 -2.3083 0.9581
4.4401 -9.4538 -2.3085 0.9581
4.4988 -9.4270 -2.3087 0.9581
4.5575 -9.3999 -2.3090 0.9581
4.6160 -9.3725 -2.3092 0.9581
4.6744 -9.3447 -2.3094 0.9581
4.7325 -9.3166 -2.3096 0.9581
4.8484 -9.2592 -2.3101 0.9581
4.9061 -9.2301 -2.3104 0.9581
5.0781 -9.1404 -2.3111 0.9581
5.1351 -9.1099 -2.3114 0.9581
5.1919 -9.0790 -2.3116 0.9581
5.2486 -9.0477 -2.3119 0.9581
5.6951 -8.7855 -2.3141 0.9580
5.7501 -8.7513 -2.3144 0.9580
6.0218 -8.5749 -2.3159 0.9580
6.0755 -8.5387 -2.3162 0.9580
6.1291 -8.5021 -2.3166 0.9580
6.2355 -8.4279 -2.3172 0.9580
6.3935 -8.3144 -2.3182 0.9579
6.4977 -8.2370 -2.3189 0.9579
6.6010 -8.1585 -2.3196 0.9579
6.6524 -8.1187 -2.3199 0.9579
6.8049 -7.9975 -2.3210 0.9579
6.8553 -7.9566 -2.3213 0.9579
6.9554 -7.8736 -2.3220 0.9579
7.0051 -7.8317 -2.3224 0.9579
7.0545 -7.7895 -2.3228 0.9579
7.1526 -7.7041 -2.3235 0.9578
7.2013 -7.6610 -2.3239 0.9578
7.2979 -7.5739 -2.3247 0.9578
7.3458 -7.5299 -2.3251 0.9578
7.3935 -7.4855 -2.3255 0.9578
7.4409 -7.4409 -2.3259 0.9578
7.5350 -7.3508 -2.3267 0.9578
7.7199 -7.1673 -2.3283 0.9578
7.9005 -6.9792 -2.3300 0.9577
7.9450 -6.9314 -2.3304 0.9577
8.0331 -6.8352 -2.3313 0.9577
8.1200 -6.7378 -2.3321 0.9577
8.1631 -6.6887 -2.3326 0.9577
8.2058 -6.6394 -2.3330 0.9577
8.2483 -6.5897 -2.3335 0.9577
8.2905 -6.5399 -2.3339 0.9577
8.3324 -6.4897 -2.3344 0.9577
8.3740 -6.4393 -2.3348 0.9576
8.4153 -6.3887 -2.3353 0.9576
8.4563 -6.3377 -2.3357 0.9576
8.4971 -6.2866 -2.3362 0.9576
8.5374 -6.2351 -2.3367 0.9576
8.6174 -6.1315 -2.3376 0.9576
8.6960 -6.0269 -2.3385 0.9576
8.7349 -5.9742 -2.3390 0.9576
8.7735 -5.9213 -2.3395 0.9576
8.8117 -5.8681 -2.3400 0.9576
8.8497 -5.8147 -2.3405 0.9575
8.9617 -5.6531 -2.3419 0.9575
8.9984 -5.5987 -2.3424 0.9575
9.1065 -5.4343 -2.3439 0.9575
9.1419 -5.3791 -2.3444 0.9575
9.2117 -5.2679 -2.3454 0.9575
9.2461 -5.2119 -2.3459 0.9575
9.2802 -5.1558 -2.3465 0.9574
9.3139 -5.0994 -2.3470 0.9574
9.3474 -5.0428 -2.3475 0.9574
9.4132 -4.9290 -2.3485 0.9574
9.4776 -4.8143 -2.3496 0.9574
9.6925 -4.4067 -2.3533 0.9573
9.7218 -4.3477 -2.3539 0.9573
9.7507 -4.2884 -2.3544 0.9573
9.7793 -4.2290 -2.3549 0.9573
9.8076 -4.1694 -2.3555 0.9573
9.8355 -4.1097 -2.3560 0.9573
9.8630 -4.0497 -2.3566 0.9573
9.8902 -3.9896 -2.3571 0.9573
9.9170 -3.9293 -2.3577 0.9572
9.9435 -3.8688 -2.3583 0.9572
10.0207 -3.6862 -2.3599 0.9572
10.0704 -3.5638 -2.3611 0.9572
10.0946 -3.5023 -2.3616 0.9572
10.2542 -3.0674 -2.3657 0.9571
10.2755 -3.0046 -2.3662 0.9571
10.2964 -2.9417 -2.3668 0.9571
10.3371 -2.8156 -2.3680 0.9571
10.3763 -2.6888 -2.3692 0.9570
10.4501 -2.4337 -2.3716 0.9570
10.4676 -2.3697 -2.3721 0.9570
10.4847 -2.3055 -2.3727 0.9570
10.5014 -2.2412 -2.3733 0.9570
10.5492 -2.0475 -2.3752 0.9569
10.6713 -1.4609 -2.3806 0.9568
10.6829 -1.3952 -2.3812 0.9568
10.6941 -1.3295 -2.3819 0.9568
10.7152 -1.1978 -2.3831 0.9568
10.7252 -1.1317 -2.3837 0.9568
10.7440 -0.9996 -2.3850 0.9568
10.7528 -0.9333 -2.3856 0.9567
10.7611 -0.8670 -2.3862 0.9567
10.7691 -0.8007 -2.3868 0.9567
10.7838 -0.6678 -2.3881 0.9567
10.7906 -0.6012 -2.3887 0.9567
10.8225 -0.2008 -2.3925 0.9566
10.8299 -0.0670 -2.3937 0.9566
10.8356 0.0670 -2.3950 0.9566
10.8378 0.1341 -2.3956 0.9566
10.8411 0.2682 -2.3969 0.9565
10.8426 0.5369 -2.3994 0.9565
10.8420 0.6040 -2.4001 0.9565
10.8394 0.7385 -2.4013 0.9565
10.8375 0.8057 -2.4020 0.9565
10.8352 0.8730 -2.4026 0.9564
10.8325 0.9402 -2.4033 0.9564
10.8258 1.0747 -2.4045 0.9564
10.8218 1.1419 -2.4052 0.9564
10.8174 1.2092 -2.4058 0.9564
10.7822 1.6122 -2.4096 0.9563
10.7672 1.7463 -2.4109 0.9563
10.7504 1.8804 -2.4122 0.9563
10.7414 1.9473 -2.4128 0.9563
10.7120 2.1480 -2.4148 0.9562
10.7013 2.2147 -2.4154 0.9562
10.6787 2.3482 -2.4167 0.9562
10.6668 2.4148 -2.4173 0.9562
10.6545 2.4814 -2.4179 0.9562
10.6417 2.5479 -2.4186 0.9562
10.6286 2.6143 -2.4192 0.9562
10.6150 2.6807 -2.4198 0.9561
10.5866 2.8133 -2.4211 0.9561
10.5717 2.8795 -2.4218 0.9561
10.5408 3.0116 -2.4230 0.9561
10.5248 3.0775 -2.4237 0.9561
10.4382 3.4058 -2.4268 0.9560
10.4006 3.5365 -2.4281 0.9560
10.3412 3.7317 -2.4299 0.9560
10.2563 3.9905 -2.4324 0.9559
10.2340 4.0549 -2.4331 0.9559
10.1883 4.1832 -2.4343 0.9559
10.1648 4.2472 -2.4349 0.9559
10.1409 4.3111 -2.4355 0.9559
10.1166 4.3749 -2.4362 0.9559
10.0668 4.5020 -2.4374 0.9558
10.0413 4.5652 -2.4380 0.9558
9.9891 4.6914 -2.4392 0.9558
9.9624 4.7543 -2.4398 0.9558
9.7642 5.1900 -2.4441 0.9557
9.7040 5.3129 -2.4453 0.9557
9.6733 5.3742 -2.4459 0.9557
9.6422 5.4352 -2.4465 0.9557
9.6108 5.4961 -2.4471 0.9557
9.5789 5.5567 -2.4476 0.9556
9.5141 5.6775 -2.4488 0.9556
9.4810 5.7376 -2.4494 0.9556
9.4477 5.7975 -2.4500 0.9556
9.4138 5.8573 -2.4506 0.9556
9.3796 5.9167 -2.4512 0.9556
9.1298 6.3275 -2.4552 0.9555
9.0926 6.3853 -2.4558 0.9555
9.0550 6.4429 -2.4563 0.9555
8.9010 6.6710 -2.4586 0.9555
8.8616 6.7275 -2.4591 0.9554
8.8218 6.7837 -2.4597 0.9554
8.7816 6.8396 -2.4602 0.9554
8.7003 6.9508 -2.4613 0.9554
8.6175 7.0610 -2.4624 0.9554
8.5332 7.1702 -2.4635 0.9554
8.3440 7.2795 -2.4474 0.9557
8.0424 7.1045 -2.3718 0.9570
7.5341 7.2596 -2.3125 0.9580
7.3583 7.4498 -2.3144 0.9580
7.3135 7.4967 -2.3149 0.9580
7.1316 7.6814 -2.3167 0.9580
7.0853 7.7270 -2.3172 0.9580
6.8497 7.9500 -2.3194 0.9579
6.7534 8.0371 -2.3203 0.9579
6.7048 8.0803 -2.3207 0.9579
6.6068 8.1656 -2.3216 0.9579
6.5077 8.2497 -2.3224 0.9579
6.4577 8.2913 -2.3229 0.9579
6.3570 8.3736 -2.3237 0.9578
6.3062 8.4142 -2.3241 0.9578
6.2551 8.4545 -2.3245 0.9578
6.2038 8.4946 -2.3249 0.9578
6.1522 8.5342 -2.3253 0.9578
6.0483 8.6126 -2.3261 0.9578
5.8905 8.7278 -2.3273 0.9578
5.7840 8.8029 -2.3281 0.9578
5.6765 8.8766 -2.3288 0.9578
5.6224 8.9130 -2.3292 0.9577
4.8369 7.9927 -2.0649 0.9625
4.7566 7.9709 -2.0516 0.9627
4.4545 7.9024 -2.0050 0.9635
4.3989 8.0346 -2.0246 0.9632
4.3741 8.1077 -2.0362 0.9630
4.2942 8.2009 -2.0461 0.9628
4.6097 9.5076 -2.3354 0.9576
4.4930 9.5665 -2.3360 0.9576
4.4343 9.5953 -2.3363 0.9576
4.3755 9.6238 -2.3366 0.9576
4.3164 9.6519 -2.3369 0.9576
4.2572 9.6796 -2.3372 0.9576
4.1381 9.7340 -2.3378 0.9576
4.0184 9.7868 -2.3384 0.9576
3.9583 9.8126 -2.3387 0.9576
3.8980 9.8380 -2.3389 0.9576
3.6551 9.9360 -2.3400 0.9576
3.5940 9.9595 -2.3403 0.9576
3.4713 10.0054 -2.3408 0.9575
3.0372 10.1536 -2.3425 0.9575
2.8492 10.2111 -2.3431 0.9575
2.7862 10.2294 -2.3433 0.9575
2.5967 10.2821 -2.3440 0.9575
2.4061 10.3310 -2.3445 0.9575
2.2784 10.3617 -2.3449 0.9575
2.2145 10.3763 -2.3451 0.9575
1.9577 10.4310 -2.3458 0.9575
1.8933 10.4436 -2.3459 0.9575
1.7642 10.4676 -2.3462 0.9574
1.6996 10.4790 -2.3464 0.9574
1.6348 10.4899 -2.3465 0.9574
1.5051 10.5106 -2.3468 0.9574
1.4402 10.5203 -2.3469 0.9574
1.2450 10.5468 -2.3473 0.9574
1.1798 10.5549 -2.3474 0.9574
1.0493 10.5696 -2.3477 0.9574
0.9839 10.5764 -2.3478 0.9574
0.9186 10.5827 -2.3479 0.9574
0.8531 10.5886 -2.3480 0.9574
0.6566 10.6039 -2.3482 0.9574
0.3942 10.6182 -2.3485 0.9574
0.3285 10.6207 -2.3486 0.9574
0.1314 10.6258 -2.3488 0.9574
-0.1314 10.6265 -2.3489 0.9574
-0.4600 10.6179 -2.3490 0.9574
-0.5912 10.6115 -2.3491 0.9574
-0.6569 10.6077 -2.3491 0.9574
-0.7224 10.6034 -2.3491 0.9574
-0.8535 10.5936 -2.3491 0.9574
-0.9190 10.5880 -2.3490 0.9574
-0.9845 10.5821 -2.3490 0.9574
-1.1152 10.5689 -2.3490 0.9574
-1.2458 10.5540 -2.3489 0.9574
-1.3111 10.5459 -2.3489 0.9574
-1.4413 10.5285 -2.3488 0.9574
-1.5064 10.5192 -2.3487 0.9574
-1.5714 10.5095 -2.3487 0.9574
-1.6363 10.4993 -2.3486 0.9574
-1.7659 10.4776 -2.3485 0.9574
-1.8306 10.4662 -2.3484 0.9574
-1.9598 10.4421 -2.3483 0.9574
-2.0243 10.4294 -2.3482 0.9574
-2.0886 10.4162 -2.3481 0.9574
-2.2812 10.3744 -2.3478 0.9574
-2.4092 10.3445 -2.3476 0.9574
-2.7271 10.2624 -2.3470 0.9574
-2.7904 10.2447 -2.3468 0.9574
-2.8535 10.2267 -2.3467 0.9574
-2.9166 10.2082 -2.3466 0.9574
-2.9794 10.1894 -2.3464 0.9574
-3.0422 10.1701 -2.3463 0.9574
-3.1048 10.1505 -2.3461 0.9574
-3.1673 10.1304 -2.3460 0.9575
-3.2297 10.1100 -2.3458 0.9575
-3.3541 10.0680 -2.3455 0.9575
-3.2300 8.9508 -2.1032 0.9618
-3.3528 8.9431 -2.1110 0.9616
-3.7847 9.9083 -2.3443 0.9575
-3.9063 9.8591 -2.3439 0.9575
-4.2671 9.7023 -2.3427 0.9575
-4.3266 9.6748 -2.3425 0.9575
-4.3860 9.6469 -2.3423 0.9575
-4.4451 9.6187 -2.3420 0.9575
-4.5628 9.5611 -2.3416 0.9575
-4.7380 9.4719 -2.3408 0.9575
-4.7959 9.4414 -2.3406 0.9575
-4.8537 9.4105 -2.3403 0.9576
-4.9113 9.3793 -2.3401 0.9576
-4.9686 9.3477 -2.3398 0.9576
-5.0827 9.2834 -2.3393 0.9576
-5.1959 9.2177 -2.3387 0.9576
-5.3082 9.1506 -2.3382 0.9576
-5.3641 9.1164 -2.3379 0.9576
-5.4751 9.0472 -2.3373 0.9576
-5.5851 8.9764 -2.3367 0.9576
-5.6942 8.9044 -2.3361 0.9576
-5.7484 8.8678 -2.3358 0.9576
-5.8024 8.8309 -2.3355 0.9576
-5.1989 7.8068 -2.0731 0.9623
-6.0157 8.6799 -2.3342 0.9577
-5.4999 7.8317 -2.1152 0.9616
-5.5737 7.7318 -2.1067 0.9617
-5.6114 7.3915 -2.0512 0.9627
-5.7013 7.3201 -2.0508 0.9627
-5.7758 7.3219 -2.0613 0.9625
-5.8145 7.2780 -2.0590 0.9626
-5.8067 7.0866 -2.0250 0.9632
-6.3079 7.1407 -2.1059 0.9617
-6.5828 7.2687 -2.1675 0.9606
-7.0258 7.5676 -2.2824 0.9586
-6.8629 7.2111 -2.2003 0.9600
-7.2950 7.5708 -2.3238 0.9578
-7.3404 7.5242 -2.3234 0.9579
-7.4302 7.4302 -2.3225 0.9579
-7.5626 7.2871 -2.3212 0.9579
-7.6493 7.1903 -2.3204 0.9579
-7.7347 7.0925 -2.3195 0.9579
-7.8604 6.9437 -2.3182 0.9579
-7.9426 6.8433 -2.3173 0.9580
-8.0235 6.7419 -2.3163 0.9580
-8.0634 6.6908 -2.3159 0.9580
-8.1030 6.6395 -2.3154 0.9580
-8.1423 6.5879 -2.3150 0.9580
-8.2198 6.4841 -2.3140 0.9580
-8.2580 6.4318 -2.3135 0.9580
-8.3335 6.3266 -2.3126 0.9580
-8.3708 6.2736 -2.3121 0.9581
-8.4076 6.2204 -2.3116 0.9581
-8.4442 6.1670 -2.3111 0.9581
-8.6229 6.2162 -2.3495 0.9574
-8.8639 6.3069 -2.4045 0.9564
-9.1163 6.4020 -2.4622 0.9554
-9.1690 6.3547 -2.4657 0.9553
-9.2429 6.2381 -2.4647 0.9553
-9.3153 6.1207 -2.4636 0.9554
-9.3862 6.0023 -2.4625 0.9554
-9.4555 5.8832 -2.4614 0.9554
-9.4896 5.8233 -2.4609 0.9554
-9.5895 5.6424 -2.4592 0.9554
-9.6221 5.5818 -2.4587 0.9555
-9.6542 5.5209 -2.4581 0.9555
-9.6860 5.4599 -2.4576 0.9555
-9.7483 5.3372 -2.4564 0.9555
-9.7789 5.2756 -2.4559 0.9555
-9.8090 5.2138 -2.4553 0.9555
-9.8388 5.1519 -2.4547 0.9555
-9.8971 5.0274 -2.4536 0.9555
-9.9539 4.9023 -2.4524 0.9556
-10.0091 4.7766 -2.4513 0.9556
-10.0360 4.7135 -2.4507 0.9556
-10.0626 4.6502 -2.4501 0.9556
-10.1145 4.5233 -2.4489 0.9556
-10.1893 4.3317 -2.4472 0.9557
-10.2134 4.2676 -2.4466 0.9557
-10.2371 4.2033 -2.4460 0.9557
-10.2604 4.1389 -2.4454 0.9557
-10.3278 3.9449 -2.4436 0.9557
-10.3495 3.8800 -2.4430 0.9557
-10.3915 3.7499 -2.4418 0.9558
-10.4319 3.6193 -2.4406 0.9558
-10.5077 3.3568 -2.4381 0.9558
-10.5256 3.2909 -2.4375 0.9558
-10.5769 3.0927 -2.4357 0.9559
-10.5931 3.0265 -2.4350 0.9559
-10.6089 2.9602 -2.4344 0.9559
-10.6393 2.8273 -2.4332 0.9559
-10.6680 2.6941 -2.4319 0.9559
-10.6950 2.5606 -2.4307 0.9559
-10.7079 2.4938 -2.4301 0.9560
-10.7204 2.4269 -2.4294 0.9560
-10.7324 2.3600 -2.4288 0.9560
-10.7440 2.2930 -2.4282 0.9560
-10.7763 2.0916 -2.4263 0.9560
-10.7862 2.0244 -2.4257 0.9560
-10.8048 1.8899 -2.4244 0.9561
-10.8369 1.6204 -2.4219 0.9561
-10.8439 1.5529 -2.4212 0.9561
-10.8623 1.3504 -2.4193 0.9562
-10.8724 1.2153 -2.4181 0.9562
-10.8769 1.1477 -2.4174 0.9562
-10.8877 0.9450 -2.4155 0.9562
-10.8947 0.7423 -2.4136 0.9563
-10.8982 0.4721 -2.4110 0.9563
-10.8980 0.4045 -2.4104 0.9563
-10.8974 0.3371 -2.4098 0.9563
-10.8950 0.2021 -2.4085 0.9563
-10.8931 0.1347 -2.4078 0.9564
-10.8908 0.0674 -2.4072 0.9564
-10.5161 -0.0000 -2.4064 0.9578
-10.5062 -0.1949 -2.4045 0.9578
-10.4976 -0.3247 -2.4033 0.9578
-10.4927 -0.3895 -2.4027 0.9578
-10.4874 -0.4543 -2.4020 0.9578
-10.4817 -0.5190 -2.4014 0.9579
-10.4756 -0.5836 -2.4008 0.9579
-10.4622 -0.7128 -2.3996 0.9579
-10.4550 -0.7773 -2.3990 0.9579
-10.4392 -0.9061 -2.3977 0.9579
-10.4307 -0.9704 -2.3971 0.9579
-10.4218 -1.0346 -2.3965 0.9579
-10.4126 -1.0987 -2.3959 0.9579
-10.4029 -1.1629 -2.3953 0.9580
-10.3929 -1.2268 -2.3947 0.9580
-10.3825 -1.2908 -2.3941 0.9580
-10.3604 -1.4183 -2.3929 0.9580
-10.3245 -1.6091 -2.3910 0.9580
-10.3117 -1.6725 -2.3904 0.9580
-10.2711 -1.8621 -2.3886 0.9581
-10.2568 -1.9250 -2.3880 0.9581
-10.1629 -2.3007 -2.3844 0.9581
-10.1109 -2.4870 -2.3826 0.9582
-10.0743 -2.6106 -2.3814 0.9582
-10.0555 -2.6722 -2.3808 0.9582
-10.0363 -2.7336 -2.3802 0.9582
-9.9557 -2.9781 -2.3779 0.9583
-9.9346 -3.0388 -2.3773 0.9583
-9.8914 -3.1599 -2.3761 0.9583
-9.8693 -3.2202 -2.3755 0.9583
-9.8468 -3.2804 -2.3749 0.9583
-9.8239 -3.3404 -2.3744 0.9583
-9.7288 -3.5789 -2.3721 0.9584
-9.7041 -3.6381 -2.3715 0.9584
-9.6791 -3.6971 -2.3709 0.9584
-9.6537 -3.7560 -2.3703 0.9584
-9.6280 -3.8148 -2.3698 0.9584
-9.5755 -3.9317 -2.3686 0.9584
-9.4941 -4.1057 -2.3669 0.9584
-9.3808 -4.3352 -2.3647 0.9585
-9.3516 -4.3921 -2.3642 0.9585
-9.2315 -4.6177 -2.3619 0.9585
-9.2006 -4.6737 -2.3614 0.9585
-9.1694 -4.7294 -2.3609 0.9585
-9.1060 -4.8402 -2.3598 0.9586
-9.0739 -4.8953 -2.3592 0.9586
-9.0085 -5.0049 -2.3582 0.9586
-8.9754 -5.0593 -2.3576 0.9586
-8.9419 -5.1136 -2.3571 0.9586
-8.9081 -5.1676 -2.3566 0.9586
-8.8740 -5.2214 -2.3560 0.9586
-8.8396 -5.2750 -2.3555 0.9586
-8.8048 -5.3284 -2.3550 0.9586
-8.7697 -5.3816 -2.3545 0.9587
-8.6987 -5.4872 -2.3534 0.9587
-8.6264 -5.5919 -2.3524 0.9587
-8.5528 -5.6957 -2.3514 0.9587
-8.5156 -5.7472 -2.3509 0.9587
-8.4780 -5.7986 -2.3504 0.9587
-8.4402 -5.8496 -2.3498 0.9587
-8.2070 -6.1509 -2.3469 0.9588
-8.0046 -6.3950 -2.3444 0.9588
-7.9633 -6.4431 -2.3440 0.9588
-7.9217 -6.4909 -2.3435 0.9588
-7.8798 -6.5385 -2.3430 0.9589
-7.7952 -6.6328 -2.3421 0.9589
-7.7525 -6.6795 -2.3416 0.9589
-7.6662 -6.7722 -2.3407 0.9589
-7.6227 -6.8182 -2.3402 0.9589
-7.5789 -6.8638 -2.3398 0.9589
-7.5349 -6.9092 -2.3393 0.9589
-7.4906 -6.9543 -2.3389 0.9589
-7.4460 -6.9992 -2.3384 0.9589
-7.3561 -7.0881 -2.3375 0.9589
-7.3107 -7.1321 -2.3371 0.9590
-7.2650 -7.1758 -2.3366 0.9590
-7.2192 -7.2192 -2.3362 0.9590
-7.1731 -7.2624 -2.3358 0.9590
-7.0333 -7.3901 -2.3345 0.9590
-6.9862 -7.4321 -2.3341 0.9590
-6.9388 -7.4738 -2.3336 0.9590
-6.8912 -7.5153 -2.3332 0.9590
-6.8434 -7.5564 -2.3328 0.9590
-6.7953 -7.5972 -2.3324 0.9590
-6.7470 -7.6378 -2.3320 0.9590
-6.6985 -7.6780 -2.3316 0.9591
-6.6497 -7.7179 -2.3312 0.9591
-6.6007 -7.7575 -2.3308 0.9591
-6.5515 -7.7969 -2.3304 0.9591
-6.5021 -7.8359 -2.3300 0.9591
-6.4524 -7.8746 -2.3296 0.9591
-6.3523 -7.9512 -2.3288 0.9591
-6.3020 -7.9890 -2.3284 0.9591
-6.2515 -8.0265 -2.3280 0.9591
-6.2007 -8.0637 -2.3276 0.9591
-6.1497 -8.1005 -2.3273 0.9591
-6.0985 -8.1371 -2.3269 0.9591
-6.0471 -8.1734 -2.3265 0.9591
-5.8917 -8.2803 -2.3254 0.9592
-5.8394 -8.3152 -2.3251 0.9592
-5.7870 -8.3499 -2.3247 0.9592
-5.6815 -8.4183 -2.3240 0.9592
-5.5219 -8.5184 -2.3230 0.9592
-5.4146 -8.5836 -2.3223 0.9592
-5.2522 -8.6788 -2.3213 0.9592
-5.1430 -8.7407 -2.3206 0.9592
-5.0881 -8.7711 -2.3203 0.9592
-4.7555 -8.9467 -2.3185 0.9593
-4.6994 -8.9748 -2.3182 0.9593
-4.5869 -9.0300 -2.3176 0.9593
-4.4738 -9.0837 -2.3170 0.9593
-4.4170 -9.1101 -2.3167 0.9593
-4.3600 -9.1362 -2.3165 0.9593
-4.3029 -9.1619 -2.3162 0.9593
-4.2457 -9.1872 -2.3159 0.9593
-4.1883 -9.2123 -2.3156 0.9593
-4.1308 -9.2369 -2.3154 0.9593
-4.0731 -9.2612 -2.3151 0.9593
-4.0153 -9.2852 -2.3149 0.9593
-3.9574 -9.3088 -2.3146 0.9593
-3.7243 -9.3999 -2.3136 0.9594
-3.6657 -9.4217 -2.3134 0.9594
-3.5482 -9.4644 -2.3129 0.9594
-3.4892 -9.4852 -2.3127 0.9594
-3.4302 -9.5057 -2.3124 0.9594
-3.3118 -9.5456 -2.3120 0.9594
-3.0735 -9.6210 -2.3111 0.9594
-2.9537 -9.6566 -2.3107 0.9594
-2.8937 -9.6739 -2.3105 0.9594
-2.7131 -9.7235 -2.3100 0.9594
-2.6527 -9.7393 -2.3098 0.9594
-2.5922 -9.7548 -2.3096 0.9594
-2.4710 -9.7846 -2.3093 0.9594
-2.4103 -9.7990 -2.3091 0.9594
-2.1665 -9.8528 -2.3084 0.9594
-2.1054 -9.8654 -2.3083 0.9595
-1.9830 -9.8894 -2.3080 0.9595
-1.8603 -9.9120 -2.3077 0.9595
-1.7989 -9.9227 -2.3076 0.9595
-1.6142 -9.9527 -2.3072 0.9595
-1.3673 -9.9875 -2.3067 0.9595
-1.3054 -9.9953 -2.3066 0.9595
-1.1816 -10.0098 -2.3064 0.9595
-1.0576 -10.0228 -2.3062 0.9595
-0.9956 -10.0288 -2.3061 0.9595
-0.8714 -10.0396 -2.3060 0.9595
-0.8093 -10.0444 -2.3059 0.9595
-0.6849 -10.0530 -2.3057 0.9595
-0.5605 -10.0601 -2.3056 0.9595
-0.4982 -10.0631 -2.3055 0.9595
-0.4360 -10.0657 -2.3055 0.9595
-0.3738 -10.0680 -2.3054 0.9595
-0.0623 -10.0738 -2.3052 0.9595
0.0623 -10.0734 -2.3051 0.9595
0.1246 -10.0727 -2.3051 0.9595
0.1869 -10.0717 -2.3051 0.9595
0.3114 -10.0684 -2.3050 0.9595
0.3737 -10.0662 -2.3050 0.9595
0.4982 -10.0608 -2.3050 0.9595
0.5604 -10.0575 -2.3050 0.9595
0.6226 -10.0538 -2.3050 0.9595
0.6847 -10.0498 -2.3050 0.9595
0.8090 -10.0406 -2.3050 0.9595
0.8710 -10.0355 -2.3050 0.9595
0.9951 -10.0241 -2.3050 0.9595
1.0571 -10.0178 -2.3051 0.9595
1.3664 -9.9812 -2.3052 0.9595
1.4282 -9.9727 -2.3053 0.9595
1.4898 -9.9639 -2.3053 0.9595
1.5514 -9.9547 -2.3054 0.9595
1.7974 -9.9143 -2.3056 0.9595
1.8587 -9.9033 -2.3057 0.9595
1.9812 -9.8802 -2.3059 0.9595
2.1644 -9.8428 -2.3061 0.9595
2.2253 -9.8297 -2.3062 0.9595
2.3469 -9.8022 -2.3064 0.9595
2.4076 -9.7879 -2.3065 0.9595
2.5891 -9.7429 -2.3068 0.9595
2.6495 -9.7272 -2.3069 0.9595
2.7097 -9.7111 -2.3070 0.9595
2.8898 -9.6608 -2.3074 0.9595
3.0094 -9.6254 -2.3077 0.9595
3.0691 -9.6072 -2.3078 0.9595
3.1881 -9.5697 -2.3081 0.9595
3.2474 -9.5504 -2.3083 0.9595
3.3657 -9.5108 -2.3086 0.9594
3.4247 -9.4904 -2.3087 0.9594
3.4836 -9.4698 -2.3089 0.9594
3.5424 -9.4487 -2.3091 0.9594
3.6010 -9.4273 -2.3092 0.9594
3.6595 -9.4056 -2.3094 0.9594
3.8342 -9.3382 -2.3099 0.9594
3.8923 -9.3151 -2.3101 0.9594
4.0654 -9.2436 -2.3107 0.9594
4.1802 -9.1942 -2.3111 0.9594
4.2373 -9.1690 -2.3113 0.9594
4.2943 -9.1435 -2.3115 0.9594
4.3512 -9.1176 -2.3117 0.9594
4.4645 -9.0648 -2.3122 0.9594
4.5208 -9.0379 -2.3124 0.9594
4.5771 -9.0106 -2.3126 0.9594
4.6892 -8.9551 -2.3131 0.9594
4.8560 -8.8693 -2.3138 0.9594
5.0213 -8.7805 -2.3146 0.9593
5.1307 -8.7197 -2.3151 0.9593
5.1851 -8.6888 -2.3153 0.9593
5.2934 -8.6260 -2.3159 0.9593
5.4544 -8.5293 -2.3167 0.9593
5.5608 -8.4633 -2.3173 0.9593
5.6138 -8.4298 -2.3175 0.9593
5.7190 -8.3618 -2.3181 0.9593
5.7714 -8.3273 -2.3184 0.9593
5.8235 -8.2925 -2.3187 0.9593
5.8754 -8.2575 -2.3190 0.9593
6.2835 -7.9655 -2.3216 0.9592
6.3335 -7.9276 -2.3219 0.9592
6.4329 -7.8509 -2.3226 0.9592
6.4823 -7.8121 -2.3229 0.9592
6.5315 -7.7730 -2.3232 0.9592
6.5804 -7.7336 -2.3236 0.9592
6.6291 -7.6940 -2.3239 0.9592
6.7258 -7.6137 -2.3246 0.9592
6.9163 -7.4496 -2.3261 0.9591
6.9634 -7.4079 -2.3264 0.9591
7.0102 -7.3659 -2.3268 0.9591
7.0567 -7.3236 -2.3272 0.9591
7.1030 -7.2809 -2.3276 0.9591
7.1491 -7.2380 -2.3280 0.9591
7.1949 -7.1949 -2.3283 0.9591
7.2404 -7.1514 -2.3287 0.9591
7.2857 -7.1077 -2.3291 0.9591
7.3308 -7.0637 -2.3295 0.9591
7.3756 -7.0194 -2.3299 0.9591
7.4644 -6.9300 -2.3307 0.9591
7.5084 -6.8849 -2.3311 0.9591
7.5522 -6.8396 -2.3315 0.9591
7.5956 -6.7939 -2.3319 0.9590
7.6388 -6.7480 -2.3323 0.9590
7.6818 -6.7018 -2.3327 0.9590
7.8508 -6.5144 -2.3344 0.9590
7.8924 -6.4669 -2.3348 0.9590
7.9747 -6.3712 -2.3357 0.9590
8.0154 -6.3229 -2.3361 0.9590
8.0559 -6.2744 -2.3366 0.9590
8.0961 -6.2256 -2.3370 0.9590
8.1359 -6.1766 -2.3374 0.9590
8.1756 -6.1274 -2.3379 0.9589
8.2539 -6.0280 -2.3388 0.9589
8.2926 -5.9780 -2.3392 0.9589
8.4445 -5.7756 -2.3411 0.9589
8.4818 -5.7244 -2.3415 0.9589
8.5187 -5.6730 -2.3420 0.9589
8.7687 -5.3066 -2.3453 0.9588
8.8031 -5.2533 -2.3458 0.9588
8.8373 -5.1999 -2.3463 0.9588
8.8711 -5.1462 -2.3468 0.9588
9.0033 -4.9293 -2.3488 0.9588
9.0355 -4.8746 -2.3493 0.9587
9.0674 -4.8196 -2.3498 0.9587
9.0990 -4.7645 -2.3503 0.9587
9.1303 -4.7092 -2.3508 0.9587
9.1918 -4.5979 -2.3518 0.9587
9.2221 -4.5419 -2.3523 0.9587
9.2816 -4.4295 -2.3533 0.9587
9.3108 -4.3729 -2.3538 0.9587
9.3398 -4.3162 -2.3544 0.9587
9.3683 -4.2593 -2.3549 0.9587
9.4793 -4.0299 -2.3570 0.9586
9.5062 -3.9721 -2.3575 0.9586
9.6354 -3.6805 -2.3602 0.9586
9.6602 -3.6217 -2.3608 0.9585
9.6847 -3.5627 -2.3613 0.9585
9.7325 -3.4442 -2.3624 0.9585
9.9300 -2.9036 -2.3674 0.9584
9.9699 -2.7819 -2.3685 0.9584
9.9894 -2.7208 -2.3691 0.9584
10.0084 -2.6596 -2.3697 0.9584
10.0633 -2.4753 -2.3714 0.9584
10.0808 -2.4136 -2.3719 0.9584
10.1148 -2.2898 -2.3731 0.9583
10.1932 -1.9785 -2.3760 0.9583
10.2621 -1.6644 -2.3789 0.9582
10.2748 -1.6013 -2.3795 0.9582
10.2871 -1.5381 -2.3801 0.9582
10.3104 -1.4115 -2.3813 0.9582
10.3426 -1.2209 -2.3831 0.9582
10.3525 -1.1572 -2.3837 0.9582
10.3713 -1.0296 -2.3849 0.9581
10.3800 -0.9657 -2.3855 0.9581
10.3964 -0.8377 -2.3867 0.9581
10.4040 -0.7735 -2.3873 0.9581
10.4245 -0.5808 -2.3891 0.9581
10.4305 -0.5165 -2.3897 0.9581
10.4362 -0.4521 -2.3903 0.9580
10.4414 -0.3876 -2.3909 0.9580
10.4463 -0.3231 -2.3915 0.9580
10.4507 -0.2586 -2.3921 0.9580
10.4548 -0.1940 -2.3927 0.9580
10.4584 -0.1294 -2.3933 0.9580
10.4645 0.0000 -2.3946 0.9580
10.4670 0.0648 -2.3952 0.9580
10.4691 0.1295 -2.3958 0.9579
10.4708 0.1943 -2.3964 0.9579
10.4721 0.2591 -2.3970 0.9579
10.4730 0.3239 -2.3976 0.9579
10.4734 0.3887 -2.3982 0.9579
10.4735 0.4537 -2.3989 0.9579
10.4725 0.5834 -2.4001 0.9579
10.4698 0.7133 -2.4013 0.9579
10.4628 0.9081 -2.4032 0.9578
10.4478 1.1679 -2.4056 0.9578
10.4201 1.4922 -2.4087 0.9577
10.4133 1.5570 -2.4093 0.9577
10.3986 1.6866 -2.4106 0.9577
10.3643 1.9452 -2.4130 0.9577
10.3547 2.0098 -2.4136 0.9576
10.3124 2.2676 -2.4161 0.9576
10.2887 2.3962 -2.4173 0.9576
10.2763 2.4604 -2.4180 0.9576
10.2635 2.5246 -2.4186 0.9576
10.2503 2.5886 -2.4192 0.9575
10.2367 2.6526 -2.4198 0.9575
10.2227 2.7166 -2.4204 0.9575
10.2083 2.7804 -2.4210 0.9575
10.1935 2.8442 -2.4216 0.9575
10.1783 2.9080 -2.4222 0.9575
10.1466 3.0352 -2.4235 0.9575
10.1302 3.0986 -2.4241 0.9575
10.0962 3.2253 -2.4253 0.9574
10.0786 3.2885 -2.4259 0.9574
10.0422 3.4146 -2.4271 0.9574
10.0234 3.4775 -2.4277 0.9574
9.9441 3.7281 -2.4301 0.9574
9.9233 3.7904 -2.4307 0.9573
9.9022 3.8527 -2.4313 0.9573
9.8586 3.9768 -2.4325 0.9573
9.8135 4.1005 -2.4337 0.9573
9.7904 4.1621 -2.4343 0.9573
9.7429 4.2850 -2.4355 0.9573
9.7185 4.3462 -2.4361 0.9573
9.6939 4.4073 -2.4367 0.9572
9.6688 4.4682 -2.4373 0.9572
9.6433 4.5291 -2.4379 0.9572
9.6174 4.5897 -2.4385 0.9572
9.5645 4.7105 -2.4396 0.9572
9.5374 4.7708 -2.4402 0.9572
9.4823 4.8907 -2.4414 0.9572
9.4255 5.0100 -2.4426 0.9571
9.3673 5.1286 -2.4437 0.9571
9.2770 5.3052 -2.4454 0.9571
9.2150 5.4221 -2.4466 0.9571
9.1515 5.5382 -2.4477 0.9571
9.0534 5.7109 -2.4494 0.9570
9.0200 5.7681 -2.4500 0.9570
8.9862 5.8251 -2.4505 0.9570
8.9520 5.8819 -2.4511 0.9570
8.7758 6.1628 -2.4538 0.9570
8.7394 6.2184 -2.4544 0.9569
8.6657 6.3288 -2.4555 0.9569
8.6283 6.3837 -2.4560 0.9569
8.5139 6.5469 -2.4576 0.9569
8.3566 6.7613 -2.4597 0.9569
8.1522 7.0238 -2.4623 0.9568
8.1103 7.0756 -2.4628 0.9568
7.7377 6.9210 -2.3755 0.9583
7.5154 6.8062 -2.3201 0.9592
7.3944 6.8650 -2.3088 0.9594
7.3533 6.9121 -2.3093 0.9594
7.3119 6.9588 -2.3098 0.9594
7.2702 7.0053 -2.3102 0.9594
7.1858 7.0975 -2.3112 0.9594
7.1003 7.1886 -2.3121 0.9594
6.9698 7.3234 -2.3134 0.9594
6.8813 7.4119 -2.3143 0.9593
6.6551 7.6283 -2.3165 0.9593
6.6091 7.6707 -2.3169 0.9593
6.5160 7.7547 -2.3178 0.9593
6.4220 7.8375 -2.3186 0.9593
6.3745 7.8785 -2.3190 0.9593
6.2788 7.9595 -2.3198 0.9593
5.9854 8.1954 -2.3222 0.9592
5.9356 8.2337 -2.3226 0.9592
5.5801 8.4925 -2.3253 0.9592
5.5283 8.5282 -2.3256 0.9592
5.4763 8.5635 -2.3260 0.9591
4.9201 8.0178 -2.1526 0.9621
4.6674 7.9324 -2.1061 0.9629
4.4371 7.8716 -2.0677 0.9636
4.3610 7.9652 -2.0779 0.9634
4.2606 8.2605 -2.1268 0.9626
4.2347 8.3365 -2.1396 0.9624
4.2085 8.4134 -2.1526 0.9621
4.5028 9.1425 -2.3320 0.9590
4.3905 9.1999 -2.3326 0.9590
4.2774 9.2558 -2.3332 0.9590
4.2207 9.2833 -2.3335 0.9590
4.1637 9.3104 -2.3338 0.9590
4.1065 9.3371 -2.3341 0.9590
4.0492 9.3634 -2.3344 0.9590
3.9917 9.3894 -2.3346 0.9590
3.9340 9.4150 -2.3349 0.9590
3.8762 9.4403 -2.3352 0.9590
3.8181 9.4651 -2.3355 0.9590
3.7599 9.4896 -2.3357 0.9590
3.7016 9.5138 -2.3360 0.9590
3.5844 9.5609 -2.3365 0.9590
3.5256 9.5839 -2.3367 0.9590
3.4666 9.6065 -2.3370 0.9590
3.2888 9.6722 -2.3377 0.9589
3.2293 9.6934 -2.3380 0.9589
3.1696 9.7141 -2.3382 0.9589
3.1098 9.7345 -2.3384 0.9589
3.0498 9.7545 -2.3386 0.9589
2.6873 9.8664 -2.3399 0.9589
2.6265 9.8837 -2.3401 0.9589
2.4433 9.9332 -2.3407 0.9589
2.3820 9.9489 -2.3409 0.9589
2.3206 9.9642 -2.3411 0.9589
2.1975 9.9937 -2.3415 0.9589
1.8882 10.0604 -2.3423 0.9589
1.8261 10.0725 -2.3424 0.9589
1.7016 10.0956 -2.3427 0.9589
1.5768 10.1171 -2.3430 0.9589
1.5143 10.1272 -2.3431 0.9589
1.4516 10.1370 -2.3433 0.9589
1.2007 10.1719 -2.3438 0.9588
1.0750 10.1869 -2.3440 0.9588
0.9489 10.2004 -2.3442 0.9588
0.8859 10.2065 -2.3443 0.9588
0.8228 10.2121 -2.3444 0.9588
0.7597 10.2174 -2.3445 0.9588
0.5700 10.2308 -2.3447 0.9588
0.3802 10.2405 -2.3449 0.9588
0.3168 10.2430 -2.3450 0.9588
0.1901 10.2466 -2.3451 0.9588
0.1268 10.2478 -2.3451 0.9588
0.0634 10.2486 -2.3452 0.9588
-0.0634 10.2490 -2.3453 0.9588
-0.1267 10.2485 -2.3453 0.9588
-0.1901 10.2477 -2.3453 0.9588
-0.2535 10.2464 -2.3454 0.9588
-0.3169 10.2447 -2.3454 0.9588
-0.4436 10.2402 -2.3454 0.9588
-0.5702 10.2340 -2.3454 0.9588
-0.6335 10.2303 -2.3454 0.9588
-0.7600 10.2217 -2.3454 0.9588
-0.8863 10.2114 -2.3454 0.9588
-0.9495 10.2056 -2.3454 0.9588
-1.0756 10.1929 -2.3454 0.9588
-1.2015 10.1786 -2.3453 0.9588
-1.3273 10.1626 -2.3452 0.9588
-1.3901 10.1540 -2.3452 0.9588
-1.4528 10.1450 -2.3451 0.9588
-1.5155 10.1356 -2.3451 0.9588
-1.7031 10.1050 -2.3449 0.9588
-1.7656 10.0940 -2.3448 0.9588
-1.8901 10.0707 -2.3447 0.9588
-1.9523 10.0585 -2.3446 0.9588
-2.0144 10.0458 -2.3445 0.9588
-2.1383 10.0194 -2.3443 0.9588
-2.3235 9.9767 -2.3440 0.9588
-2.3851 9.9617 -2.3439 0.9588
-2.6912 9.8806 -2.3433 0.9588
-2.7521 9.8632 -2.3432 0.9589
-2.8129 9.8454 -2.3430 0.9589
-2.9945 9.7898 -2.3426 0.9589
-3.1750 9.7307 -2.3422 0.9589
-3.2349 9.7103 -2.3420 0.9589
-3.2947 9.6894 -2.3419 0.9589
-3.1748 8.9713 -2.1776 0.9617
-3.2224 8.9297 -2.1723 0.9618
-3.2779 8.9107 -2.1726 0.9618
-3.3434 8.9180 -2.1794 0.9617
-3.7676 9.5090 -2.3405 0.9589
-3.8260 9.4848 -2.3403 0.9589
-3.8843 9.4602 -2.3401 0.9589
-4.0581 9.3841 -2.3395 0.9589
-4.2874 9.2774 -2.3387 0.9589
-4.4010 9.2219 -2.3382 0.9589
-4.4575 9.1937 -2.3380 0.9589
-4.5138 9.1650 -2.3377 0.9589
-4.7372 9.0468 -2.3368 0.9590
-4.8476 8.9856 -2.3363 0.9590
-4.9026 8.9544 -2.3360 0.9590
-5.1202 8.8264 -2.3350 0.9590
-5.2278 8.7603 -2.3344 0.9590
-5.3345 8.6929 -2.3338 0.9590
-5.4402 8.6241 -2.3333 0.9590
-5.4927 8.5892 -2.3330 0.9590
-5.5450 8.5540 -2.3327 0.9590
-5.4038 7.9010 -2.1904 0.9615
-5.5061 7.9446 -2.2119 0.9611
-5.5608 7.9185 -2.2141 0.9611
-5.5803 7.8426 -2.2025 0.9613
-5.5475 7.6954 -2.1708 0.9618
-5.5643 7.6189 -2.1589 0.9620
-5.5853 7.5491 -2.1488 0.9622
-5.6469 7.5346 -2.1546 0.9621
-5.6501 7.4424 -2.1382 0.9624
-5.6923 7.4026 -2.1368 0.9624
-5.7610 7.3032 -2.1285 0.9625
-5.7947 7.2532 -2.1244 0.9626
-5.9527 7.0843 -2.1174 0.9627
-6.4748 7.2389 -2.2224 0.9609
-6.6395 7.3312 -2.2633 0.9602
-6.8063 7.3312 -2.2891 0.9598
-6.9498 7.3934 -2.3219 0.9592
-7.0383 7.3044 -2.3211 0.9592
-7.2118 7.1231 -2.3195 0.9593
-7.3387 6.9843 -2.3182 0.9593
-7.5038 6.7957 -2.3166 0.9593
-7.7030 6.5543 -2.3144 0.9593
-7.7419 6.5053 -2.3139 0.9594
-7.7805 6.4561 -2.3135 0.9594
-7.8568 6.3569 -2.3126 0.9594
-7.8944 6.3070 -2.3122 0.9594
-7.9317 6.2568 -2.3117 0.9594
-7.9686 6.2064 -2.3112 0.9594
-8.0053 6.1558 -2.3108 0.9594
-8.1438 6.0253 -2.3181 0.9593
-8.3459 6.0953 -2.3649 0.9585
-8.5738 6.1807 -2.4186 0.9576
-8.8841 6.0763 -2.4629 0.9568
-8.9197 6.0200 -2.4624 0.9568
-8.9549 5.9634 -2.4619 0.9568
-9.1253 5.6777 -2.4593 0.9569
-9.1582 5.6200 -2.4588 0.9569
-9.2231 5.5039 -2.4577 0.9569
-9.2549 5.4456 -2.4572 0.9569
-9.3175 5.3283 -2.4561 0.9569
-9.3786 5.2104 -2.4550 0.9569
-9.4085 5.1512 -2.4545 0.9569
-9.4673 5.0322 -2.4534 0.9570
-9.5245 4.9125 -2.4523 0.9570
-9.5526 4.8524 -2.4517 0.9570
-9.5802 4.7922 -2.4512 0.9570
-9.6870 4.5496 -2.4489 0.9570
-9.7380 4.4274 -2.4478 0.9571
-9.7875 4.3046 -2.4467 0.9571
-9.8117 4.2430 -2.4461 0.9571
-9.8588 4.1194 -2.4450 0.9571
-9.8818 4.0574 -2.4444 0.9571
-9.9043 3.9953 -2.4438 0.9571
-9.9265 3.9330 -2.4432 0.9571
-9.9483 3.8706 -2.4427 0.9571
-9.9906 3.7455 -2.4415 0.9572
-10.0896 3.4307 -2.4386 0.9572
-10.1081 3.3675 -2.4380 0.9572
-10.1263 3.3041 -2.4374 0.9572
-10.1441 3.2406 -2.4368 0.9572
-10.1950 3.0496 -2.4350 0.9573
-10.2112 2.9858 -2.4344 0.9573
-10.2270 2.9219 -2.4338 0.9573
-10.2423 2.8579 -2.4332 0.9573
-10.2573 2.7938 -2.4326 0.9573
-10.3131 2.5367 -2.4302 0.9574
-10.3260 2.4723 -2.4296 0.9574
-10.3385 2.4078 -2.4290 0.9574
-10.3507 2.3432 -2.4284 0.9574
-10.3737 2.2139 -2.4272 0.9574
-10.3845 2.1492 -2.4266 0.9574
-10.3951 2.0844 -2.4260 0.9574
-10.4052 2.0196 -2.4254 0.9574
-10.4241 1.8898 -2.4242 0.9575
-10.4329 1.8248 -2.4236 0.9575
-10.4495 1.6948 -2.4224 0.9575
-10.4571 1.6297 -2.4217 0.9575
-10.4712 1.4995 -2.4205 0.9575
-10.4892 1.3040 -2.4187 0.9576
-10.4944 1.2388 -2.4181 0.9576
-10.4992 1.1736 -2.4175 0.9576
-10.5036 1.1083 -2.4168 0.9576
-10.5111 0.9778 -2.4156 0.9576
-10.5143 0.9126 -2.4150 0.9576
-10.5171 0.8473 -2.4144 0.9576
-10.5194 0.7821 -2.4138 0.9576
-10.5229 0.6516 -2.4125 0.9577
-10.5247 0.5211 -2.4113 0.9577
-10.5246 0.3255 -2.4094 0.9577
-10.5186 0.0650 -2.4070 0.9578
-10.1675 -0.0000 -2.4062 0.9591
-10.1648 -0.0629 -2.4056 0.9591
-10.1617 -0.1257 -2.4050 0.9591
-10.1582 -0.1885 -2.4044 0.9591
-10.1543 -0.2512 -2.4038 0.9591
-10.1500 -0.3140 -2.4032 0.9591
-10.1454 -0.3766 -2.4026 0.9591
-10.1403 -0.4392 -2.4020 0.9591
-10.1349 -0.5018 -2.4014 0.9591
-10.1291 -0.5644 -2.4008 0.9592
-10.1229 -0.6268 -2.4002 0.9592
-10.1163 -0.6892 -2.3996 0.9592
-10.1094 -0.7516 -2.3990 0.9592
-10.0943 -0.8762 -2.3978 0.9592
-10.0688 -1.0625 -2.3961 0.9592
-10.0500 -1.1863 -2.3949 0.9593
-10.0188 -1.3716 -2.3931 0.9593
-9.9843 -1.5561 -2.3913 0.9593
-9.9594 -1.6786 -2.3902 0.9593
-9.9330 -1.8008 -2.3890 0.9594
-9.9051 -1.9225 -2.3878 0.9594
-9.8907 -1.9833 -2.3872 0.9594
-9.8126 -2.2853 -2.3843 0.9594
-9.7615 -2.4652 -2.3826 0.9595
-9.7437 -2.5249 -2.3820 0.9595
-9.7255 -2.5845 -2.3815 0.9595
-9.6882 -2.7033 -2.3803 0.9595
-9.6494 -2.8215 -2.3792 0.9595
-9.6092 -2.9393 -2.3780 0.9595
-9.5245 -3.1730 -2.3758 0.9596
-9.5024 -3.2311 -2.3752 0.9596
-9.4572 -3.3468 -2.3741 0.9596
-9.4341 -3.4044 -2.3735 0.9596
-9.4107 -3.4619 -2.3730 0.9596
-9.3869 -3.5192 -2.3724 0.9596
-9.2629 -3.8033 -2.3697 0.9597
-9.1575 -4.0275 -2.3675 0.9597
-9.0750 -4.1938 -2.3659 0.9597
-9.0468 -4.2489 -2.3653 0.9597
-9.0183 -4.3038 -2.3648 0.9598
-8.9604 -4.4131 -2.3637 0.9598
-8.8710 -4.5754 -2.3621 0.9598
-8.8406 -4.6292 -2.3616 0.9598
-8.8098 -4.6827 -2.3611 0.9598
-8.7157 -4.8421 -2.3595 0.9598
-8.6513 -4.9474 -2.3585 0.9599
-8.5858 -5.0518 -2.3575 0.9599
-8.4851 -5.2069 -2.3560 0.9599
-8.4164 -5.3092 -2.3549 0.9599
-8.3816 -5.3600 -2.3544 0.9599
-8.2396 -5.5609 -2.3525 0.9600
-8.2033 -5.6106 -2.3520 0.9600
-8.1668 -5.6601 -2.3515 0.9600
-8.0177 -5.8555 -2.3496 0.9600
-7.9414 -5.9518 -2.3486 0.9600
-7.9028 -5.9996 -2.3481 0.9600
-7.8249 -6.0945 -2.3472 0.9601
-7.4188 -6.5537 -2.3426 0.9601
-7.2918 -6.6864 -2.3413 0.9601
-7.2490 -6.7301 -2.3408 0.9602
-7.1625 -6.8167 -2.3400 0.9602
-7.0751 -6.9022 -2.3391 0.9602
-7.0310 -6.9446 -2.3387 0.9602
-6.7613 -7.1929 -2.3362 0.9602
-6.7155 -7.2333 -2.3358 0.9602
-6.6232 -7.3133 -2.3350 0.9603
-6.2931 -7.5841 -2.3322 0.9603
-6.2451 -7.6216 -2.3318 0.9603
-6.1483 -7.6958 -2.3311 0.9603
-6.0507 -7.7688 -2.3303 0.9603
-6.0016 -7.8048 -2.3300 0.9603
-5.9523 -7.8405 -2.3296 0.9603
-5.9028 -7.8760 -2.3293 0.9604
-5.8531 -7.9111 -2.3289 0.9604
-5.8032 -7.9459 -2.3285 0.9604
-5.7530 -7.9805 -2.3282 0.9604
-5.7027 -8.0147 -2.3278 0.9604
-5.5505 -8.1155 -2.3268 0.9604
-5.4481 -8.1811 -2.3261 0.9604
-5.3967 -8.2135 -2.3258 0.9604
-5.3450 -8.2455 -2.3254 0.9604
-5.2412 -8.3086 -2.3248 0.9604
-5.0840 -8.4010 -2.3238 0.9604
-4.9784 -8.4609 -2.3232 0.9605
-4.9253 -8.4904 -2.3229 0.9605
-4.8721 -8.5196 -2.3226 0.9605
-4.3856 -8.7675 -2.3200 0.9605
-4.2207 -8.8443 -2.3191 0.9605
-4.1655 -8.8692 -2.3189 0.9605
-3.9989 -8.9419 -2.3181 0.9605
-3.9430 -8.9655 -2.3178 0.9605
-3.8311 -9.0116 -2.3173 0.9605
-3.7749 -9.0342 -2.3171 0.9606
-3.5488 -9.1210 -2.3161 0.9606
-3.4919 -9.1419 -2.3159 0.9606
-3.2635 -9.2220 -2.3150 0.9606
-3.2061 -9.2411 -2.3148 0.9606
-3.1486 -9.2599 -2.3146 0.9606
-3.0910 -9.2784 -2.3144 0.9606
-3.0333 -9.2965 -2.3142 0.9606
-2.9755 -9.3143 -2.3140 0.9606
-2.7433 -9.3819 -2.3132 0.9606
-2.6850 -9.3979 -2.3130 0.9606
-2.2746 -9.5004 -2.3118 0.9606
-2.2157 -9.5136 -2.3117 0.9606
-2.1566 -9.5265 -2.3115 0.9606
-2.0384 -9.5512 -2.3112 0.9607
-1.9792 -9.5630 -2.3111 0.9607
-1.9198 -9.5745 -2.3109 0.9607
-1.8605 -9.5856 -2.3108 0.9607
-1.8011 -9.5964 -2.3107 0.9607
-1.7416 -9.6068 -2.3105 0.9607
-1.6225 -9.6266 -2.3103 0.9607
-1.5628 -9.6359 -2.3102 0.9607
-1.4434 -9.6535 -2.3099 0.9607
-1.2639 -9.6772 -2.3096 0.9607
-0.9639 -9.7097 -2.3091 0.9607
-0.8437 -9.7202 -2.3090 0.9607
-0.6631 -9.7332 -2.3087 0.9607
-0.6029 -9.7368 -2.3087 0.9607
-0.4824 -9.7430 -2.3085 0.9607
-0.4222 -9.7456 -2.3085 0.9607
-0.3619 -9.7478 -2.3084 0.9607
-0.3016 -9.7496 -2.3084 0.9607
-0.0603 -9.7534 -2.3082 0.9607
0.0000 -9.7534 -2.3082 0.9607
0.0603 -9.7531 -2.3081 0.9607
0.1206 -9.7524 -2.3081 0.9607
0.2412 -9.7500 -2.3081 0.9607
0.3618 -9.7461 -2.3080 0.9607
0.5426 -9.7376 -2.3080 0.9607
0.6027 -9.7341 -2.3080 0.9607
0.6629 -9.7302 -2.3080 0.9607
0.8433 -9.7163 -2.3080 0.9607
0.9635 -9.7053 -2.3081 0.9607
1.0235 -9.6993 -2.3081 0.9607
1.2033 -9.6790 -2.3082 0.9607
1.2631 -9.6715 -2.3082 0.9607
1.3229 -9.6637 -2.3083 0.9607
1.3827 -9.6555 -2.3083 0.9607
1.5021 -9.6381 -2.3084 0.9607
1.5617 -9.6288 -2.3085 0.9607
1.8589 -9.5773 -2.3088 0.9607
1.9182 -9.5659 -2.3089 0.9607
1.9774 -9.5542 -2.3089 0.9607
2.0955 -9.5297 -2.3091 0.9607
2.1545 -9.5169 -2.3092 0.9607
2.2134 -9.5038 -2.3093 0.9607
2.2722 -9.4903 -2.3094 0.9607
2.5067 -9.4329 -2.3098 0.9607
2.5651 -9.4177 -2.3099 0.9607
2.6234 -9.4021 -2.3100 0.9607
2.6817 -9.3861 -2.3101 0.9607
2.7979 -9.3533 -2.3104 0.9607
2.9714 -9.3013 -2.3108 0.9607
3.0290 -9.2833 -2.3109 0.9607
3.2013 -9.2273 -2.3113 0.9606
3.2586 -9.2079 -2.3115 0.9606
3.3157 -9.1882 -2.3117 0.9606
3.3727 -9.1681 -2.3118 0.9606
3.5994 -9.0845 -2.3125 0.9606
3.7121 -9.0407 -2.3128 0.9606
3.7682 -9.0182 -2.3130 0.9606
3.9358 -8.9489 -2.3136 0.9606
4.1574 -8.8519 -2.3144 0.9606
4.2673 -8.8014 -2.3148 0.9606
4.3221 -8.7757 -2.3150 0.9606
4.4854 -8.6964 -2.3156 0.9606
4.5395 -8.6694 -2.3159 0.9606
4.6473 -8.6143 -2.3163 0.9606
4.7010 -8.5863 -2.3166 0.9606
4.9668 -8.4412 -2.3178 0.9605
5.0195 -8.4113 -2.3180 0.9605
5.1764 -8.3195 -2.3188 0.9605
5.2284 -8.2883 -2.3191 0.9605
5.2801 -8.2568 -2.3194 0.9605
5.3317 -8.2249 -2.3196 0.9605
5.3831 -8.1928 -2.3199 0.9605
5.4343 -8.1603 -2.3202 0.9605
5.5362 -8.0944 -2.3208 0.9605
5.5868 -8.0610 -2.3210 0.9605
5.6875 -7.9933 -2.3216 0.9605
5.7375 -7.9590 -2.3219 0.9605
5.7874 -7.9244 -2.3222 0.9605
5.8371 -7.8895 -2.3225 0.9605
5.8865 -7.8543 -2.3228 0.9605
5.9358 -7.8187 -2.3231 0.9605
6.0337 -7.7468 -2.3238 0.9604
6.0823 -7.7104 -2.3241 0.9604
6.1307 -7.6737 -2.3244 0.9604
6.1789 -7.6367 -2.3247 0.9604
6.2269 -7.5994 -2.3251 0.9604
6.2746 -7.5619 -2.3254 0.9604
6.3222 -7.5240 -2.3257 0.9604
6.5101 -7.3696 -2.3271 0.9604
6.6028 -7.2907 -2.3278 0.9604
6.6945 -7.2106 -2.3285 0.9604
6.7852 -7.1295 -2.3292 0.9604
6.8302 -7.0885 -2.3295 0.9603
6.9196 -7.0057 -2.3303 0.9603
7.0079 -6.9218 -2.3310 0.9603
7.0517 -6.8794 -2.3314 0.9603
7.0953 -6.8368 -2.3318 0.9603
7.1817 -6.7507 -2.3325 0.9603
7.2245 -6.7073 -2.3329 0.9603
7.2670 -6.6636 -2.3333 0.9603
7.3093 -6.6197 -2.3337 0.9603
7.3931 -6.5310 -2.3345 0.9603
7.4760 -6.4412 -2.3353 0.9602
7.5576 -6.3505 -2.3361 0.9602
7.6783 -6.2125 -2.3374 0.9602
7.8352 -6.0250 -2.3390 0.9602
7.8737 -5.9775 -2.3395 0.9602
7.9120 -5.9298 -2.3399 0.9602
7.9500 -5.8818 -2.3403 0.9602
7.9877 -5.8336 -2.3408 0.9602
8.0251 -5.7852 -2.3412 0.9602
8.0991 -5.6877 -2.3421 0.9601
8.1357 -5.6385 -2.3425 0.9601
8.1719 -5.5892 -2.3430 0.9601
8.2079 -5.5396 -2.3434 0.9601
8.2436 -5.4898 -2.3439 0.9601
8.3489 -5.3390 -2.3452 0.9601
8.3834 -5.2883 -2.3457 0.9601
8.4176 -5.2374 -2.3462 0.9601
8.4515 -5.1863 -2.3466 0.9601
8.5184 -5.0834 -2.3476 0.9600
8.5514 -5.0316 -2.3480 0.9600
8.5841 -4.9796 -2.3485 0.9600
8.6803 -4.8225 -2.3499 0.9600
8.7117 -4.7697 -2.3504 0.9600
8.8042 -4.6101 -2.3519 0.9600
8.8343 -4.5565 -2.3524 0.9600
8.8642 -4.5027 -2.3529 0.9600
8.8938 -4.4488 -2.3534 0.9599
8.9230 -4.3946 -2.3539 0.9599
8.9519 -4.3403 -2.3544 0.9599
8.9805 -4.2857 -2.3549 0.9599
9.0087 -4.2310 -2.3554 0.9599
9.0642 -4.1210 -2.3564 0.9599
9.0915 -4.0658 -2.3569 0.9599
9.1450 -3.9547 -2.3579 0.9599
9.1713 -3.8990 -2.3584 0.9599
9.1973 -3.8430 -2.3589 0.9599
9.2228 -3.7869 -2.3594 0.9598
9.2977 -3.6175 -2.3610 0.9598
9.3695 -3.4467 -2.3626 0.9598
9.3926 -3.3894 -2.3631 0.9598
9.4381 -3.2745 -2.3642 0.9598
9.4603 -3.2168 -2.3647 0.9598
9.5249 -3.0428 -2.3663 0.9597
9.5457 -2.9845 -2.3668 0.9597
9.5661 -2.9261 -2.3674 0.9597
9.5862 -2.8676 -2.3679 0.9597
9.6815 -2.5728 -2.3707 0.9597
9.7171 -2.4540 -2.3718 0.9596
9.7343 -2.3944 -2.3723 0.9596
9.7678 -2.2749 -2.3734 0.9596
9.7840 -2.2150 -2.3740 0.9596
9.8303 -2.0345 -2.3757 0.9596
9.8450 -1.9741 -2.3762 0.9596
9.9379 -1.5488 -2.3802 0.9595
9.9496 -1.4877 -2.3808 0.9595
9.9610 -1.4265 -2.3814 0.9595
9.9721 -1.3652 -2.3819 0.9595
9.9827 -1.3038 -2.3825 0.9595
10.0304 -0.9957 -2.3854 0.9594
10.0468 -0.8720 -2.3866 0.9594
10.0545 -0.8101 -2.3871 0.9594
10.0687 -0.6860 -2.3883 0.9594
10.0752 -0.6239 -2.3889 0.9594
10.0813 -0.5617 -2.3895 0.9593
10.0871 -0.4995 -2.3901 0.9593
10.1062 -0.2500 -2.3924 0.9593
