ply
format ascii 1.0
element vertex 1530
property float32 x
property float32 y
property float32 z
property float32 I
end_header
4.2662 -24.3908 0.1290 0.9057
4.5802 -24.4035 0.1293 0.9055
5.0199 -24.2553 0.1290 0.9057
5.5107 -24.3423 0.1300 0.9050
7.2401 -28.6690 0.1540 0.8884
7.4308 -27.9625 0.1507 0.8907
7.4545 -27.3687 0.1477 0.8927
7.5209 -25.7209 0.1396 0.8984
7.5613 -24.7198 0.1346 0.9018
7.7066 -23.1328 0.1270 0.9071
7.8680 -23.1393 0.1273 0.9069
8.0303 -23.1458 0.1276 0.9067
8.1933 -23.1524 0.1279 0.9064
8.3618 -23.1718 0.1283 0.9062
8.6921 -23.1852 0.1290 0.9057
8.8587 -23.1919 0.1293 0.9055
9.0260 -23.1986 0.1296 0.9052
9.5284 -23.2063 0.1307 0.9045
9.6994 -23.2132 0.1310 0.9043
9.8714 -23.2201 0.1314 0.9040
10.0500 -23.2399 0.1319 0.9037
10.7530 -23.2683 0.1335 0.9025
10.9315 -23.2755 0.1339 0.9023
11.2920 -23.2900 0.1348 0.9016
11.4741 -23.2974 0.1353 0.9013
12.1282 -23.1618 0.1362 0.9007
12.3153 -23.1693 0.1367 0.9004
12.5037 -23.1769 0.1372 0.9000
12.6936 -23.1846 0.1377 0.8997
12.9698 -23.3451 0.1391 0.8987
13.1637 -23.3529 0.1396 0.8983
13.3666 -23.3736 0.1402 0.8979
13.5637 -23.3815 0.1408 0.8975
13.7624 -23.3897 0.1413 0.8971
14.3681 -23.4141 0.1431 0.8959
14.5733 -23.4224 0.1437 0.8955
14.7803 -23.4308 0.1443 0.8951
14.9891 -23.4392 0.1449 0.8947
15.1995 -23.4475 0.1455 0.8942
15.9468 -23.3158 0.1471 0.8932
16.2719 -23.4783 0.1488 0.8920
20.2326 -28.0662 0.1802 0.8708
20.7782 -28.0842 0.1820 0.8696
20.8056 -27.4057 0.1792 0.8714
20.8322 -26.7472 0.1766 0.8732
20.8451 -26.4251 0.1753 0.8740
20.9201 -26.1854 0.1746 0.8745
21.1957 -26.1966 0.1755 0.8739
21.4743 -26.2078 0.1765 0.8733
23.8206 -26.3025 0.1848 0.8677
40.7236 -39.2399 0.2945 0.7975
40.8396 -38.8675 0.2936 0.7981
40.9549 -38.4974 0.2927 0.7986
24.5934 -21.9976 0.1719 0.8764
24.3271 -21.4900 0.1691 0.8782
23.8193 -20.5226 0.1638 0.8818
23.6783 -20.1473 0.1619 0.8831
24.0471 -19.9537 0.1628 0.8825
24.4198 -19.7581 0.1636 0.8819
25.1774 -19.3606 0.1654 0.8807
25.9525 -18.9539 0.1674 0.8794
26.1491 -18.8507 0.1679 0.8790
26.5462 -18.6423 0.1689 0.8783
26.7466 -18.5371 0.1695 0.8779
26.9483 -18.4313 0.1700 0.8776
27.3558 -18.2174 0.1712 0.8768
27.5615 -18.1094 0.1718 0.8764
27.7687 -18.0007 0.1724 0.8760
28.3992 -17.6699 0.1742 0.8748
28.6123 -17.5580 0.1748 0.8743
28.8271 -17.4453 0.1755 0.8739
29.0435 -17.3318 0.1762 0.8735
31.1210 -18.3116 0.1881 0.8655
31.3547 -18.1889 0.1888 0.8650
31.5902 -18.0654 0.1895 0.8645
31.8275 -17.9408 0.1903 0.8640
32.3080 -17.6887 0.1918 0.8630
33.0437 -17.3026 0.1943 0.8614
33.2931 -17.1717 0.1951 0.8608
33.2234 -16.3626 0.1929 0.8623
33.0442 -16.0213 0.1913 0.8634
32.8680 -15.6856 0.1897 0.8644
32.7547 -15.3835 0.1885 0.8652
33.0045 -15.2525 0.1894 0.8646
33.2567 -15.1201 0.1903 0.8640
34.2911 -14.5780 0.1941 0.8615
34.3702 -14.3613 0.1940 0.8616
34.4103 -14.1287 0.1937 0.8617
34.5838 -13.9507 0.1942 0.8614
35.4764 -13.8031 0.1983 0.8588
35.4005 -13.5221 0.1974 0.8593
36.9209 -13.3233 0.2044 0.8547
37.1149 -13.1345 0.2051 0.8543
37.3666 -12.9641 0.2060 0.8537
38.2734 -12.4882 0.2097 0.8513
38.5830 -12.3257 0.2110 0.8504
39.2137 -11.9947 0.2136 0.8487
35.3411 -10.0972 0.1914 0.8633
35.3665 -9.3983 0.1906 0.8638
35.3750 -9.1668 0.1903 0.8640
35.3921 -8.7055 0.1898 0.8643
35.4007 -8.4758 0.1896 0.8645
67.6434 -13.9996 0.3598 0.7586
39.0288 -3.6309 0.2042 0.8549
49.7525 -4.0085 0.2600 0.8190
49.9304 -3.7122 0.2608 0.8185
49.9429 -3.4027 0.2607 0.8185
49.9803 -2.4747 0.2606 0.8186
50.0676 -0.3097 0.2608 0.8185
50.0801 -0.0000 0.2608 0.8185
50.0926 0.3098 0.2609 0.8184
49.9391 0.6177 0.2601 0.8189
49.9516 0.9269 0.2602 0.8189
49.9765 1.5458 0.2604 0.8187
49.9890 1.8557 0.2605 0.8187
50.1678 2.1731 0.2615 0.8180
50.2055 3.1088 0.2620 0.8177
50.2182 3.4215 0.2622 0.8176
50.2561 4.3621 0.2627 0.8173
50.2688 4.6766 0.2630 0.8171
50.2942 5.3071 0.2634 0.8169
50.3070 5.6232 0.2637 0.8167
50.3197 5.9400 0.2639 0.8165
50.2657 6.2490 0.2638 0.8166
50.1785 6.5535 0.2636 0.8168
50.2251 6.8758 0.2640 0.8165
50.0662 7.8028 0.2639 0.8165
50.1050 8.7639 0.2649 0.8159
56.9620 14.3853 0.3060 0.7906
55.7087 14.4358 0.2997 0.7944
53.3496 14.5310 0.2880 0.8016
49.3314 14.7566 0.2682 0.8139
49.3768 15.7738 0.2700 0.8127
49.4324 16.8085 0.2719 0.8115
49.4703 17.5068 0.2733 0.8107
49.4894 17.8588 0.2740 0.8102
49.5087 18.2125 0.2748 0.8098
49.5478 18.9259 0.2763 0.8088
47.1288 18.6731 0.2640 0.8165
49.6078 20.0111 0.2786 0.8074
49.6486 20.7452 0.2803 0.8064
49.6902 21.4883 0.2820 0.8053
49.7113 21.8633 0.2829 0.8047
49.7541 22.6206 0.2847 0.8036
49.8197 23.7754 0.2875 0.8019
49.8646 24.5585 0.2895 0.8006
49.8873 24.9542 0.2905 0.8000
49.9336 25.7544 0.2926 0.7987
49.9570 26.1589 0.2937 0.7981
49.9807 26.5664 0.2948 0.7974
57.4195 33.3092 0.3457 0.7668
50.9966 30.8616 0.3105 0.7879
51.0145 31.3051 0.3117 0.7871
52.4035 33.5115 0.3240 0.7797
51.7822 33.5671 0.3214 0.7813
51.1274 33.5935 0.3186 0.7829
50.2290 33.9000 0.3156 0.7847
50.2579 34.3738 0.3171 0.7838
50.2871 34.8521 0.3187 0.7829
50.3464 35.8231 0.3218 0.7810
50.3768 36.3160 0.3234 0.7800
50.4073 36.8139 0.3251 0.7790
50.8471 40.1101 0.3373 0.7718
14.7803 11.9587 0.0990 0.9268
14.6602 12.1647 0.0992 0.9266
50.8793 42.7524 0.3461 0.7666
50.9152 43.3226 0.3482 0.7654
50.9888 44.4841 0.3524 0.7629
51.0645 45.6746 0.3568 0.7603
24.1642 21.8841 0.1698 0.8777
14.7703 13.8840 0.1056 0.9221
14.1616 13.4777 0.1018 0.9248
13.9632 13.4545 0.1010 0.9254
13.7680 13.4316 0.1002 0.9259
13.4395 13.4394 0.0990 0.9268
12.4079 13.5315 0.0956 0.9292
11.8196 13.5479 0.0936 0.9306
11.2548 13.5637 0.0918 0.9319
10.9549 13.5397 0.0907 0.9327
10.8214 13.5450 0.0903 0.9330
10.6890 13.5504 0.0899 0.9333
10.0445 13.5764 0.0880 0.9347
9.7943 13.5864 0.0872 0.9352
9.6708 13.5914 0.0869 0.9355
9.4266 13.6013 0.0862 0.9359
9.0674 13.6158 0.0852 0.9367
8.7818 13.7325 0.0849 0.9369
8.6655 13.7372 0.0846 0.9371
8.3217 13.7511 0.0837 0.9377
8.2087 13.7556 0.0834 0.9379
8.0964 13.7602 0.0832 0.9381
7.9849 13.7647 0.0829 0.9383
7.6546 13.7780 0.0821 0.9389
7.2487 13.6373 0.0804 0.9401
7.1697 13.6923 0.0805 0.9400
6.8383 13.2583 0.0777 0.9421
5.8486 13.2982 0.0757 0.9435
5.7524 13.3021 0.0755 0.9437
5.7073 13.4252 0.0760 0.9433
4.6634 11.1606 0.0630 0.9528
4.5668 11.1224 0.0626 0.9530
4.3771 11.0474 0.0619 0.9536
4.1526 11.0765 0.0616 0.9538
3.9517 11.1666 0.0617 0.9537
3.8557 11.3395 0.0624 0.9532
3.8153 11.4524 0.0629 0.9529
4.1979 14.0336 0.0763 0.9431
4.1046 14.0374 0.0762 0.9432
3.8265 14.0486 0.0758 0.9434
3.6423 14.0560 0.0756 0.9436
3.4592 14.0634 0.0754 0.9437
3.3680 14.0671 0.0753 0.9438
3.1862 14.0744 0.0752 0.9439
3.0053 14.0817 0.0750 0.9440
2.9151 14.0854 0.0749 0.9441
2.8251 14.0890 0.0748 0.9441
2.7353 14.0926 0.0748 0.9442
2.5562 14.0998 0.0746 0.9443
2.3777 14.1070 0.0745 0.9444
2.2886 14.1107 0.0745 0.9444
2.1109 14.1178 0.0743 0.9445
2.0222 14.1214 0.0743 0.9445
1.9337 14.1250 0.0743 0.9446
1.8452 14.1285 0.0742 0.9446
1.7569 14.1321 0.0742 0.9446
1.5804 14.1392 0.0741 0.9447
1.4043 14.1463 0.0740 0.9447
1.1406 14.1569 0.0740 0.9448
0.9650 14.1640 0.0739 0.9448
0.7019 14.1746 0.0739 0.9448
0.4387 14.1852 0.0739 0.9448
0.3511 14.1888 0.0739 0.9448
0.0000 14.2029 0.0740 0.9448
-0.0879 14.2065 0.0740 0.9448
-0.3518 14.2171 0.0741 0.9447
-0.4398 14.2207 0.0741 0.9447
-0.6998 11.3019 0.0590 0.9557
-0.7682 11.2754 0.0589 0.9558
-0.9042 11.2226 0.0586 0.9560
-1.1063 11.1441 0.0583 0.9562
-1.1784 11.1672 0.0585 0.9561
-1.2520 11.2008 0.0587 0.9559
-1.3262 11.2347 0.0589 0.9558
-1.4010 11.2689 0.0591 0.9556
-1.6671 11.6415 0.0613 0.9540
-2.2275 14.2928 0.0753 0.9438
-2.3188 14.2965 0.0754 0.9437
-2.5019 14.3038 0.0756 0.9436
-2.7785 14.3150 0.0759 0.9433
-2.9642 14.3225 0.0762 0.9432
-3.7193 14.3530 0.0772 0.9424
-3.9115 14.3607 0.0775 0.9422
-4.0081 14.3646 0.0777 0.9421
-4.2026 14.3725 0.0780 0.9419
-4.4974 14.3843 0.0785 0.9415
-4.6961 14.3924 0.0788 0.9412
-3.9255 11.7833 0.0647 0.9515
-3.9713 11.6793 0.0642 0.9519
-4.0165 11.5768 0.0638 0.9522
-4.0611 11.4756 0.0634 0.9525
-4.1881 11.3848 0.0632 0.9526
-4.3282 11.3311 0.0632 0.9526
-4.3982 11.3043 0.0632 0.9526
-4.4683 11.2775 0.0632 0.9526
-4.6290 11.2738 0.0635 0.9524
-6.0599 13.7785 0.0784 0.9416
-7.0092 15.4168 0.0882 0.9345
-7.1268 15.4215 0.0885 0.9343
-7.3642 15.4311 0.0891 0.9339
-7.4840 15.4359 0.0893 0.9337
-7.6047 15.4408 0.0896 0.9335
-7.7262 15.4457 0.0899 0.9333
-7.9716 15.4556 0.0906 0.9328
-8.2205 15.4656 0.0912 0.9323
-8.4731 15.4758 0.0919 0.9319
-8.6007 15.4810 0.0922 0.9316
-8.7294 15.4862 0.0926 0.9314
-8.9897 15.4966 0.0933 0.9308
-9.1194 15.2816 0.0927 0.9313
-9.1353 14.8867 0.0910 0.9325
-9.1581 14.3210 0.0885 0.9343
-9.1654 14.1390 0.0878 0.9348
-9.2618 13.9077 0.0870 0.9353
-9.3899 13.9128 0.0874 0.9351
-9.6498 13.9233 0.0882 0.9345
-11.1571 15.8874 0.1011 0.9253
-11.1804 15.3087 0.0987 0.9270
-11.3379 15.1279 0.0985 0.9272
-11.4893 15.1340 0.0990 0.9268
-12.3585 15.2743 0.1023 0.9244
-12.5210 15.2808 0.1029 0.9240
-12.6336 15.2252 0.1030 0.9239
-12.8513 15.2942 0.1040 0.9232
-13.0193 15.3010 0.1046 0.9228
-13.1892 15.3078 0.1052 0.9224
-13.3610 15.3147 0.1059 0.9219
-13.5349 15.3217 0.1065 0.9215
-13.7109 15.3288 0.1071 0.9210
-13.9691 15.2340 0.1077 0.9206
-14.3338 15.2487 0.1090 0.9197
-14.8984 15.2715 0.1111 0.9182
-15.2872 15.2872 0.1126 0.9172
-15.6866 15.3033 0.1141 0.9161
-15.8513 15.2738 0.1146 0.9157
-16.8553 15.4557 0.1191 0.9126
-17.5099 15.4679 0.1217 0.9108
-17.5687 15.3274 0.1214 0.9110
-18.0998 15.4006 0.1238 0.9093
-18.3397 15.4103 0.1248 0.9086
-18.5836 15.4202 0.1258 0.9079
-8.9610 6.8029 0.0586 0.9560
-50.4947 31.8525 0.3109 0.7876
-50.5625 30.1733 0.3067 0.7902
-50.6121 28.9433 0.3037 0.7920
-50.6608 27.7368 0.3008 0.7937
-50.6768 27.3396 0.2999 0.7943
-50.6927 26.9448 0.2990 0.7948
-50.7243 26.1622 0.2973 0.7959
-50.7399 25.7742 0.2964 0.7964
-51.1539 25.1936 0.2970 0.7961
-52.5375 24.2792 0.3014 0.7933
-52.8917 24.0471 0.3026 0.7926
-58.0954 23.8537 0.3271 0.7779
-59.2221 23.8894 0.3326 0.7746
-59.3800 23.5272 0.3327 0.7745
-59.4067 23.1138 0.3320 0.7749
-59.3848 22.2635 0.3303 0.7759
-59.0171 21.7103 0.3275 0.7776
-58.5556 20.7221 0.3235 0.7800
-58.5730 20.3215 0.3229 0.7804
-58.5956 19.9242 0.3223 0.7807
-41.8513 13.9425 0.2297 0.8382
-58.6636 18.7406 0.3208 0.7817
-58.7584 17.1812 0.3188 0.7828
-58.7819 16.7943 0.3184 0.7831
-58.8520 15.6394 0.3172 0.7838
-58.6506 15.1982 0.3156 0.7848
-58.7783 14.8440 0.3157 0.7847
-59.3169 14.5903 0.3182 0.7832
-63.3453 14.7528 0.3388 0.7709
-65.5940 14.8495 0.3503 0.7641
-59.7329 7.4260 0.3135 0.7860
-58.3034 -19.4234 -0.1362 0.7821
-56.4219 -19.5752 -0.1324 0.7875
-55.2356 -19.5471 -0.1299 0.7911
-52.4399 -19.6599 -0.1241 0.7993
-51.5666 -19.6970 -0.1223 0.8019
-49.3643 -19.9129 -0.1180 0.8082
-49.3789 -20.2747 -0.1183 0.8077
-49.4231 -21.3728 -0.1193 0.8062
-49.5128 -22.5109 -0.1206 0.8045
-47.1153 -23.2045 -0.1164 0.8105
-46.2132 -23.1164 -0.1145 0.8133
-45.5594 -23.1427 -0.1133 0.8151
-44.9201 -23.1685 -0.1120 0.8170
-44.6789 -23.3951 -0.1118 0.8173
-44.7229 -24.4858 -0.1130 0.8155
-44.8455 -25.6456 -0.1145 0.8133
-44.7984 -26.3593 -0.1152 0.8123
-44.8139 -26.7429 -0.1157 0.8116
-44.8295 -27.1295 -0.1161 0.8109
-44.8611 -27.9125 -0.1171 0.8095
-44.8771 -28.3089 -0.1176 0.8088
-44.8961 -28.7105 -0.1181 0.8080
-44.8913 -29.8951 -0.1195 0.8059
-44.9706 -30.3510 -0.1202 0.8049
-45.0275 -32.0385 -0.1225 0.8017
-49.2287 -35.9531 -0.1351 0.7836
-44.2913 -34.4964 -0.1244 0.7989
-49.3811 -39.4515 -0.1401 0.7766
-49.4129 -40.4883 -0.1416 0.7745
-49.4331 -41.0183 -0.1424 0.7734
-49.4547 -41.5554 -0.1432 0.7723
-20.9524 -21.7447 -0.0669 0.8862
-19.2432 -20.4716 -0.0623 0.8937
-19.3031 -20.7915 -0.0629 0.8927
-19.3141 -21.0630 -0.0633 0.8920
-19.3252 -21.3386 -0.0638 0.8912
-19.2820 -21.5574 -0.0641 0.8908
-19.2281 -21.7666 -0.0644 0.8903
-18.7591 -21.7725 -0.0637 0.8914
-18.5282 -21.7754 -0.0634 0.8919
-18.2618 -21.7333 -0.0629 0.8927
-17.8402 -21.7726 -0.0624 0.8935
-17.4082 -21.7896 -0.0618 0.8944
-16.9752 -21.7951 -0.0612 0.8954
-16.7618 -21.7978 -0.0609 0.8958
-15.9562 -21.0180 -0.0585 0.8998
-16.0149 -21.3684 -0.0592 0.8987
-15.5978 -21.3572 -0.0586 0.8996
-15.3204 -21.8159 -0.0591 0.8989
-15.1216 -21.8184 -0.0588 0.8993
-14.9244 -21.8209 -0.0586 0.8997
-14.7288 -21.8234 -0.0583 0.9000
-14.3424 -21.8283 -0.0579 0.9008
-13.5875 -21.8379 -0.0570 0.9022
-13.2185 -21.8426 -0.0566 0.9029
-12.8548 -21.8472 -0.0562 0.9036
-12.4963 -21.8517 -0.0558 0.9042
-12.1426 -21.8562 -0.0554 0.9048
-11.9675 -21.8585 -0.0552 0.9051
-11.1089 -21.8694 -0.0544 0.9065
-10.6063 -21.8757 -0.0539 0.9073
-10.4407 -21.8778 -0.0537 0.9076
-10.2761 -21.8799 -0.0536 0.9078
-10.1124 -21.8822 -0.0534 0.9081
-9.9496 -21.8843 -0.0533 0.9083
-9.4664 -21.8904 -0.0529 0.9090
-9.1484 -21.8945 -0.0526 0.9094
-8.8335 -21.8984 -0.0523 0.9099
-8.5217 -21.9024 -0.0521 0.9103
-8.2127 -21.9063 -0.0518 0.9107
-7.7544 -21.9121 -0.0515 0.9112
-7.6029 -21.9140 -0.0514 0.9114
-7.1522 -21.9198 -0.0511 0.9119
-7.0030 -21.9217 -0.0510 0.9121
-6.8546 -21.9236 -0.0509 0.9122
-6.7065 -21.9254 -0.0508 0.9124
-6.2658 -21.9310 -0.0506 0.9128
-6.1199 -21.9329 -0.0505 0.9129
-5.9744 -21.9347 -0.0504 0.9131
-5.8294 -21.9365 -0.0503 0.9132
-5.6849 -21.9384 -0.0502 0.9133
-5.5408 -21.9402 -0.0502 0.9135
-5.3971 -21.9420 -0.0501 0.9136
-5.2539 -21.9438 -0.0500 0.9137
-5.1110 -21.9457 -0.0499 0.9138
-4.9686 -21.9475 -0.0499 0.9139
-4.4023 -21.9543 -0.0496 0.9143
-4.1212 -21.9579 -0.0495 0.9145
-3.8413 -21.9615 -0.0494 0.9147
-3.5625 -21.9650 -0.0493 0.9148
-3.1462 -21.9703 -0.0492 0.9150
-3.0080 -21.9720 -0.0491 0.9151
-2.7320 -21.9755 -0.0491 0.9152
-2.5943 -21.9773 -0.0490 0.9153
-2.3195 -21.9807 -0.0490 0.9154
-2.1823 -21.9825 -0.0490 0.9154
-2.0452 -21.9842 -0.0489 0.9155
-1.6349 -21.9894 -0.0489 0.9156
-1.4983 -21.9912 -0.0489 0.9156
-1.3619 -21.9929 -0.0488 0.9156
-0.9529 -21.9981 -0.0488 0.9157
-0.6805 -22.0015 -0.0488 0.9157
-0.1361 -22.0084 -0.0488 0.9157
0.0000 -22.0101 -0.0488 0.9157
0.5447 -22.0171 -0.0488 0.9157
1.2272 -22.0261 -0.0489 0.9155
1.3640 -22.0278 -0.0489 0.9155
1.5009 -22.0295 -0.0489 0.9155
1.7752 -22.0330 -0.0490 0.9154
2.3257 -22.0400 -0.0491 0.9152
2.7407 -22.0453 -0.0492 0.9150
3.0185 -22.0488 -0.0493 0.9148
3.1578 -22.0506 -0.0494 0.9148
3.2894 -21.1062 -0.0473 0.9181
3.8584 -22.0594 -0.0496 0.9143
4.4248 -22.0666 -0.0499 0.9139
4.5673 -22.0684 -0.0499 0.9138
4.7102 -22.0703 -0.0500 0.9137
4.8535 -22.0721 -0.0501 0.9136
4.9972 -22.0739 -0.0502 0.9134
5.1413 -22.0758 -0.0502 0.9133
5.2859 -22.0776 -0.0503 0.9132
5.7224 -22.0831 -0.0506 0.9128
5.8689 -22.0850 -0.0506 0.9126
6.1634 -22.0887 -0.0508 0.9124
6.3114 -22.0907 -0.0509 0.9122
6.6091 -22.0944 -0.0511 0.9119
6.7588 -22.0964 -0.0512 0.9117
7.0601 -22.1002 -0.0514 0.9114
7.2117 -22.1021 -0.0515 0.9112
7.3638 -22.1040 -0.0516 0.9110
7.5167 -22.1060 -0.0517 0.9108
7.6702 -22.1079 -0.0519 0.9106
7.8244 -22.1099 -0.0520 0.9105
7.9793 -22.1119 -0.0521 0.9103
8.2913 -22.1158 -0.0523 0.9098
8.4484 -22.1178 -0.0525 0.9096
8.7650 -22.1218 -0.0527 0.9092
8.9245 -22.1238 -0.0529 0.9090
9.0848 -22.1259 -0.0530 0.9088
9.2459 -22.1279 -0.0532 0.9085
9.4080 -22.1300 -0.0533 0.9083
9.8994 -22.1362 -0.0537 0.9076
10.0652 -22.1383 -0.0539 0.9073
10.2318 -22.1404 -0.0541 0.9070
10.9085 -22.1490 -0.0547 0.9060
11.0803 -22.1512 -0.0549 0.9057
11.7786 -22.1596 -0.0556 0.9045
12.1349 -22.1641 -0.0560 0.9039
12.8628 -22.1733 -0.0568 0.9025
13.9962 -22.1877 -0.0581 0.9004
14.1904 -22.1902 -0.0584 0.9000
14.3861 -22.1926 -0.0586 0.8996
15.1855 -22.2028 -0.0596 0.8980
15.3897 -22.2054 -0.0599 0.8976
15.5957 -22.2080 -0.0601 0.8971
15.8035 -22.2107 -0.0604 0.8967
16.6542 -22.2214 -0.0615 0.8949
16.8720 -22.2242 -0.0618 0.8944
17.0918 -22.2270 -0.0621 0.8939
17.3139 -22.2300 -0.0625 0.8934
17.5382 -22.2328 -0.0628 0.8929
17.7646 -22.2357 -0.0631 0.8924
17.9933 -22.2386 -0.0634 0.8919
18.4580 -22.2445 -0.0641 0.8908
18.6940 -22.2475 -0.0644 0.8903
18.9325 -22.2506 -0.0647 0.8897
19.6639 -22.2599 -0.0658 0.8880
19.9131 -22.2630 -0.0662 0.8874
20.6783 -22.2727 -0.0674 0.8855
20.9394 -22.2760 -0.0678 0.8849
21.4709 -22.2828 -0.0686 0.8836
21.7416 -22.2862 -0.0690 0.8829
22.0157 -22.2897 -0.0694 0.8822
22.2932 -22.2932 -0.0699 0.8815
22.5743 -22.2967 -0.0703 0.8808
22.8591 -22.3005 -0.0708 0.8801
23.1475 -22.3042 -0.0712 0.8793
23.4398 -22.3079 -0.0717 0.8786
23.7359 -22.3116 -0.0722 0.8778
24.6490 -22.3232 -0.0737 0.8754
24.5912 -21.9956 -0.0731 0.8764
24.0670 -20.9967 -0.0708 0.8801
23.8173 -20.5208 -0.0697 0.8818
23.8619 -20.0505 -0.0691 0.8828
24.0468 -19.9534 -0.0693 0.8825
24.6073 -19.6593 -0.0698 0.8816
25.7566 -19.0562 -0.0710 0.8797
26.3466 -18.7465 -0.0717 0.8787
26.5458 -18.6420 -0.0719 0.8783
27.1509 -18.3244 -0.0726 0.8772
27.5611 -18.1091 -0.0731 0.8764
28.1871 -17.7807 -0.0739 0.8752
28.3987 -17.6696 -0.0741 0.8748
28.6119 -17.5577 -0.0744 0.8743
31.5896 -18.0651 -0.0807 0.8645
32.0662 -17.8150 -0.0813 0.8635
32.7959 -17.4321 -0.0823 0.8619
33.0432 -17.3023 -0.0827 0.8614
33.5442 -17.0394 -0.0834 0.8603
33.4037 -16.7090 -0.0828 0.8612
32.8662 -15.6847 -0.0807 0.8644
32.7541 -15.3833 -0.0802 0.8652
33.5108 -14.9863 -0.0814 0.8634
34.0281 -14.7152 -0.0822 0.8622
34.2905 -14.5777 -0.0826 0.8615
34.5554 -14.4387 -0.0830 0.8609
34.8231 -14.2982 -0.0834 0.8602
35.0936 -14.1563 -0.0839 0.8595
35.3669 -14.0129 -0.0843 0.8588
35.6431 -13.8679 -0.0848 0.8581
35.9223 -13.7214 -0.0852 0.8574
36.7786 -13.2720 -0.0867 0.8552
37.0706 -13.1188 -0.0872 0.8545
38.2727 -12.4879 -0.0892 0.8513
38.5823 -12.3255 -0.0898 0.8504
38.8956 -12.1610 -0.0903 0.8496
34.7446 -10.3932 -0.0804 0.8650
34.7542 -10.1624 -0.0803 0.8652
34.7828 -9.4739 -0.0799 0.8657
34.7922 -9.2457 -0.0798 0.8659
34.8016 -9.0182 -0.0797 0.8661
34.8296 -8.3391 -0.0794 0.8665
34.8390 -8.1139 -0.0793 0.8667
34.8482 -7.8892 -0.0792 0.8668
34.8026 -7.6529 -0.0790 0.8672
41.5399 -7.5308 -0.0936 0.8446
43.5095 -7.6102 -0.0979 0.8380
55.9551 -8.0130 -0.1253 0.7976
60.8562 -8.3312 -0.1361 0.7822
39.0238 -3.6304 -0.0869 0.8549
49.7508 -4.0084 -0.1106 0.8190
49.9536 -3.0932 -0.1109 0.8186
49.9661 -2.7839 -0.1109 0.8186
49.9786 -2.4746 -0.1109 0.8186
50.0035 -1.8563 -0.1109 0.8186
50.0160 -1.5471 -0.1109 0.8186
50.0285 -1.2378 -0.1109 0.8186
50.0409 -0.9285 -0.1109 0.8186
50.0784 -0.0000 -0.1110 0.8185
50.0909 0.3098 -0.1110 0.8184
49.9373 0.6177 -0.1107 0.8189
49.9873 1.8556 -0.1109 0.8187
50.1786 2.4846 -0.1113 0.8179
50.1912 2.7964 -0.1114 0.8178
50.2038 3.1087 -0.1115 0.8177
50.2290 3.7344 -0.1116 0.8175
50.2670 4.6764 -0.1119 0.8171
50.2924 5.3069 -0.1121 0.8169
50.3180 5.9398 -0.1123 0.8165
50.2645 6.2489 -0.1123 0.8166
50.0645 7.8025 -0.1123 0.8165
50.0774 8.1221 -0.1124 0.8163
50.1032 8.7636 -0.1127 0.8159
50.1293 9.4085 -0.1130 0.8154
55.7783 14.4539 -0.1277 0.7941
53.3488 14.5308 -0.1225 0.8016
51.2732 14.6490 -0.1182 0.8079
51.3797 16.0642 -0.1193 0.8063
51.3940 16.4183 -0.1196 0.8059
51.3871 17.4731 -0.1203 0.8048
51.4016 17.8334 -0.1206 0.8044
51.3578 18.1749 -0.1208 0.8042
51.4903 20.0336 -0.1225 0.8017
51.5206 20.7827 -0.1231 0.8007
51.5358 21.1603 -0.1235 0.8002
50.0673 21.2848 -0.1206 0.8044
51.5976 22.6929 -0.1249 0.7981
51.6290 23.4730 -0.1257 0.7970
51.6609 24.2629 -0.1265 0.7959
51.6770 24.6617 -0.1269 0.7953
51.6932 25.0631 -0.1273 0.7947
51.7694 26.2972 -0.1287 0.7927
51.7590 26.6959 -0.1291 0.7922
57.4190 33.3089 -0.1471 0.7668
50.9767 30.4205 -0.1316 0.7886
51.0123 31.3038 -0.1327 0.7871
51.0303 31.7509 -0.1332 0.7863
53.0716 33.4780 -0.1391 0.7780
52.4032 33.5112 -0.1379 0.7797
52.0429 33.7361 -0.1375 0.7803
52.0620 34.2075 -0.1381 0.7794
52.1514 35.1974 -0.1394 0.7775
52.1596 36.6295 -0.1413 0.7750
52.2000 37.6304 -0.1426 0.7731
52.2205 38.1381 -0.1433 0.7721
52.2621 39.1687 -0.1448 0.7701
52.2831 39.6918 -0.1455 0.7691
52.3045 40.2203 -0.1462 0.7680
50.8638 39.6155 -0.1428 0.7727
52.3697 41.8392 -0.1486 0.7648
52.4602 44.0808 -0.1519 0.7603
52.5346 44.7006 -0.1529 0.7589
52.5307 45.8292 -0.1545 0.7567
14.1616 13.4778 -0.0433 0.9248
13.7680 13.4316 -0.0426 0.9259
13.6001 13.4329 -0.0424 0.9264
13.4394 13.4394 -0.0421 0.9268
12.6614 13.4696 -0.0410 0.9287
12.4563 13.5842 -0.0409 0.9289
12.0157 13.6020 -0.0402 0.9300
11.4486 13.6249 -0.0394 0.9313
10.9549 13.5396 -0.0386 0.9327
10.4278 13.5608 -0.0379 0.9339
7.2364 9.5320 -0.0265 0.9533
7.2001 9.6069 -0.0266 0.9531
10.0445 13.5763 -0.0374 0.9347
9.9188 13.5814 -0.0373 0.9349
9.7943 13.5864 -0.0371 0.9352
9.5481 13.5963 -0.0368 0.9357
9.4265 13.6012 -0.0367 0.9359
9.3059 13.6061 -0.0365 0.9362
8.9162 13.5700 -0.0360 0.9371
8.8932 13.7192 -0.0362 0.9367
8.7817 13.7325 -0.0361 0.9369
8.6655 13.7371 -0.0360 0.9371
8.3995 13.6877 -0.0356 0.9378
7.9849 13.7646 -0.0353 0.9383
7.8741 13.7691 -0.0352 0.9385
7.5458 13.7823 -0.0348 0.9391
7.4378 13.7867 -0.0347 0.9393
7.2486 13.6372 -0.0342 0.9401
7.1696 13.6922 -0.0343 0.9400
6.4360 13.2745 -0.0327 0.9427
6.3369 13.2785 -0.0326 0.9428
6.2382 13.2824 -0.0325 0.9430
6.1401 13.2864 -0.0324 0.9431
6.0424 13.2903 -0.0324 0.9433
5.9453 13.2942 -0.0323 0.9434
4.6221 10.8724 -0.0262 0.9538
4.4354 10.8024 -0.0259 0.9544
4.2607 10.7535 -0.0256 0.9548
4.0647 10.8420 -0.0257 0.9547
3.9338 10.9011 -0.0257 0.9547
3.8682 10.9307 -0.0257 0.9547
3.8026 10.9604 -0.0257 0.9547
3.7369 10.9900 -0.0257 0.9546
3.6872 11.0679 -0.0259 0.9544
3.5636 11.3976 -0.0265 0.9534
4.1979 14.0336 -0.0325 0.9431
4.1046 14.0373 -0.0324 0.9432
4.0116 14.0411 -0.0324 0.9433
3.8265 14.0485 -0.0323 0.9434
3.7343 14.0523 -0.0322 0.9435
3.3680 14.0670 -0.0321 0.9438
3.1862 14.0744 -0.0320 0.9439
3.0957 14.0780 -0.0319 0.9440
2.8251 14.0889 -0.0318 0.9441
2.5562 14.0998 -0.0318 0.9443
1.7569 14.1320 -0.0316 0.9446
1.6686 14.1356 -0.0315 0.9447
1.4923 14.1427 -0.0315 0.9447
1.4043 14.1463 -0.0315 0.9447
1.3164 14.1498 -0.0315 0.9447
1.2285 14.1533 -0.0315 0.9448
1.1406 14.1569 -0.0315 0.9448
1.0528 14.1604 -0.0315 0.9448
0.5264 14.1816 -0.0315 0.9448
0.4387 14.1852 -0.0315 0.9448
0.0000 14.2029 -0.0315 0.9448
-0.0879 14.2064 -0.0315 0.9448
-0.2876 11.6236 -0.0258 0.9546
-0.4208 11.3350 -0.0251 0.9556
-0.4850 11.1959 -0.0248 0.9562
-0.5509 11.1264 -0.0247 0.9564
-0.6185 11.1010 -0.0246 0.9565
-0.7529 11.0503 -0.0245 0.9567
-0.8197 11.0251 -0.0245 0.9567
-0.8863 11.0000 -0.0245 0.9568
-0.9526 10.9750 -0.0244 0.9569
-1.0187 10.9501 -0.0244 0.9570
-1.1523 10.9200 -0.0243 0.9570
-1.2243 10.9523 -0.0244 0.9569
-1.4433 11.0507 -0.0247 0.9564
-1.5921 11.1175 -0.0249 0.9561
-1.7481 11.2165 -0.0252 0.9556
-2.4102 14.3001 -0.0321 0.9436
-2.7785 14.3149 -0.0323 0.9433
-3.0575 14.3262 -0.0325 0.9431
-3.1511 14.3300 -0.0325 0.9430
-3.2450 14.3338 -0.0326 0.9429
-3.4337 14.3414 -0.0327 0.9427
-3.5285 14.3452 -0.0327 0.9426
-3.6237 14.3490 -0.0328 0.9425
-3.7193 14.3529 -0.0329 0.9424
-3.9115 14.3607 -0.0330 0.9422
-4.0081 14.3646 -0.0331 0.9421
-4.3004 14.3763 -0.0333 0.9417
-4.3987 14.3803 -0.0333 0.9416
-3.6822 11.7770 -0.0273 0.9518
-3.7761 11.5730 -0.0270 0.9525
-3.8676 11.3743 -0.0266 0.9531
-3.9125 11.2770 -0.0265 0.9534
-3.9750 11.2324 -0.0264 0.9535
-4.1129 11.1802 -0.0264 0.9535
-4.2506 11.1281 -0.0264 0.9535
-4.3196 11.1021 -0.0264 0.9535
-4.3885 11.0760 -0.0264 0.9535
-4.6059 11.0230 -0.0265 0.9533
-4.7050 11.0674 -0.0267 0.9530
-5.1153 11.2511 -0.0274 0.9518
-7.2451 15.4262 -0.0378 0.9341
-7.3641 15.4310 -0.0379 0.9339
-7.4840 15.4359 -0.0380 0.9337
-7.6046 15.4407 -0.0381 0.9335
-7.8484 15.4506 -0.0384 0.9330
-8.6007 15.4809 -0.0392 0.9316
-8.7293 15.4861 -0.0394 0.9314
-8.9896 15.4966 -0.0397 0.9308
-9.1199 15.2825 -0.0394 0.9313
-9.1436 14.6956 -0.0384 0.9331
-9.1587 14.3218 -0.0377 0.9343
-9.5192 13.9180 -0.0374 0.9348
-11.1656 15.6923 -0.0427 0.9259
-11.1734 15.4994 -0.0423 0.9264
-11.1810 15.3096 -0.0420 0.9270
-11.3379 15.1278 -0.0419 0.9272
-11.9530 15.1526 -0.0428 0.9257
-8.1175 10.1606 -0.0288 0.9493
-12.3584 15.2742 -0.0435 0.9244
-12.5209 15.2808 -0.0438 0.9240
-13.0192 15.3009 -0.0445 0.9228
-13.3610 15.3147 -0.0450 0.9219
-13.5349 15.3217 -0.0453 0.9215
-14.5195 15.2561 -0.0467 0.9192
-14.7076 15.2637 -0.0470 0.9187
-14.8983 15.2714 -0.0473 0.9182
-15.0914 15.2792 -0.0476 0.9177
-15.2871 15.2871 -0.0479 0.9172
-15.6866 15.3032 -0.0486 0.9161
-16.2126 15.4297 -0.0496 0.9144
-16.3837 15.4005 -0.0498 0.9140
-17.0148 15.4093 -0.0509 0.9123
-17.2995 15.4735 -0.0514 0.9113
-17.5107 15.4685 -0.0518 0.9108
-17.5686 15.3273 -0.0517 0.9110
-17.8634 15.3910 -0.0523 0.9100
-18.0996 15.4005 -0.0527 0.9093
-18.5835 15.4200 -0.0535 0.9079
-8.7039 6.9537 -0.0247 0.9564
-8.8508 6.8059 -0.0247 0.9563
-58.3501 38.3391 -0.1547 0.7563
-50.4795 32.2810 -0.1328 0.7869
-50.5139 31.4296 -0.1319 0.7882
-50.5811 29.7618 -0.1301 0.7908
-50.6140 28.9444 -0.1292 0.7920
-50.6466 28.1376 -0.1284 0.7931
-50.6787 27.3407 -0.1276 0.7943
-50.6946 26.9459 -0.1272 0.7948
-50.7105 26.5534 -0.1269 0.7954
-50.8554 25.4385 -0.1260 0.7966
-51.1551 25.1941 -0.1264 0.7961
-51.8246 25.1268 -0.1276 0.7942
-52.1686 24.8963 -0.1281 0.7936
-52.5152 24.6641 -0.1286 0.7929
-53.1585 24.1684 -0.1294 0.7917
-53.2779 23.8262 -0.1294 0.7918
-53.6608 23.6003 -0.1299 0.7910
-55.8747 24.1627 -0.1349 0.7839
-56.9972 24.2309 -0.1373 0.7806
-58.9854 24.2191 -0.1413 0.7749
-59.2242 23.8903 -0.1415 0.7746
-59.4089 23.1146 -0.1413 0.7749
-59.4754 22.2975 -0.1408 0.7756
-59.5053 21.8899 -0.1405 0.7760
-58.7028 21.1834 -0.1383 0.7791
-58.5578 20.7228 -0.1377 0.7800
-59.0291 20.0716 -0.1382 0.7793
-41.8514 13.9425 -0.0978 0.8382
-59.1014 18.8804 -0.1375 0.7802
-59.1254 18.4859 -0.1373 0.7805
-59.1492 18.0926 -0.1371 0.7808
-59.2441 16.5307 -0.1363 0.7819
-59.2676 16.1428 -0.1361 0.7822
-59.2911 15.7560 -0.1360 0.7824
-61.2667 14.6687 -0.1396 0.7772
-63.3440 14.7525 -0.1441 0.7709
-65.5926 14.8492 -0.1490 0.7641
-59.7316 7.4258 -0.1334 0.7860
-57.3132 -19.4882 -0.5836 0.7849
-56.4225 -19.5754 -0.5758 0.7875
-55.2362 -19.5473 -0.5649 0.7911
-52.4405 -19.6601 -0.5399 0.7993
-51.5873 -19.7049 -0.5324 0.8018
-49.3661 -19.9136 -0.5132 0.8082
-49.3807 -20.2755 -0.5147 0.8077
-49.4102 -21.0054 -0.5176 0.8067
-49.4250 -21.3736 -0.5192 0.8062
-49.5132 -22.5111 -0.5243 0.8045
-48.9823 -23.0049 -0.5217 0.8054
-47.1157 -23.2047 -0.5064 0.8105
-44.6952 -23.7570 -0.4880 0.8167
-44.8474 -25.6467 -0.4981 0.8133
-44.7935 -25.9848 -0.4993 0.8129
-44.8003 -26.3604 -0.5012 0.8123
-44.8158 -26.7440 -0.5032 0.8116
-44.8314 -27.1306 -0.5052 0.8109
-44.8471 -27.5205 -0.5073 0.8102
-44.8630 -27.9136 -0.5094 0.8095
-44.8789 -28.3101 -0.5116 0.8088
-44.9980 -30.7763 -0.5256 0.8041
-45.0003 -31.1880 -0.5279 0.8033
-45.0122 -31.6101 -0.5303 0.8025
-45.0295 -32.0399 -0.5328 0.8017
-49.2309 -35.9547 -0.5877 0.7836
-44.2591 -34.4714 -0.5409 0.7990
-49.3946 -39.4623 -0.6096 0.7765
-49.4195 -39.9854 -0.6129 0.7755
-49.4150 -40.4900 -0.6159 0.7745
-49.4571 -41.5573 -0.6228 0.7723
-19.2442 -20.4727 -0.2709 0.8937
-19.3041 -20.7926 -0.2735 0.8927
-19.3151 -21.0642 -0.2755 0.8920
-18.9924 -21.7696 -0.2785 0.8909
-18.7592 -21.7726 -0.2771 0.8914
-18.2619 -21.7334 -0.2737 0.8927
-18.0592 -21.7639 -0.2727 0.8930
-17.6234 -21.7815 -0.2701 0.8940
-16.9753 -21.7952 -0.2663 0.8954
-15.9572 -21.0192 -0.2544 0.8998
-15.7542 -21.2936 -0.2554 0.8995
-15.5978 -21.3572 -0.2550 0.8996
-15.5210 -21.8134 -0.2581 0.8984
-15.3204 -21.8160 -0.2570 0.8989
-15.1216 -21.8185 -0.2559 0.8993
-14.9244 -21.8210 -0.2549 0.8996
-14.7289 -21.8235 -0.2538 0.9000
-14.3424 -21.8284 -0.2518 0.9008
-13.7741 -21.8356 -0.2489 0.9019
-13.0360 -21.8450 -0.2453 0.9032
-12.4963 -21.8518 -0.2427 0.9042
-12.3189 -21.8541 -0.2419 0.9045
-12.1426 -21.8563 -0.2411 0.9048
-11.6208 -21.8629 -0.2387 0.9057
-11.4492 -21.8651 -0.2380 0.9060
-11.2785 -21.8673 -0.2372 0.9063
-10.9404 -21.8715 -0.2358 0.9068
-10.6063 -21.8758 -0.2344 0.9073
-10.4407 -21.8779 -0.2337 0.9076
-10.2761 -21.8800 -0.2331 0.9078
-9.9497 -21.8844 -0.2318 0.9083
-9.6266 -21.8884 -0.2305 0.9088
-9.3070 -21.8925 -0.2293 0.9092
-8.9906 -21.8965 -0.2282 0.9097
-8.8336 -21.8985 -0.2277 0.9099
-8.6773 -21.9005 -0.2271 0.9101
-8.3669 -21.9044 -0.2261 0.9105
-8.2128 -21.9064 -0.2256 0.9107
-7.3018 -21.9179 -0.2227 0.9117
-7.0031 -21.9217 -0.2219 0.9121
-6.7066 -21.9255 -0.2211 0.9124
-6.5592 -21.9274 -0.2207 0.9125
-6.2658 -21.9311 -0.2199 0.9128
-6.1199 -21.9329 -0.2195 0.9129
-5.8295 -21.9366 -0.2188 0.9132
-5.5408 -21.9403 -0.2182 0.9135
-5.3972 -21.9421 -0.2179 0.9136
-5.2539 -21.9439 -0.2175 0.9137
-4.8265 -21.9493 -0.2167 0.9140
-4.5433 -21.9526 -0.2161 0.9142
-4.4023 -21.9544 -0.2159 0.9143
-4.2616 -21.9562 -0.2156 0.9144
-4.1212 -21.9579 -0.2154 0.9145
-3.9811 -21.9597 -0.2152 0.9146
-3.7018 -21.9633 -0.2147 0.9148
-3.2848 -21.9686 -0.2142 0.9150
-3.1463 -21.9703 -0.2140 0.9150
-2.8699 -21.9738 -0.2137 0.9152
-2.7320 -21.9756 -0.2135 0.9152
-2.0452 -21.9843 -0.2129 0.9155
-1.9083 -21.9860 -0.2128 0.9155
-1.6349 -21.9895 -0.2126 0.9156
-1.3618 -21.9930 -0.2124 0.9156
-1.2255 -21.9947 -0.2124 0.9157
-1.0892 -21.9964 -0.2123 0.9157
-0.9529 -21.9982 -0.2123 0.9157
-0.4083 -22.0051 -0.2122 0.9157
0.0000 -22.0102 -0.2122 0.9157
0.1361 -22.0119 -0.2122 0.9157
0.2723 -22.0137 -0.2123 0.9157
0.6811 -22.0189 -0.2124 0.9156
1.0905 -22.0244 -0.2126 0.9156
1.6380 -22.0314 -0.2130 0.9154
2.0501 -22.0366 -0.2134 0.9153
2.1878 -22.0383 -0.2135 0.9152
2.6021 -22.0436 -0.2140 0.9150
3.2973 -22.0524 -0.2150 0.9147
3.4056 -20.9977 -0.2051 0.9184
3.8584 -22.0595 -0.2159 0.9143
3.9995 -22.0613 -0.2162 0.9142
4.1409 -22.0631 -0.2164 0.9141
4.2827 -22.0649 -0.2167 0.9140
4.4248 -22.0667 -0.2170 0.9139
4.5673 -22.0685 -0.2173 0.9138
4.7102 -22.0703 -0.2176 0.9137
4.8535 -22.0722 -0.2179 0.9136
4.9973 -22.0740 -0.2182 0.9134
5.1414 -22.0758 -0.2185 0.9133
5.5765 -22.0813 -0.2196 0.9129
6.0159 -22.0869 -0.2207 0.9125
6.3114 -22.0908 -0.2215 0.9122
6.4600 -22.0926 -0.2219 0.9120
6.7589 -22.0964 -0.2228 0.9117
7.0601 -22.1003 -0.2237 0.9114
7.3639 -22.1041 -0.2246 0.9110
7.6702 -22.1080 -0.2256 0.9106
7.8244 -22.1099 -0.2261 0.9104
8.2913 -22.1158 -0.2277 0.9098
8.6063 -22.1199 -0.2288 0.9094
8.9245 -22.1239 -0.2300 0.9090
9.0848 -22.1259 -0.2306 0.9088
9.5709 -22.1321 -0.2325 0.9080
9.8995 -22.1363 -0.2338 0.9076
10.0652 -22.1384 -0.2345 0.9073
10.2318 -22.1405 -0.2352 0.9070
10.3995 -22.1426 -0.2359 0.9068
10.5681 -22.1448 -0.2366 0.9065
10.9085 -22.1491 -0.2380 0.9060
11.0804 -22.1513 -0.2388 0.9057
11.4273 -22.1557 -0.2403 0.9051
11.6025 -22.1579 -0.2411 0.9048
11.7786 -22.1597 -0.2419 0.9045
11.9561 -22.1619 -0.2428 0.9042
12.1349 -22.1642 -0.2436 0.9039
12.8629 -22.1734 -0.2471 0.9025
13.6126 -22.1829 -0.2509 0.9011
13.8037 -22.1853 -0.2519 0.9008
14.1904 -22.1902 -0.2539 0.9000
14.5835 -22.1952 -0.2560 0.8992
15.1856 -22.2029 -0.2593 0.8980
15.5958 -22.2081 -0.2616 0.8971
16.0134 -22.2134 -0.2640 0.8962
16.2250 -22.2161 -0.2652 0.8958
17.0919 -22.2271 -0.2703 0.8939
17.5382 -22.2329 -0.2730 0.8929
17.9934 -22.2387 -0.2758 0.8919
18.2245 -22.2416 -0.2772 0.8913
18.6941 -22.2476 -0.2802 0.8903
19.4175 -22.2568 -0.2848 0.8886
19.6639 -22.2599 -0.2864 0.8880
20.1653 -22.2663 -0.2896 0.8868
20.6784 -22.2728 -0.2930 0.8855
21.2036 -22.2794 -0.2965 0.8842
21.4711 -22.2829 -0.2983 0.8836
21.7417 -22.2863 -0.3002 0.8829
22.8592 -22.3006 -0.3079 0.8801
23.7360 -22.3117 -0.3141 0.8778
24.3406 -22.3194 -0.3184 0.8762
24.6491 -22.3233 -0.3206 0.8754
24.5889 -21.9936 -0.3181 0.8764
24.3227 -21.4861 -0.3129 0.8783
24.0649 -20.9949 -0.3079 0.8801
23.8615 -20.0502 -0.3005 0.8828
24.0464 -19.9531 -0.3013 0.8825
24.2323 -19.8556 -0.3020 0.8822
24.4191 -19.7575 -0.3028 0.8819
25.5619 -19.1578 -0.3080 0.8800
25.7562 -19.0559 -0.3089 0.8797
26.3462 -18.7462 -0.3117 0.8787
26.5454 -18.6417 -0.3127 0.8783
27.3549 -18.2169 -0.3169 0.8768
27.7679 -18.0002 -0.3190 0.8760
28.1866 -17.7804 -0.3213 0.8752
29.0425 -17.3312 -0.3261 0.8735
31.3537 -18.1883 -0.3495 0.8650
31.5891 -18.0648 -0.3508 0.8645
31.8265 -17.9402 -0.3522 0.8640
32.0657 -17.8147 -0.3537 0.8635
33.4019 -16.7080 -0.3601 0.8612
33.2198 -16.3608 -0.3570 0.8623
33.0406 -16.0195 -0.3540 0.8634
32.7536 -15.3830 -0.3489 0.8652
33.5785 -14.7680 -0.3537 0.8635
35.0929 -14.1560 -0.3648 0.8595
35.3662 -14.0126 -0.3668 0.8588
36.8619 -13.0450 -0.3770 0.8552
37.3649 -12.9635 -0.3813 0.8537
37.6637 -12.8068 -0.3835 0.8529
37.9661 -12.6482 -0.3858 0.8521
38.2720 -12.4877 -0.3881 0.8513
38.5815 -12.3252 -0.3905 0.8504
39.2121 -11.9943 -0.3953 0.8487
34.5477 -10.3343 -0.3477 0.8657
34.5662 -9.8758 -0.3466 0.8661
34.5846 -9.4200 -0.3456 0.8664
34.5938 -9.1930 -0.3451 0.8666
34.6120 -8.7410 -0.3442 0.8669
34.6211 -8.5159 -0.3437 0.8671
34.6392 -8.0673 -0.3429 0.8674
43.5107 -7.6105 -0.4259 0.8380
45.2346 -7.6240 -0.4423 0.8324
48.0126 -7.7872 -0.4689 0.8232
50.4410 -7.8612 -0.4922 0.8153
60.6094 -8.2974 -0.5898 0.7829
38.9259 -3.6213 -0.3769 0.8552
38.9788 -3.3833 -0.3772 0.8551
49.7490 -4.0082 -0.4812 0.8190
49.9269 -3.7120 -0.4827 0.8185
50.0018 -1.8562 -0.4824 0.8186
50.0142 -1.5470 -0.4824 0.8186
50.0267 -1.2378 -0.4825 0.8186
50.0392 -0.9285 -0.4825 0.8186
50.0517 -0.6191 -0.4826 0.8185
50.0766 -0.0000 -0.4828 0.8185
50.0891 0.3097 -0.4829 0.8184
49.9481 0.9268 -0.4816 0.8189
49.9855 1.8556 -0.4822 0.8187
50.1769 2.4845 -0.4844 0.8179
50.1894 2.7963 -0.4846 0.8178
50.2020 3.1086 -0.4849 0.8177
50.2146 3.4212 -0.4852 0.8176
50.2399 4.0478 -0.4859 0.8174
50.2780 4.9912 -0.4871 0.8170
50.1750 6.5531 -0.4879 0.8168
50.2214 6.8753 -0.4887 0.8165
50.0627 7.8022 -0.4885 0.8165
50.0885 8.4421 -0.4897 0.8161
50.1275 9.4082 -0.4917 0.8154
55.7763 14.4533 -0.5555 0.7941
54.5041 14.4840 -0.5437 0.7980
53.3481 14.5306 -0.5331 0.8016
51.2994 15.3452 -0.5162 0.8072
51.3779 16.0636 -0.5190 0.8063
51.3921 16.4177 -0.5201 0.8059
51.3563 16.7569 -0.5208 0.8057
51.3707 17.1138 -0.5220 0.8053
51.3997 17.8327 -0.5245 0.8044
51.3559 18.1742 -0.5252 0.8042
51.4290 18.5587 -0.5271 0.8036
51.4778 19.6631 -0.5313 0.8022
51.4884 20.0329 -0.5327 0.8017
47.1225 18.6706 -0.4887 0.8165
51.5186 20.7819 -0.5356 0.8007
50.0654 21.2840 -0.5245 0.8044
51.6003 22.6941 -0.5435 0.7981
51.6113 23.0809 -0.5451 0.7976
51.6429 23.8658 -0.5485 0.7965
51.6589 24.2620 -0.5503 0.7959
51.6750 24.6608 -0.5520 0.7953
51.6502 25.4380 -0.5551 0.7943
51.7744 25.8982 -0.5581 0.7933
51.7689 26.2970 -0.5598 0.7927
51.7570 26.6949 -0.5615 0.7922
57.4186 33.3087 -0.6400 0.7668
51.5899 30.3553 -0.5771 0.7871
50.9746 30.4192 -0.5723 0.7886
52.4028 33.5110 -0.5997 0.7797
52.0408 33.7347 -0.5979 0.7803
52.0598 34.2061 -0.6006 0.7794
52.1492 35.1959 -0.6066 0.7775
52.1574 36.6279 -0.6145 0.7750
52.1182 37.0838 -0.6167 0.7742
52.1977 37.6287 -0.6204 0.7731
52.2252 38.1415 -0.6235 0.7721
52.2458 38.6542 -0.6266 0.7711
52.2597 39.1670 -0.6296 0.7701
52.2808 39.6901 -0.6328 0.7691
52.3021 40.2185 -0.6361 0.7680
50.8895 40.1436 -0.6249 0.7716
52.5322 44.6985 -0.6650 0.7589
52.4734 45.2108 -0.6678 0.7580
24.1291 21.8524 -0.3139 0.8779
23.5517 21.8657 -0.3098 0.8794
14.1617 13.4778 -0.1885 0.9248
13.9633 13.4545 -0.1869 0.9254
13.2804 13.4457 -0.1822 0.9272
13.1233 13.4520 -0.1812 0.9276
12.8143 13.4645 -0.1792 0.9283
12.6061 13.5781 -0.1786 0.9286
12.3079 13.5902 -0.1768 0.9293
12.0157 13.6019 -0.1750 0.9300
11.8718 13.6077 -0.1741 0.9303
11.4485 13.6248 -0.1716 0.9313
11.3102 13.6304 -0.1708 0.9316
10.9548 13.5395 -0.1679 0.9327
10.8213 13.5449 -0.1671 0.9330
10.5578 13.5555 -0.1657 0.9336
7.1994 9.6060 -0.1157 0.9531
9.6707 13.5913 -0.1608 0.9355
9.5481 13.5962 -0.1602 0.9357
9.4265 13.6011 -0.1595 0.9359
9.3058 13.6060 -0.1589 0.9362
9.1861 13.6108 -0.1583 0.9364
9.0673 13.6156 -0.1577 0.9367
8.9162 13.5699 -0.1565 0.9371
8.6655 13.7371 -0.1566 0.9371
8.3217 13.7509 -0.1550 0.9377
8.0963 13.7600 -0.1539 0.9381
7.9848 13.7645 -0.1534 0.9383
7.8740 13.7690 -0.1529 0.9385
7.6545 13.7779 -0.1520 0.9389
7.5458 13.7822 -0.1515 0.9391
7.4377 13.7866 -0.1510 0.9393
7.1696 13.6922 -0.1490 0.9400
6.7368 13.2623 -0.1434 0.9422
6.4360 13.2744 -0.1422 0.9427
6.2382 13.2824 -0.1415 0.9430
5.1294 11.0993 -0.1179 0.9523
4.5268 10.6482 -0.1116 0.9548
4.0675 10.6485 -0.1099 0.9554
3.7448 10.7938 -0.1101 0.9553
3.6153 10.8521 -0.1103 0.9553
3.5583 10.9056 -0.1106 0.9551
3.5175 11.0108 -0.1114 0.9548
3.4760 11.1175 -0.1123 0.9545
3.3474 11.4480 -0.1150 0.9534
3.3032 11.5617 -0.1159 0.9530
3.9189 14.0448 -0.1406 0.9433
3.8264 14.0485 -0.1404 0.9434
3.6423 14.0559 -0.1400 0.9436
3.3680 14.0670 -0.1395 0.9438
3.0053 14.0816 -0.1388 0.9440
2.8251 14.0889 -0.1385 0.9441
2.5561 14.0997 -0.1382 0.9443
2.4668 14.1033 -0.1380 0.9443
2.2886 14.1105 -0.1378 0.9444
2.1997 14.1141 -0.1377 0.9445
2.0222 14.1213 -0.1375 0.9445
1.9337 14.1248 -0.1374 0.9446
1.8452 14.1284 -0.1374 0.9446
1.6686 14.1355 -0.1372 0.9447
1.5804 14.1391 -0.1372 0.9447
1.4923 14.1426 -0.1371 0.9447
1.3164 14.1497 -0.1370 0.9447
1.0528 14.1604 -0.1369 0.9448
0.9650 14.1639 -0.1369 0.9448
0.8773 14.1675 -0.1369 0.9448
0.7019 14.1745 -0.1368 0.9448
0.2633 14.1922 -0.1369 0.9448
-0.1425 11.5211 -0.1111 0.9550
-0.2111 11.3776 -0.1097 0.9555
-0.2781 11.2376 -0.1084 0.9560
-0.4754 10.9760 -0.1059 0.9570
-0.5422 10.9512 -0.1057 0.9571
-0.6750 10.9018 -0.1053 0.9572
-0.7411 10.8773 -0.1051 0.9573
-1.0029 10.7799 -0.1044 0.9576
-1.1324 10.7316 -0.1040 0.9578
-1.2028 10.7601 -0.1044 0.9576
-1.2738 10.7914 -0.1048 0.9575
-1.3455 10.8229 -0.1051 0.9573
-1.5636 10.9187 -0.1063 0.9568
-1.7868 11.0168 -0.1076 0.9563
-1.8624 11.0499 -0.1080 0.9562
-1.9820 11.3316 -0.1109 0.9550
-2.1161 11.6724 -0.1144 0.9537
-2.6860 14.3112 -0.1404 0.9434
-2.7785 14.3149 -0.1406 0.9433
-2.8712 14.3186 -0.1408 0.9433
-3.0575 14.3261 -0.1412 0.9431
-3.1511 14.3299 -0.1415 0.9430
-3.2449 14.3337 -0.1417 0.9429
-3.4337 14.3413 -0.1422 0.9427
-3.8152 14.3567 -0.1432 0.9423
-4.0081 14.3645 -0.1438 0.9421
-3.4565 11.8209 -0.1187 0.9519
-3.6938 11.3207 -0.1148 0.9535
-3.7844 11.1295 -0.1133 0.9541
-3.8475 11.0895 -0.1132 0.9541
-3.9154 11.0639 -0.1131 0.9541
-3.9833 11.0382 -0.1131 0.9541
-4.0512 11.0125 -0.1131 0.9541
-4.2548 10.9355 -0.1131 0.9541
-4.4584 10.8584 -0.1132 0.9541
-4.6984 10.8648 -0.1141 0.9538
-4.7973 10.9077 -0.1149 0.9535
-4.8975 10.9513 -0.1157 0.9531
-4.9990 10.9954 -0.1165 0.9528
-5.2063 11.0854 -0.1181 0.9522
-7.4840 15.4358 -0.1654 0.9337
-7.7261 15.4455 -0.1665 0.9332
-7.9715 15.4554 -0.1677 0.9328
-8.8589 15.4912 -0.1721 0.9311
-8.9896 15.4965 -0.1727 0.9308
-9.1123 15.4866 -0.1732 0.9306
-9.1442 14.6965 -0.1669 0.9331
-9.1666 14.1407 -0.1625 0.9348
-9.6496 13.9232 -0.1633 0.9345
-11.1583 15.8892 -0.1872 0.9253
-11.1662 15.6932 -0.1857 0.9258
-11.3378 15.1278 -0.1823 0.9272
-11.4892 15.1338 -0.1832 0.9268
-11.7967 15.1463 -0.1851 0.9261
-11.9529 15.1525 -0.1861 0.9257
-8.1177 10.1608 -0.1254 0.9493
-12.8807 15.1381 -0.1916 0.9236
-13.2188 15.1518 -0.1939 0.9227
-13.7412 15.1728 -0.1974 0.9214
-13.9689 15.2338 -0.1993 0.9206
-14.3336 15.2486 -0.2018 0.9197
-14.5194 15.2561 -0.2030 0.9192
-14.7076 15.2637 -0.2044 0.9187
-14.8982 15.2713 -0.2057 0.9182
-15.0913 15.2791 -0.2071 0.9177
-15.6841 15.3009 -0.2113 0.9161
-15.7817 15.2067 -0.2113 0.9161
-15.9870 15.2150 -0.2128 0.9155
-16.1952 15.2234 -0.2143 0.9149
-16.6207 15.2405 -0.2174 0.9137
-16.8381 15.2493 -0.2190 0.9131
-17.2828 15.2672 -0.2223 0.9119
-17.5103 15.2764 -0.2240 0.9112
-17.7412 15.2857 -0.2258 0.9106
-8.7125 6.9606 -0.1075 0.9564
-8.8506 6.8058 -0.1076 0.9563
-8.9592 6.8015 -0.1084 0.9560
-50.4988 31.8551 -0.5756 0.7875
-50.5159 31.4308 -0.5736 0.7882
-50.5497 30.5912 -0.5697 0.7895
-50.5665 30.1757 -0.5677 0.7901
-50.5831 29.7630 -0.5658 0.7908
-50.6160 28.9455 -0.5622 0.7920
-50.6485 28.1387 -0.5586 0.7931
-50.6807 27.3417 -0.5552 0.7943
-50.6966 26.9469 -0.5535 0.7948
-50.7124 26.5544 -0.5519 0.7953
-50.7282 26.1642 -0.5503 0.7959
-50.7438 25.7762 -0.5487 0.7964
-50.8565 25.4390 -0.5482 0.7965
-51.8256 25.1273 -0.5553 0.7942
-52.1696 24.8968 -0.5573 0.7936
-52.5162 24.6646 -0.5594 0.7929
-52.8654 24.4307 -0.5615 0.7922
-53.2790 23.8267 -0.5627 0.7918
-53.6602 23.6000 -0.5652 0.7910
-55.8740 24.1624 -0.5869 0.7839
-58.1588 24.3011 -0.6077 0.7771
-59.3844 23.5289 -0.6158 0.7745
-59.4775 22.2983 -0.6124 0.7756
-58.7058 21.1846 -0.6017 0.7791
-58.5761 20.3225 -0.5978 0.7803
-41.8513 13.9425 -0.4253 0.8382
-37.1571 11.6174 -0.3753 0.8558
-37.1462 11.1116 -0.3738 0.8563
-37.1383 10.8594 -0.3730 0.8566
-37.1284 10.3598 -0.3716 0.8571
-37.1230 10.1113 -0.3709 0.8574
-37.1239 9.1315 -0.3686 0.8582
-67.9626 14.9445 -0.6709 0.7570
-59.7296 7.4256 -0.5803 0.7860
-65.3472 -21.3220 -1.1731 0.7596
-58.3047 -19.4238 -1.0489 0.7820
-50.7216 -18.6587 -0.9224 0.8056
-49.8810 -19.7635 -0.9157 0.8068
-49.3826 -20.2762 -0.9111 0.8077
-49.5285 -22.1494 -0.9260 0.8049
-49.5137 -22.5113 -0.9283 0.8045
-49.4873 -22.8696 -0.9304 0.8040
-47.5664 -23.0622 -0.9022 0.8094
-44.9208 -23.1689 -0.8626 0.8169
-44.6824 -23.3970 -0.8608 0.8173
-44.7117 -24.1215 -0.8671 0.8161
-44.7469 -24.8599 -0.8736 0.8148
-44.7913 -25.9835 -0.8838 0.8129
-44.8021 -26.3615 -0.8872 0.8122
-44.8332 -27.1318 -0.8944 0.8109
-44.8668 -27.9160 -0.9019 0.8094
-44.8826 -28.3124 -0.9057 0.8087
-45.0086 -30.7835 -0.9306 0.8040
-45.0021 -31.1893 -0.9345 0.8033
-45.0141 -31.6115 -0.9388 0.8025
-45.0490 -32.4753 -0.9478 0.8008
-49.2723 -36.9280 -1.0509 0.7817
-49.2923 -37.4212 -1.0562 0.7807
-44.1920 -34.4191 -0.9560 0.7992
-49.3921 -39.4603 -1.0790 0.7765
-49.4131 -39.9801 -1.0848 0.7755
-51.8687 -46.9750 -1.1943 0.7558
-50.5487 -46.9308 -1.1772 0.7589
-50.0353 -47.0330 -1.1720 0.7598
-49.1122 -47.9121 -1.1710 0.7600
-48.8051 -48.2052 -1.1708 0.7600
-20.9526 -21.7449 -0.5154 0.8862
-20.6979 -21.7481 -0.5124 0.8868
-19.3052 -20.7937 -0.4843 0.8927
-19.3161 -21.0653 -0.4878 0.8920
-19.2841 -21.5597 -0.4937 0.8907
-19.2282 -21.7667 -0.4957 0.8903
-18.9925 -21.7697 -0.4931 0.8909
-18.7592 -21.7727 -0.4905 0.8914
-18.2620 -21.7335 -0.4845 0.8926
-17.6235 -21.7816 -0.4782 0.8940
-17.1787 -21.7772 -0.4735 0.8950
-16.7619 -21.7980 -0.4693 0.8958
-15.9582 -21.0205 -0.4504 0.8998
-16.0169 -21.3709 -0.4558 0.8987
-15.7533 -21.2924 -0.4520 0.8995
-15.5976 -21.3570 -0.4514 0.8996
-15.5210 -21.8135 -0.4569 0.8984
-15.3205 -21.8161 -0.4550 0.8988
-15.1217 -21.8186 -0.4531 0.8992
-14.9245 -21.8211 -0.4512 0.8996
-14.7289 -21.8236 -0.4494 0.9000
-14.5349 -21.8260 -0.4476 0.9004
-14.3425 -21.8285 -0.4458 0.9008
-14.1516 -21.8309 -0.4440 0.9012
-13.9621 -21.8333 -0.4423 0.9015
-13.7741 -21.8357 -0.4406 0.9019
-13.0361 -21.8450 -0.4342 0.9032
-12.6750 -21.8496 -0.4311 0.9039
-12.4963 -21.8519 -0.4296 0.9042
-12.3189 -21.8541 -0.4282 0.9045
-12.1427 -21.8564 -0.4267 0.9048
-11.9676 -21.8586 -0.4253 0.9051
-11.7937 -21.8608 -0.4239 0.9054
-11.6209 -21.8630 -0.4226 0.9057
-11.4492 -21.8652 -0.4212 0.9060
-11.2786 -21.8674 -0.4199 0.9063
-11.1090 -21.8695 -0.4186 0.9065
-10.9404 -21.8716 -0.4174 0.9068
-10.6063 -21.8758 -0.4149 0.9073
-10.4408 -21.8780 -0.4137 0.9076
-10.2761 -21.8801 -0.4126 0.9078
-10.1125 -21.8824 -0.4114 0.9081
-9.9497 -21.8844 -0.4103 0.9083
-9.3070 -21.8926 -0.4060 0.9092
-9.1484 -21.8946 -0.4050 0.9094
-8.6773 -21.9006 -0.4020 0.9101
-8.3669 -21.9045 -0.4002 0.9105
-8.2128 -21.9065 -0.3993 0.9107
-8.0594 -21.9084 -0.3984 0.9108
-7.9066 -21.9104 -0.3975 0.9110
-7.0031 -21.9218 -0.3928 0.9120
-6.8546 -21.9237 -0.3920 0.9122
-6.7066 -21.9256 -0.3913 0.9124
-6.2658 -21.9312 -0.3893 0.9128
-6.1199 -21.9330 -0.3886 0.9129
-5.9745 -21.9349 -0.3880 0.9131
-5.8295 -21.9367 -0.3874 0.9132
-5.3972 -21.9422 -0.3857 0.9136
-5.2539 -21.9440 -0.3851 0.9137
-5.1111 -21.9458 -0.3846 0.9138
-4.1212 -21.9580 -0.3813 0.9145
-3.9811 -21.9598 -0.3809 0.9146
-3.7018 -21.9634 -0.3801 0.9147
-3.2848 -21.9686 -0.3791 0.9150
-3.1463 -21.9704 -0.3788 0.9150
-2.5943 -21.9774 -0.3777 0.9153
-2.3195 -21.9809 -0.3772 0.9154
-2.0452 -21.9844 -0.3768 0.9155
-1.9083 -21.9861 -0.3766 0.9155
-1.6349 -21.9896 -0.3763 0.9156
-1.3618 -21.9930 -0.3761 0.9156
-1.2255 -21.9947 -0.3760 0.9156
-0.6805 -22.0017 -0.3757 0.9157
-0.5444 -22.0034 -0.3756 0.9157
-0.4083 -22.0051 -0.3756 0.9157
-0.2722 -22.0069 -0.3756 0.9157
0.0000 -22.0103 -0.3757 0.9157
0.1361 -22.0120 -0.3757 0.9157
0.2723 -22.0138 -0.3757 0.9157
0.4085 -22.0155 -0.3758 0.9157
0.5448 -22.0172 -0.3759 0.9157
0.6811 -22.0189 -0.3760 0.9156
0.8175 -22.0210 -0.3761 0.9156
0.9539 -22.0228 -0.3762 0.9156
1.5009 -22.0297 -0.3769 0.9155
1.6380 -22.0314 -0.3771 0.9154
1.9125 -22.0349 -0.3775 0.9153
2.1878 -22.0384 -0.3780 0.9152
2.3257 -22.0401 -0.3782 0.9152
2.4638 -22.0419 -0.3785 0.9151
2.6021 -22.0437 -0.3788 0.9150
2.7407 -22.0454 -0.3791 0.9150
2.8795 -22.0472 -0.3795 0.9149
3.2973 -22.0525 -0.3806 0.9147
3.2777 -21.0312 -0.3633 0.9184
3.4055 -20.9970 -0.3630 0.9184
3.9995 -22.0614 -0.3827 0.9142
4.2827 -22.0650 -0.3836 0.9140
4.4248 -22.0668 -0.3841 0.9139
4.5674 -22.0686 -0.3846 0.9138
4.7103 -22.0704 -0.3852 0.9137
4.8536 -22.0722 -0.3857 0.9136
5.2860 -22.0777 -0.3875 0.9132
5.5765 -22.0814 -0.3887 0.9129
6.0159 -22.0870 -0.3907 0.9125
6.1634 -22.0889 -0.3914 0.9123
6.3114 -22.0908 -0.3921 0.9122
6.6092 -22.0946 -0.3936 0.9119
7.3639 -22.1042 -0.3976 0.9110
7.9793 -22.1120 -0.4012 0.9102
8.2913 -22.1159 -0.4031 0.9098
8.4485 -22.1180 -0.4041 0.9096
8.6063 -22.1199 -0.4051 0.9094
8.9245 -22.1240 -0.4072 0.9090
9.5709 -22.1322 -0.4115 0.9080
9.8995 -22.1363 -0.4139 0.9075
10.5682 -22.1448 -0.4188 0.9065
10.7378 -22.1470 -0.4201 0.9062
11.4273 -22.1558 -0.4255 0.9051
11.9562 -22.1620 -0.4298 0.9042
12.3150 -22.1665 -0.4328 0.9035
12.4963 -22.1688 -0.4343 0.9032
12.8629 -22.1735 -0.4375 0.9025
13.0482 -22.1758 -0.4391 0.9022
13.2349 -22.1782 -0.4408 0.9018
13.8037 -22.1854 -0.4459 0.9007
13.9963 -22.1879 -0.4477 0.9004
14.1904 -22.1903 -0.4495 0.9000
14.3862 -22.1928 -0.4514 0.8996
14.5836 -22.1953 -0.4533 0.8992
15.3898 -22.2056 -0.4611 0.8976
15.5959 -22.2082 -0.4632 0.8971
16.0134 -22.2135 -0.4674 0.8962
16.6544 -22.2216 -0.4739 0.8949
17.0919 -22.2271 -0.4785 0.8939
17.3141 -22.2302 -0.4809 0.8934
17.7647 -22.2359 -0.4857 0.8924
18.9327 -22.2507 -0.4986 0.8897
19.1738 -22.2538 -0.5013 0.8891
19.4175 -22.2569 -0.5041 0.8886
20.1654 -22.2664 -0.5127 0.8868
20.4204 -22.2696 -0.5157 0.8861
20.9395 -22.2762 -0.5218 0.8849
21.2037 -22.2796 -0.5249 0.8842
22.0159 -22.2899 -0.5347 0.8822
22.2934 -22.2934 -0.5381 0.8815
22.8593 -22.3007 -0.5450 0.8801
23.1477 -22.3044 -0.5486 0.8793
23.4400 -22.3081 -0.5523 0.8786
23.7361 -22.3118 -0.5560 0.8778
24.3407 -22.3195 -0.5636 0.8762
24.6493 -22.3234 -0.5676 0.8754
24.5867 -21.9916 -0.5630 0.8764
24.7918 -21.6290 -0.5615 0.8767
25.9680 -21.0107 -0.5701 0.8749
26.5701 -20.6942 -0.5748 0.8739
26.8782 -20.4052 -0.5760 0.8737
26.0974 -19.0597 -0.5515 0.8787
26.1479 -18.8498 -0.5501 0.8790
26.5450 -18.6414 -0.5536 0.8783
26.7454 -18.5363 -0.5554 0.8779
27.1501 -18.3238 -0.5590 0.8772
27.7674 -17.9999 -0.5648 0.8760
28.3978 -17.6691 -0.5708 0.8748
28.6110 -17.5572 -0.5729 0.8743
31.5029 -18.2749 -0.6216 0.8644
31.5886 -18.0645 -0.6211 0.8645
32.4606 -17.7723 -0.6316 0.8624
32.7049 -17.6440 -0.6342 0.8619
32.9513 -17.5147 -0.6369 0.8613
33.1998 -17.3843 -0.6396 0.8608
33.5430 -17.0388 -0.6421 0.8603
33.5397 -16.7770 -0.6400 0.8607
33.4133 -16.4562 -0.6357 0.8616
32.8627 -15.6830 -0.6215 0.8644
32.7530 -15.3827 -0.6176 0.8652
33.0028 -15.2516 -0.6205 0.8646
33.2550 -15.1193 -0.6235 0.8640
33.6393 -15.0437 -0.6289 0.8629
34.1580 -14.7715 -0.6351 0.8617
34.9559 -14.3527 -0.6449 0.8597
35.0923 -14.1558 -0.6458 0.8595
36.6291 -13.4746 -0.6661 0.8554
36.9188 -13.3226 -0.6699 0.8547
37.1097 -13.1326 -0.6719 0.8543
37.3644 -12.9633 -0.6750 0.8537
37.6631 -12.8066 -0.6789 0.8529
49.1663 -14.3765 -0.8743 0.8147
34.9189 -9.9765 -0.6198 0.8648
34.9282 -9.7459 -0.6189 0.8650
35.0338 -8.8475 -0.6167 0.8654
34.9743 -8.6028 -0.6147 0.8658
34.9639 -8.1429 -0.6127 0.8662
34.8002 -7.6523 -0.6081 0.8671
34.8092 -7.4289 -0.6075 0.8673
39.6776 -7.4469 -0.6890 0.8509
41.5423 -7.5313 -0.7206 0.8446
53.5031 -7.9999 -0.9233 0.8054
64.8507 -8.4698 -1.1162 0.7698
39.0126 -3.6294 -0.6687 0.8549
49.7473 -4.0081 -0.8518 0.8190
49.9377 -3.4024 -0.8543 0.8185
49.9502 -3.0930 -0.8541 0.8186
49.9627 -2.7837 -0.8540 0.8186
49.9751 -2.4745 -0.8540 0.8186
49.9876 -2.1653 -0.8539 0.8186
50.0125 -1.5470 -0.8540 0.8186
50.0500 -0.6191 -0.8543 0.8185
50.0624 -0.3096 -0.8544 0.8185
50.0749 -0.0000 -0.8546 0.8185
50.0874 0.3097 -0.8549 0.8184
49.9339 0.6176 -0.8523 0.8189
50.1751 2.4844 -0.8574 0.8179
50.1877 2.7962 -0.8579 0.8178
50.2003 3.1085 -0.8584 0.8177
50.2129 3.4211 -0.8590 0.8176
