ply
format ascii 1.0
element vertex 1596
property float32 x
property float32 y
property float32 z
property float32 I
end_header
-8.4309 -1.9635 -2.3911 0.9647
-8.4171 -2.0153 -2.3907 0.9647
-8.4031 -2.0669 -2.3903 0.9647
-8.3887 -2.1185 -2.3899 0.9647
-8.3740 -2.1700 -2.3895 0.9647
-8.3590 -2.2214 -2.3891 0.9647
-8.3122 -2.3748 -2.3879 0.9648
-8.2278 -2.6285 -2.3859 0.9648
-8.1919 -2.7291 -2.3851 0.9648
-8.1548 -2.8293 -2.3843 0.9648
-8.1358 -2.8792 -2.3839 0.9648
-8.0770 -3.0281 -2.3827 0.9648
-8.0567 -3.0775 -2.3823 0.9648
-8.0154 -3.1759 -2.3815 0.9649
-7.9943 -3.2248 -2.3811 0.9649
-7.9729 -3.2737 -2.3807 0.9649
-7.9512 -3.3224 -2.3803 0.9649
-7.9292 -3.3709 -2.3799 0.9649
-7.9070 -3.4193 -2.3795 0.9649
-7.8844 -3.4676 -2.3792 0.9649
-7.8615 -3.5157 -2.3788 0.9649
-7.7912 -3.6592 -2.3776 0.9649
-7.7428 -3.7541 -2.3768 0.9649
-7.6933 -3.8483 -2.3761 0.9649
-7.6427 -3.9419 -2.3753 0.9649
-7.6169 -3.9885 -2.3750 0.9649
-7.5647 -4.0811 -2.3742 0.9650
-7.5112 -4.1730 -2.3735 0.9650
-7.4567 -4.2643 -2.3727 0.9650
-7.4291 -4.3096 -2.3724 0.9650
-7.4012 -4.3548 -2.3720 0.9650
-7.2867 -4.5338 -2.3705 0.9650
-7.2279 -4.6221 -2.3698 0.9650
-7.1980 -4.6661 -2.3695 0.9650
-7.1680 -4.7098 -2.3691 0.9650
-7.1376 -4.7533 -2.3687 0.9650
-7.1070 -4.7966 -2.3684 0.9650
-6.9821 -4.9680 -2.3670 0.9651
-6.9502 -5.0103 -2.3666 0.9651
-6.8857 -5.0944 -2.3659 0.9651
-6.8530 -5.1362 -2.3656 0.9651
-6.7871 -5.2190 -2.3649 0.9651
-6.7537 -5.2602 -2.3646 0.9651
-6.7200 -5.3011 -2.3642 0.9651
-6.6862 -5.3418 -2.3639 0.9651
-6.6521 -5.3822 -2.3636 0.9651
-6.5831 -5.4626 -2.3629 0.9651
-6.5483 -5.5024 -2.3626 0.9651
-6.5133 -5.5420 -2.3622 0.9651
-6.4779 -5.5814 -2.3619 0.9651
-6.4424 -5.6206 -2.3616 0.9651
-6.3707 -5.6983 -2.3609 0.9652
-6.2980 -5.7751 -2.3603 0.9652
-6.2613 -5.8131 -2.3600 0.9652
-6.2244 -5.8509 -2.3597 0.9652
-6.1499 -5.9259 -2.3590 0.9652
-6.0746 -5.9999 -2.3584 0.9652
-6.0365 -6.0366 -2.3581 0.9652
-5.9983 -6.0730 -2.3578 0.9652
-5.9599 -6.1092 -2.3575 0.9652
-5.8040 -6.2515 -2.3563 0.9652
-5.7247 -6.3213 -2.3557 0.9652
-5.6849 -6.3558 -2.3554 0.9652
-5.5233 -6.4913 -2.3542 0.9652
-5.4412 -6.5575 -2.3537 0.9653
-5.3999 -6.5902 -2.3534 0.9653
-5.2749 -6.6869 -2.3526 0.9653
-5.1481 -6.7813 -2.3518 0.9653
-5.1055 -6.8122 -2.3515 0.9653
-5.0627 -6.8429 -2.3512 0.9653
-5.0197 -6.8733 -2.3510 0.9653
-4.9766 -6.9034 -2.3507 0.9653
-4.8461 -6.9923 -2.3499 0.9653
-4.8022 -7.0213 -2.3497 0.9653
-4.7140 -7.0787 -2.3492 0.9653
-4.6697 -7.1070 -2.3489 0.9653
-4.6251 -7.1350 -2.3487 0.9653
-4.5804 -7.1627 -2.3484 0.9653
-4.5356 -7.1901 -2.3482 0.9653
-4.4906 -7.2173 -2.3479 0.9653
-4.3546 -7.2971 -2.3472 0.9654
-4.3089 -7.3232 -2.3470 0.9654
-4.1249 -7.4247 -2.3461 0.9654
-4.0785 -7.4494 -2.3459 0.9654
-4.0320 -7.4737 -2.3457 0.9654
-3.9853 -7.4978 -2.3454 0.9654
-3.9385 -7.5216 -2.3452 0.9654
-3.8445 -7.5684 -2.3448 0.9654
-3.7973 -7.5913 -2.3446 0.9654
-3.6548 -7.6585 -2.3440 0.9654
-3.4631 -7.7439 -2.3432 0.9654
-3.3665 -7.7849 -2.3428 0.9654
-3.3180 -7.8049 -2.3426 0.9654
-3.2695 -7.8247 -2.3424 0.9654
-3.2208 -7.8442 -2.3422 0.9654
-3.1230 -7.8822 -2.3419 0.9654
-3.0740 -7.9007 -2.3417 0.9654
-2.9756 -7.9370 -2.3414 0.9654
-2.8272 -7.9891 -2.3409 0.9654
-2.7776 -8.0059 -2.3407 0.9654
-2.7278 -8.0223 -2.3405 0.9654
-2.6780 -8.0385 -2.3404 0.9655
-2.6280 -8.0544 -2.3402 0.9655
-2.5780 -8.0700 -2.3401 0.9655
-2.5279 -8.0852 -2.3399 0.9655
-2.4274 -8.1149 -2.3396 0.9655
-2.2760 -8.1570 -2.3392 0.9655
-2.1239 -8.1964 -2.3388 0.9655
-1.9712 -8.2330 -2.3384 0.9655
-1.9201 -8.2446 -2.3383 0.9655
-1.8690 -8.2559 -2.3382 0.9655
-1.7153 -8.2879 -2.3378 0.9655
-1.6639 -8.2980 -2.3377 0.9655
-1.4579 -8.3351 -2.3373 0.9655
-1.4062 -8.3435 -2.3372 0.9655
-1.3028 -8.3596 -2.3370 0.9655
-1.2511 -8.3671 -2.3369 0.9655
-1.1992 -8.3744 -2.3368 0.9655
-1.0955 -8.3880 -2.3366 0.9655
-1.0435 -8.3943 -2.3365 0.9655
-0.9916 -8.4003 -2.3364 0.9655
-0.9396 -8.4060 -2.3364 0.9655
-0.8876 -8.4113 -2.3363 0.9655
-0.7834 -8.4211 -2.3361 0.9655
-0.6791 -8.4297 -2.3360 0.9655
-0.5748 -8.4370 -2.3359 0.9655
-0.5226 -8.4402 -2.3358 0.9655
-0.4704 -8.4430 -2.3358 0.9655
-0.4182 -8.4456 -2.3357 0.9655
-0.3659 -8.4478 -2.3356 0.9655
-0.1568 -8.4536 -2.3355 0.9655
-0.1045 -8.4543 -2.3354 0.9655
0.0523 -8.4543 -2.3353 0.9655
0.1046 -8.4537 -2.3353 0.9655
0.2091 -8.4516 -2.3352 0.9655
0.3136 -8.4482 -2.3352 0.9655
0.5225 -8.4376 -2.3351 0.9655
0.7831 -8.4174 -2.3351 0.9655
0.8872 -8.4071 -2.3351 0.9655
1.0430 -8.3893 -2.3351 0.9655
1.0949 -8.3827 -2.3351 0.9655
1.1467 -8.3758 -2.3352 0.9655
1.1985 -8.3687 -2.3352 0.9655
1.3019 -8.3534 -2.3352 0.9655
1.3536 -8.3453 -2.3353 0.9655
1.4567 -8.3281 -2.3353 0.9655
1.5082 -8.3191 -2.3354 0.9655
1.5596 -8.3097 -2.3354 0.9655
1.6110 -8.3000 -2.3354 0.9655
1.6623 -8.2900 -2.3355 0.9655
1.7648 -8.2692 -2.3356 0.9655
1.9181 -8.2356 -2.3357 0.9655
1.9690 -8.2238 -2.3358 0.9655
2.0706 -8.1992 -2.3359 0.9655
2.1214 -8.1864 -2.3360 0.9655
2.4742 -8.0887 -2.3365 0.9655
2.5243 -8.0736 -2.3365 0.9655
2.6242 -8.0423 -2.3367 0.9655
2.6739 -8.0262 -2.3368 0.9655
2.7732 -7.9932 -2.3370 0.9655
2.8721 -7.9589 -2.3372 0.9655
2.9214 -7.9414 -2.3373 0.9655
2.9706 -7.9235 -2.3374 0.9655
3.0686 -7.8869 -2.3376 0.9655
3.1175 -7.8681 -2.3377 0.9655
3.3601 -7.7700 -2.3383 0.9655
3.4563 -7.7286 -2.3386 0.9655
3.5043 -7.7076 -2.3387 0.9655
3.6473 -7.6425 -2.3391 0.9655
3.8361 -7.5518 -2.3397 0.9655
3.8830 -7.5284 -2.3398 0.9655
3.9297 -7.5047 -2.3400 0.9655
4.0691 -7.4321 -2.3404 0.9654
4.1153 -7.4072 -2.3406 0.9654
4.2071 -7.3568 -2.3409 0.9654
4.2528 -7.3311 -2.3411 0.9654
4.3438 -7.2790 -2.3414 0.9654
4.4791 -7.1988 -2.3419 0.9654
4.7891 -7.0021 -2.3432 0.9654
5.0482 -6.8231 -2.3444 0.9654
5.3421 -6.6025 -2.3459 0.9654
5.3834 -6.5700 -2.3462 0.9654
5.4244 -6.5372 -2.3464 0.9654
5.4653 -6.5041 -2.3466 0.9654
5.5866 -6.4035 -2.3473 0.9653
5.6665 -6.3352 -2.3478 0.9653
5.7062 -6.3007 -2.3480 0.9653
5.7456 -6.2659 -2.3483 0.9653
5.7849 -6.2309 -2.3485 0.9653
5.8627 -6.1602 -2.3490 0.9653
5.9779 -6.0523 -2.3497 0.9653
6.0159 -6.0159 -2.3500 0.9653
6.0536 -5.9792 -2.3503 0.9653
6.1285 -5.9052 -2.3508 0.9653
6.1655 -5.8678 -2.3510 0.9653
6.2024 -5.8302 -2.3513 0.9653
6.2390 -5.7924 -2.3516 0.9653
6.2755 -5.7544 -2.3518 0.9653
6.3117 -5.7161 -2.3521 0.9653
6.3834 -5.6389 -2.3526 0.9653
6.4188 -5.6000 -2.3529 0.9653
6.6269 -5.3618 -2.3546 0.9652
6.6608 -5.3214 -2.3549 0.9652
6.6944 -5.2808 -2.3552 0.9652
6.7278 -5.2399 -2.3555 0.9652
6.7608 -5.1989 -2.3558 0.9652
6.8263 -5.1161 -2.3564 0.9652
6.8587 -5.0745 -2.3567 0.9652
7.0783 -4.7772 -2.3588 0.9652
7.1087 -4.7340 -2.3591 0.9652
7.2853 -4.4706 -2.3610 0.9652
7.3138 -4.4261 -2.3614 0.9651
7.3421 -4.3814 -2.3617 0.9651
7.5321 -4.0635 -2.3640 0.9651
7.5840 -3.9712 -2.3647 0.9651
7.6095 -3.9248 -2.3650 0.9651
7.7088 -3.7375 -2.3664 0.9651
7.7329 -3.6903 -2.3667 0.9651
7.8264 -3.5000 -2.3681 0.9650
7.8490 -3.4521 -2.3685 0.9650
7.8935 -3.3557 -2.3692 0.9650
7.9368 -3.2588 -2.3699 0.9650
7.9789 -3.1614 -2.3706 0.9650
7.9996 -3.1125 -2.3710 0.9650
8.0399 -3.0142 -2.3717 0.9650
8.0791 -2.9154 -2.3725 0.9650
8.1171 -2.8161 -2.3732 0.9650
8.2237 -2.5155 -2.3754 0.9649
8.2568 -2.4143 -2.3762 0.9649
8.2887 -2.3128 -2.3770 0.9649
8.3042 -2.2619 -2.3773 0.9649
8.3342 -2.1596 -2.3781 0.9649
8.3488 -2.1084 -2.3785 0.9649
8.3630 -2.0571 -2.3789 0.9649
8.4038 -1.9025 -2.3800 0.9649
8.4168 -1.8508 -2.3804 0.9649
8.4295 -1.7990 -2.3808 0.9649
8.4418 -1.7471 -2.3812 0.9649
8.4538 -1.6952 -2.3816 0.9649
8.4656 -1.6431 -2.3820 0.9648
8.4770 -1.5910 -2.3824 0.9648
8.4880 -1.5388 -2.3828 0.9648
8.5093 -1.4342 -2.3836 0.9648
8.5194 -1.3818 -2.3840 0.9648
8.5292 -1.3293 -2.3844 0.9648
8.5478 -1.2241 -2.3852 0.9648
8.5567 -1.1714 -2.3856 0.9648
8.5652 -1.1187 -2.3860 0.9648
8.5812 -1.0130 -2.3868 0.9648
8.5888 -0.9601 -2.3872 0.9648
8.6029 -0.8540 -2.3880 0.9648
8.6095 -0.8009 -2.3884 0.9648
8.6158 -0.7478 -2.3888 0.9647
8.6463 -0.4281 -2.3912 0.9647
8.6503 -0.3747 -2.3916 0.9647
8.6540 -0.3212 -2.3920 0.9647
8.6629 -0.1607 -2.3933 0.9647
8.6672 -0.0536 -2.3941 0.9647
8.6712 0.1072 -2.3953 0.9647
8.6718 0.3219 -2.3970 0.9646
8.6712 0.3756 -2.3974 0.9646
8.6702 0.4293 -2.3978 0.9646
8.6652 0.5904 -2.3991 0.9646
8.6603 0.6977 -2.3999 0.9646
8.6573 0.7514 -2.4003 0.9646
8.6503 0.8587 -2.4011 0.9646
8.6463 0.9124 -2.4016 0.9646
8.6374 1.0196 -2.4024 0.9646
8.6324 1.0732 -2.4028 0.9645
8.6092 1.2872 -2.4045 0.9645
8.5955 1.3942 -2.4053 0.9645
8.5806 1.5009 -2.4061 0.9645
8.5644 1.6074 -2.4070 0.9645
8.5468 1.7138 -2.4078 0.9645
8.5375 1.7669 -2.4082 0.9645
8.5279 1.8200 -2.4086 0.9645
8.5179 1.8730 -2.4090 0.9645
8.5077 1.9260 -2.4095 0.9644
8.4861 2.0318 -2.4103 0.9644
8.4749 2.0846 -2.4107 0.9644
8.4632 2.1373 -2.4111 0.9644
8.4265 2.2951 -2.4124 0.9644
8.4004 2.4000 -2.4132 0.9644
8.3867 2.4523 -2.4136 0.9644
8.3586 2.5567 -2.4144 0.9644
8.3292 2.6608 -2.4152 0.9644
8.3140 2.7128 -2.4156 0.9644
8.2826 2.8163 -2.4165 0.9643
8.2664 2.8680 -2.4169 0.9643
8.2331 2.9710 -2.4177 0.9643
8.1626 3.1759 -2.4193 0.9643
8.1063 3.3284 -2.4205 0.9643
8.0869 3.3790 -2.4209 0.9643
8.0672 3.4296 -2.4213 0.9643
8.0472 3.4800 -2.4217 0.9643
8.0269 3.5302 -2.4221 0.9643
8.0062 3.5804 -2.4225 0.9643
7.9639 3.6804 -2.4233 0.9642
7.8528 3.9280 -2.4253 0.9642
7.7823 4.0750 -2.4265 0.9642
7.7582 4.1237 -2.4269 0.9642
7.6588 4.3171 -2.4285 0.9642
7.6331 4.3651 -2.4288 0.9642
7.5544 4.5081 -2.4300 0.9642
7.5276 4.5555 -2.4304 0.9641
7.4453 4.6965 -2.4315 0.9641
7.3314 4.8823 -2.4330 0.9641
7.3022 4.9283 -2.4334 0.9641
7.2727 4.9741 -2.4338 0.9641
7.2429 5.0198 -2.4341 0.9641
7.2128 5.0652 -2.4345 0.9641
7.1824 5.1105 -2.4349 0.9641
7.1517 5.1556 -2.4353 0.9641
7.1208 5.2005 -2.4356 0.9641
7.0896 5.2453 -2.4360 0.9641
6.9618 5.4222 -2.4374 0.9640
6.9292 5.4660 -2.4378 0.9640
6.8962 5.5095 -2.4382 0.9640
6.8631 5.5529 -2.4385 0.9640
6.7958 5.6390 -2.4392 0.9640
6.7618 5.6817 -2.4396 0.9640
6.7275 5.7243 -2.4399 0.9640
6.6929 5.7666 -2.4403 0.9640
6.6581 5.8087 -2.4406 0.9640
6.6230 5.8506 -2.4410 0.9640
6.5876 5.8923 -2.4413 0.9640
6.4799 6.0160 -2.4423 0.9640
6.2047 6.0531 -2.3944 0.9647
6.0791 6.0044 -2.3602 0.9652
5.8487 5.9215 -2.2990 0.9661
5.7887 5.9337 -2.2898 0.9662
5.7527 5.9702 -2.2901 0.9662
5.6432 6.0783 -2.2910 0.9662
5.4940 6.2192 -2.2922 0.9661
5.4180 6.2883 -2.2928 0.9661
5.3797 6.3225 -2.2931 0.9661
5.3412 6.3565 -2.2933 0.9661
5.3024 6.3902 -2.2936 0.9661
5.2634 6.4236 -2.2939 0.9661
5.2243 6.4569 -2.2942 0.9661
5.1849 6.4898 -2.2945 0.9661
5.1453 6.5226 -2.2948 0.9661
5.1055 6.5551 -2.2950 0.9661
5.0654 6.5873 -2.2953 0.9661
5.0252 6.6193 -2.2956 0.9661
4.9441 6.6825 -2.2961 0.9661
4.9032 6.7137 -2.2964 0.9661
4.7795 6.8059 -2.2972 0.9661
4.7379 6.8361 -2.2974 0.9661
4.6960 6.8661 -2.2977 0.9661
4.6540 6.8957 -2.2980 0.9661
4.6118 6.9252 -2.2982 0.9661
4.5268 6.9832 -2.2987 0.9661
4.4840 7.0118 -2.2990 0.9661
4.4410 7.0402 -2.2992 0.9660
4.3546 7.0961 -2.2997 0.9660
4.3110 7.1236 -2.3000 0.9660
4.2673 7.1509 -2.3002 0.9660
4.2235 7.1779 -2.3004 0.9660
4.1794 7.2046 -2.3007 0.9660
4.0908 7.2572 -2.3011 0.9660
4.0463 7.2831 -2.3014 0.9660
4.0015 7.3087 -2.3016 0.9660
3.9567 7.3341 -2.3018 0.9660
3.9116 7.3591 -2.3020 0.9660
3.8664 7.3838 -2.3023 0.9660
3.8211 7.4083 -2.3025 0.9660
3.7755 7.4325 -2.3027 0.9660
3.6840 7.4800 -2.3031 0.9660
3.6380 7.5033 -2.3033 0.9660
3.5918 7.5264 -2.3036 0.9660
3.5455 7.5491 -2.3038 0.9660
3.4057 7.6156 -2.3044 0.9660
3.3589 7.6372 -2.3046 0.9660
3.3119 7.6585 -2.3048 0.9660
3.2175 7.7002 -2.3051 0.9660
3.1700 7.7205 -2.3053 0.9660
3.0748 7.7604 -2.3057 0.9660
3.0270 7.7798 -2.3059 0.9660
2.9790 7.7990 -2.3061 0.9659
2.8345 7.8548 -2.3066 0.9659
2.7861 7.8728 -2.3068 0.9659
2.7375 7.8904 -2.3070 0.9659
2.6889 7.9078 -2.3071 0.9659
2.6401 7.9249 -2.3073 0.9659
2.5912 7.9416 -2.3075 0.9659
2.4440 7.9900 -2.3079 0.9659
2.2462 8.0502 -2.3086 0.9659
2.1966 8.0644 -2.3087 0.9659
2.1468 8.0784 -2.3089 0.9659
2.0969 8.0920 -2.3090 0.9659
1.8966 8.1433 -2.3096 0.9659
1.5429 8.2208 -2.3104 0.9659
1.4413 8.2401 -2.3106 0.9659
1.3904 8.2492 -2.3107 0.9659
1.2373 8.2747 -2.3111 0.9659
1.0837 8.2972 -2.3113 0.9659
1.0324 8.3041 -2.3114 0.9659
0.9810 8.3107 -2.3115 0.9659
0.8782 8.3227 -2.3117 0.9659
0.8268 8.3283 -2.3118 0.9659
0.6722 8.3430 -2.3120 0.9659
0.6206 8.3472 -2.3120 0.9659
0.5173 8.3548 -2.3122 0.9659
0.4657 8.3580 -2.3122 0.9659
0.4140 8.3610 -2.3123 0.9659
0.2588 8.3678 -2.3125 0.9659
0.2071 8.3694 -2.3125 0.9659
0.1553 8.3707 -2.3126 0.9659
0.1036 8.3716 -2.3126 0.9659
0.0000 8.3726 -2.3127 0.9659
-0.0517 8.3726 -2.3127 0.9659
-0.1036 8.3723 -2.3128 0.9659
-0.2071 8.3706 -2.3129 0.9658
-0.3106 8.3677 -2.3129 0.9658
-0.3624 8.3657 -2.3129 0.9658
-0.4658 8.3608 -2.3130 0.9658
-0.5175 8.3578 -2.3130 0.9658
-0.6209 8.3509 -2.3131 0.9658
-0.6725 8.3469 -2.3131 0.9658
-0.7241 8.3427 -2.3131 0.9658
-0.7757 8.3380 -2.3131 0.9658
-0.8272 8.3331 -2.3131 0.9658
-0.8788 8.3279 -2.3131 0.9658
-0.9817 8.3163 -2.3131 0.9658
-1.1358 8.2966 -2.3131 0.9658
-1.2895 8.2740 -2.3130 0.9658
-1.3406 8.2658 -2.3130 0.9658
-1.3917 8.2572 -2.3130 0.9658
-1.4427 8.2484 -2.3130 0.9658
-1.5954 8.2199 -2.3129 0.9658
-1.6969 8.1993 -2.3128 0.9659
-1.8486 8.1659 -2.3127 0.9659
-1.8990 8.1542 -2.3126 0.9659
-1.9494 8.1421 -2.3126 0.9659
-1.9997 8.1297 -2.3125 0.9659
-2.0499 8.1170 -2.3125 0.9659
-2.1999 8.0769 -2.3123 0.9659
-2.0083 7.1974 -2.0640 0.9695
-2.2995 8.0486 -2.3122 0.9659
-2.1638 7.2335 -2.0855 0.9692
-2.4482 8.0038 -2.3119 0.9659
-2.4976 7.9882 -2.3119 0.9659
-2.5469 7.9724 -2.3118 0.9659
-2.3398 6.8811 -2.0076 0.9703
-2.4168 6.6973 -1.9667 0.9709
-2.4307 6.6075 -1.9447 0.9712
-2.2591 6.0258 -1.7776 0.9736
-2.3012 6.0246 -1.7814 0.9736
-2.5210 6.3627 -1.8904 0.9720
-2.5525 6.3275 -1.8846 0.9721
-2.6128 6.3633 -1.9001 0.9719
-2.6936 6.3359 -1.9017 0.9718
-2.7564 6.3739 -1.9182 0.9716
-2.9871 6.2592 -1.9157 0.9716
-3.1148 6.3243 -1.9473 0.9712
-3.3857 6.4657 -2.0160 0.9702
-3.3049 6.2176 -1.9450 0.9712
-3.3598 6.2277 -1.9546 0.9711
-3.6409 6.5534 -2.0708 0.9694
-3.7851 6.5248 -2.0836 0.9692
-3.7557 6.2936 -2.0244 0.9700
-4.0789 6.5557 -2.1327 0.9685
-3.9984 6.3385 -2.0701 0.9694
-4.1293 6.3700 -2.0969 0.9690
-4.4183 6.6346 -2.2018 0.9675
-4.4369 6.5740 -2.1907 0.9676
-4.5112 6.5957 -2.2072 0.9674
-4.5243 6.4425 -2.1745 0.9679
-4.8767 6.7648 -2.3035 0.9660
-4.9179 6.7339 -2.3033 0.9660
-4.9999 6.6713 -2.3029 0.9660
-5.2013 6.5104 -2.3018 0.9660
-5.2410 6.4775 -2.3015 0.9660
-5.3196 6.4109 -2.3011 0.9660
-5.4743 6.2748 -2.3001 0.9660
-5.5124 6.2402 -2.2999 0.9660
-5.5503 6.2053 -2.2996 0.9660
-5.5880 6.1702 -2.2994 0.9660
-5.6627 6.0993 -2.2989 0.9661
-5.6997 6.0635 -2.2987 0.9661
-5.7729 5.9912 -2.2981 0.9661
-5.8453 5.9180 -2.2976 0.9661
-5.8811 5.8811 -2.2974 0.9661
-5.9167 5.8439 -2.2971 0.9661
-5.9871 5.7690 -2.2966 0.9661
-6.0566 5.6932 -2.2960 0.9661
-6.0910 5.6550 -2.2958 0.9661
-6.1251 5.6165 -2.2955 0.9661
-6.1590 5.5778 -2.2952 0.9661
-6.1926 5.5390 -2.2950 0.9661
-6.2260 5.4999 -2.2947 0.9661
-6.2592 5.4607 -2.2944 0.9661
-6.2920 5.4212 -2.2941 0.9661
-6.3247 5.3815 -2.2938 0.9661
-6.3570 5.3416 -2.2935 0.9661
-6.4210 5.2613 -2.2930 0.9661
-6.4901 5.1850 -2.2946 0.9661
-6.5742 5.1859 -2.3129 0.9658
-6.7803 5.2138 -2.3626 0.9651
-6.8867 5.2282 -2.3883 0.9648
-6.9954 5.2429 -2.4147 0.9644
-7.1066 5.2578 -2.4418 0.9640
-7.1811 5.1767 -2.4452 0.9639
-7.2120 5.1316 -2.4449 0.9639
-7.2426 5.0862 -2.4446 0.9639
-7.3030 4.9948 -2.4439 0.9639
-7.3327 4.9489 -2.4436 0.9640
-7.3914 4.8565 -2.4429 0.9640
-7.4202 4.8100 -2.4426 0.9640
-7.4771 4.7166 -2.4419 0.9640
-7.5050 4.6696 -2.4416 0.9640
-7.5327 4.6225 -2.4412 0.9640
-7.5871 4.5277 -2.4405 0.9640
-7.6139 4.4800 -2.4402 0.9640
-7.6404 4.4322 -2.4398 0.9640
-7.7179 4.2878 -2.4388 0.9640
-7.7681 4.1908 -2.4381 0.9640
-7.7927 4.1421 -2.4377 0.9640
-7.8647 3.9950 -2.4366 0.9641
-7.8881 3.9457 -2.4362 0.9641
-7.9112 3.8963 -2.4359 0.9641
-8.0217 3.6471 -2.4340 0.9641
-8.0429 3.5968 -2.4337 0.9641
-8.0638 3.5465 -2.4333 0.9641
-8.0843 3.4960 -2.4329 0.9641
-8.1440 3.3439 -2.4318 0.9641
-8.1822 3.2419 -2.4310 0.9641
-8.2191 3.1394 -2.4303 0.9641
-8.2370 3.0881 -2.4299 0.9642
-8.2719 2.9850 -2.4291 0.9642
-8.2890 2.9333 -2.4287 0.9642
-8.3056 2.8815 -2.4283 0.9642
-8.3840 2.6213 -2.4264 0.9642
-8.4408 2.4116 -2.4248 0.9642
-8.4542 2.3589 -2.4244 0.9642
-8.4672 2.3062 -2.4240 0.9642
-8.4799 2.2534 -2.4236 0.9642
-8.4923 2.2006 -2.4232 0.9642
-8.5043 2.1477 -2.4228 0.9643
-8.5160 2.0947 -2.4224 0.9643
-8.5385 1.9886 -2.4216 0.9643
-8.5492 1.9354 -2.4212 0.9643
-8.5595 1.8822 -2.4208 0.9643
-8.5696 1.8289 -2.4204 0.9643
-8.5793 1.7756 -2.4200 0.9643
-8.6306 1.4546 -2.4176 0.9643
-8.6450 1.3473 -2.4168 0.9643
-8.6580 1.2399 -2.4159 0.9644
-8.6752 1.0785 -2.4147 0.9644
-8.6801 1.0246 -2.4143 0.9644
-8.6849 0.9708 -2.4139 0.9644
-8.6932 0.8630 -2.4131 0.9644
-8.6969 0.8091 -2.4126 0.9644
-8.7003 0.7551 -2.4122 0.9644
-8.7033 0.7012 -2.4118 0.9644
-8.7059 0.6473 -2.4114 0.9644
-8.7083 0.5933 -2.4110 0.9644
-8.7143 0.3775 -2.4093 0.9645
-8.7150 0.3235 -2.4089 0.9645
-8.7153 0.2156 -2.4081 0.9645
-8.7150 0.1617 -2.4077 0.9645
-8.4659 -0.0000 -2.4063 0.9654
-8.4602 -0.1570 -2.4050 0.9654
-8.4576 -0.2093 -2.4046 0.9654
-8.4480 -0.3660 -2.4034 0.9654
-8.4442 -0.4181 -2.4030 0.9655
-8.4355 -0.5224 -2.4022 0.9655
-8.4256 -0.6264 -2.4014 0.9655
-8.4201 -0.6784 -2.4010 0.9655
-8.4144 -0.7304 -2.4006 0.9655
-8.3951 -0.8859 -2.3994 0.9655
-8.3881 -0.9376 -2.3990 0.9655
-8.3807 -0.9893 -2.3986 0.9655
-8.3567 -1.1440 -2.3974 0.9655
-8.3299 -1.2982 -2.3962 0.9656
-8.2896 -1.5028 -2.3946 0.9656
-8.2562 -1.6555 -2.3934 0.9656
-8.2444 -1.7063 -2.3930 0.9656
-8.1943 -1.9084 -2.3914 0.9656
-8.1809 -1.9587 -2.3910 0.9656
-8.1673 -2.0090 -2.3906 0.9656
-8.1392 -2.1091 -2.3898 0.9656
-8.1246 -2.1591 -2.3894 0.9656
-8.0946 -2.2586 -2.3886 0.9657
-8.0634 -2.3578 -2.3878 0.9657
-8.0143 -2.5058 -2.3866 0.9657
-7.9974 -2.5549 -2.3863 0.9657
-7.9625 -2.6527 -2.3855 0.9657
-7.9447 -2.7015 -2.3851 0.9657
-7.9266 -2.7501 -2.3847 0.9657
-7.9081 -2.7986 -2.3843 0.9657
-7.8894 -2.8470 -2.3839 0.9657
-7.8704 -2.8953 -2.3836 0.9657
-7.8116 -3.0393 -2.3824 0.9657
-7.7914 -3.0871 -2.3820 0.9657
-7.7501 -3.1822 -2.3813 0.9658
-7.7291 -3.2295 -2.3809 0.9658
-7.6861 -3.3238 -2.3801 0.9658
-7.6642 -3.3708 -2.3797 0.9658
-7.6194 -3.4642 -2.3790 0.9658
-7.5967 -3.5107 -2.3786 0.9658
-7.5737 -3.5570 -2.3783 0.9658
-7.5268 -3.6493 -2.3775 0.9658
-7.4296 -3.8320 -2.3760 0.9658
-7.3793 -3.9224 -2.3753 0.9658
-7.3538 -3.9673 -2.3749 0.9658
-7.3020 -4.0567 -2.3742 0.9659
-7.2756 -4.1012 -2.3739 0.9659
-7.2490 -4.1455 -2.3735 0.9659
-7.2221 -4.1896 -2.3731 0.9659
-7.1950 -4.2335 -2.3728 0.9659
-7.1121 -4.3643 -2.3717 0.9659
-7.0839 -4.4076 -2.3714 0.9659
-7.0554 -4.4507 -2.3710 0.9659
-6.9978 -4.5362 -2.3703 0.9659
-6.9686 -4.5788 -2.3700 0.9659
-6.9391 -4.6211 -2.3696 0.9659
-6.8187 -4.7886 -2.3682 0.9659
-6.7880 -4.8299 -2.3679 0.9659
-6.7571 -4.8711 -2.3676 0.9660
-6.6627 -4.9935 -2.3666 0.9660
-6.5986 -5.0741 -2.3659 0.9660
-6.5662 -5.1141 -2.3656 0.9660
-6.5335 -5.1539 -2.3652 0.9660
-6.5006 -5.1935 -2.3649 0.9660
-6.4675 -5.2329 -2.3646 0.9660
-6.3326 -5.3883 -2.3633 0.9660
-6.2983 -5.4266 -2.3630 0.9660
-6.2638 -5.4647 -2.3627 0.9660
-6.1940 -5.5403 -2.3620 0.9660
-6.1589 -5.5778 -2.3617 0.9660
-6.1234 -5.6150 -2.3614 0.9660
-5.9796 -5.7617 -2.3602 0.9661
-5.9063 -5.8338 -2.3596 0.9661
-5.8694 -5.8694 -2.3593 0.9661
-5.8323 -5.9049 -2.3590 0.9661
-5.7949 -5.9401 -2.3587 0.9661
-5.6816 -6.0443 -2.3578 0.9661
-5.4887 -6.2133 -2.3564 0.9661
-5.2507 -6.4081 -2.3547 0.9661
-5.2104 -6.4397 -2.3544 0.9661
-5.1698 -6.4711 -2.3542 0.9661
-5.0472 -6.5636 -2.3534 0.9662
-4.9229 -6.6540 -2.3526 0.9662
-4.8811 -6.6835 -2.3523 0.9662
-4.8392 -6.7129 -2.3521 0.9662
-4.7971 -6.7419 -2.3518 0.9662
-4.7548 -6.7708 -2.3516 0.9662
-4.7123 -6.7993 -2.3513 0.9662
-4.6697 -6.8276 -2.3511 0.9662
-4.5840 -6.8834 -2.3506 0.9662
-4.4975 -6.9381 -2.3501 0.9662
-4.4541 -6.9651 -2.3499 0.9662
-4.4105 -6.9918 -2.3496 0.9662
-4.3228 -7.0444 -2.3492 0.9662
-4.2787 -7.0704 -2.3489 0.9662
-4.2346 -7.0960 -2.3487 0.9662
-4.1010 -7.1713 -2.3480 0.9662
-4.0562 -7.1958 -2.3478 0.9662
-3.8755 -7.2913 -2.3470 0.9662
-3.8301 -7.3145 -2.3467 0.9662
-3.7844 -7.3374 -2.3465 0.9663
-3.7386 -7.3600 -2.3463 0.9663
-3.6927 -7.3823 -2.3461 0.9663
-3.6005 -7.4262 -2.3457 0.9663
-3.5542 -7.4477 -2.3455 0.9663
-3.4612 -7.4898 -2.3451 0.9663
-3.3209 -7.5509 -2.3446 0.9663
-3.2739 -7.5707 -2.3444 0.9663
-3.0371 -7.6654 -2.3435 0.9663
-2.8457 -7.7359 -2.3428 0.9663
-2.7977 -7.7529 -2.3427 0.9663
-2.7495 -7.7695 -2.3425 0.9663
-2.6529 -7.8018 -2.3422 0.9663
-2.6044 -7.8176 -2.3420 0.9663
-2.5072 -7.8482 -2.3417 0.9663
-2.4584 -7.8630 -2.3416 0.9663
-2.4096 -7.8776 -2.3414 0.9663
-2.3607 -7.8919 -2.3413 0.9663
-2.3117 -7.9058 -2.3412 0.9663
-2.2626 -7.9195 -2.3410 0.9663
-2.2134 -7.9329 -2.3409 0.9663
-2.1643 -7.9460 -2.3407 0.9663
-2.1149 -7.9587 -2.3406 0.9663
-2.0656 -7.9712 -2.3405 0.9663
-2.0161 -7.9834 -2.3404 0.9663
-1.9170 -8.0069 -2.3401 0.9663
-1.8674 -8.0182 -2.3400 0.9663
-1.8177 -8.0292 -2.3399 0.9663
-1.7679 -8.0399 -2.3397 0.9663
-1.7180 -8.0502 -2.3396 0.9663
-1.6681 -8.0603 -2.3395 0.9664
-1.6182 -8.0701 -2.3394 0.9664
-1.5682 -8.0796 -2.3393 0.9664
-1.4680 -8.0977 -2.3391 0.9664
-1.3676 -8.1145 -2.3389 0.9664
-1.3173 -8.1225 -2.3388 0.9664
-1.2671 -8.1301 -2.3387 0.9664
-1.0654 -8.1578 -2.3384 0.9664
-1.0149 -8.1639 -2.3383 0.9664
-0.8632 -8.1805 -2.3380 0.9664
-0.8125 -8.1854 -2.3380 0.9664
-0.7112 -8.1944 -2.3378 0.9664
-0.6605 -8.1984 -2.3378 0.9664
-0.4067 -8.2139 -2.3375 0.9664
-0.3559 -8.2160 -2.3374 0.9664
-0.1525 -8.2217 -2.3372 0.9664
-0.0508 -8.2227 -2.3372 0.9664
0.0000 -8.2227 -2.3371 0.9664
0.1017 -8.2219 -2.3371 0.9664
0.2543 -8.2183 -2.3370 0.9664
0.3050 -8.2165 -2.3370 0.9664
0.4574 -8.2092 -2.3369 0.9664
0.5082 -8.2062 -2.3369 0.9664
0.6603 -8.1953 -2.3369 0.9664
0.8628 -8.1765 -2.3369 0.9664
0.9134 -8.1710 -2.3369 0.9664
1.0648 -8.1528 -2.3369 0.9664
1.1152 -8.1461 -2.3370 0.9664
1.2662 -8.1243 -2.3370 0.9664
1.4167 -8.0997 -2.3371 0.9664
1.4668 -8.0909 -2.3371 0.9664
1.5668 -8.0724 -2.3372 0.9664
1.6666 -8.0526 -2.3373 0.9664
1.7661 -8.0317 -2.3374 0.9664
1.9645 -7.9863 -2.3376 0.9664
2.0632 -7.9618 -2.3377 0.9664
2.1124 -7.9491 -2.3378 0.9664
2.3575 -7.8812 -2.3381 0.9664
2.4550 -7.8520 -2.3383 0.9664
2.5521 -7.8216 -2.3385 0.9664
2.6005 -7.8060 -2.3386 0.9664
2.6971 -7.7738 -2.3387 0.9664
2.7933 -7.7405 -2.3389 0.9664
2.8412 -7.7234 -2.3390 0.9664
2.8890 -7.7060 -2.3391 0.9664
3.0319 -7.6521 -2.3394 0.9664
3.0793 -7.6336 -2.3396 0.9664
3.1266 -7.6148 -2.3397 0.9663
3.2679 -7.5566 -2.3400 0.9663
3.3147 -7.5366 -2.3401 0.9663
3.3614 -7.5164 -2.3403 0.9663
3.6391 -7.3890 -2.3411 0.9663
3.6850 -7.3668 -2.3412 0.9663
3.7307 -7.3443 -2.3413 0.9663
3.7762 -7.3215 -2.3415 0.9663
4.0021 -7.2036 -2.3422 0.9663
4.0915 -7.1545 -2.3425 0.9663
4.2684 -7.0531 -2.3432 0.9663
4.3994 -6.9743 -2.3437 0.9663
4.4428 -6.9475 -2.3439 0.9663
4.4861 -6.9204 -2.3441 0.9663
4.6997 -6.7810 -2.3450 0.9663
4.7419 -6.7524 -2.3452 0.9663
4.7840 -6.7235 -2.3454 0.9663
4.9505 -6.6054 -2.3462 0.9663
5.0328 -6.5448 -2.3466 0.9663
5.1142 -6.4832 -2.3470 0.9662
5.1950 -6.4206 -2.3474 0.9662
5.2350 -6.3889 -2.3477 0.9662
5.3147 -6.3249 -2.3481 0.9662
5.3935 -6.2599 -2.3485 0.9662
5.4326 -6.2270 -2.3488 0.9662
5.5103 -6.1605 -2.3492 0.9662
5.5488 -6.1269 -2.3495 0.9662
5.7758 -5.9205 -2.3509 0.9662
5.8129 -5.8853 -2.3511 0.9662
6.0311 -5.6692 -2.3527 0.9662
6.2070 -5.4831 -2.3540 0.9661
6.2415 -5.4452 -2.3542 0.9661
6.2758 -5.4071 -2.3545 0.9661
6.3437 -5.3304 -2.3551 0.9661
6.3772 -5.2917 -2.3553 0.9661
6.4437 -5.2136 -2.3559 0.9661
6.4766 -5.1743 -2.3562 0.9661
6.5093 -5.1347 -2.3564 0.9661
6.5417 -5.0950 -2.3567 0.9661
6.6058 -5.0149 -2.3573 0.9661
6.6689 -4.9340 -2.3579 0.9661
6.7311 -4.8524 -2.3585 0.9661
6.8526 -4.6868 -2.3597 0.9661
6.9410 -4.5606 -2.3606 0.9661
6.9699 -4.5182 -2.3609 0.9660
6.9987 -4.4756 -2.3612 0.9660
7.1656 -4.2162 -2.3631 0.9660
7.2717 -4.0399 -2.3644 0.9660
7.2975 -3.9954 -2.3647 0.9660
7.3231 -3.9508 -2.3650 0.9660
7.4227 -3.7705 -2.3663 0.9660
7.4946 -3.6337 -2.3673 0.9660
7.5411 -3.5417 -2.3680 0.9659
7.6088 -3.4027 -2.3690 0.9659
7.6308 -3.3560 -2.3694 0.9659
7.7160 -3.1682 -2.3708 0.9659
7.7569 -3.0734 -2.3715 0.9659
7.8352 -2.8823 -2.3729 0.9659
7.8540 -2.8342 -2.3732 0.9659
7.8726 -2.7860 -2.3736 0.9659
7.9089 -2.6893 -2.3743 0.9659
7.9265 -2.6407 -2.3747 0.9659
7.9440 -2.5920 -2.3750 0.9658
7.9779 -2.4943 -2.3758 0.9658
8.0106 -2.3962 -2.3765 0.9658
8.0421 -2.2976 -2.3772 0.9658
8.0574 -2.2482 -2.3776 0.9658
8.0724 -2.1987 -2.3780 0.9658
8.0871 -2.1491 -2.3784 0.9658
8.1015 -2.0994 -2.3787 0.9658
8.1156 -2.0496 -2.3791 0.9658
8.1295 -1.9996 -2.3795 0.9658
8.1561 -1.8995 -2.3802 0.9658
8.1816 -1.7991 -2.3810 0.9658
8.1939 -1.7487 -2.3814 0.9658
8.2058 -1.6983 -2.3817 0.9658
8.2175 -1.6478 -2.3821 0.9657
8.2399 -1.5465 -2.3829 0.9657
8.2810 -1.3431 -2.3844 0.9657
8.2904 -1.2921 -2.3848 0.9657
8.3170 -1.1386 -2.3860 0.9657
8.3253 -1.0873 -2.3864 0.9657
8.3332 -1.0360 -2.3868 0.9657
8.3481 -0.9331 -2.3875 0.9657
8.3551 -0.8816 -2.3879 0.9657
8.3681 -0.7785 -2.3887 0.9657
8.3799 -0.6752 -2.3895 0.9656
8.3853 -0.6234 -2.3899 0.9656
8.4037 -0.4161 -2.3915 0.9656
8.4075 -0.3642 -2.3919 0.9656
8.4141 -0.2602 -2.3927 0.9656
8.4196 -0.1562 -2.3935 0.9656
8.4217 -0.1042 -2.3939 0.9656
8.4252 0.0000 -2.3947 0.9656
8.4280 0.1564 -2.3959 0.9656
8.4282 0.2085 -2.3963 0.9655
8.4249 0.4694 -2.3983 0.9655
8.4189 0.6259 -2.3995 0.9655
8.4163 0.6781 -2.3999 0.9655
8.4065 0.8345 -2.4011 0.9655
8.4026 0.8867 -2.4015 0.9655
8.3984 0.9387 -2.4019 0.9655
8.3889 1.0429 -2.4027 0.9655
8.3838 1.0949 -2.4031 0.9655
8.3783 1.1470 -2.4035 0.9654
8.3383 1.4585 -2.4060 0.9654
8.3141 1.6137 -2.4072 0.9654
8.2962 1.7170 -2.4080 0.9654
8.2771 1.8201 -2.4088 0.9654
8.2671 1.8715 -2.4092 0.9654
8.2568 1.9229 -2.4096 0.9654
8.2351 2.0256 -2.4104 0.9653
8.2238 2.0769 -2.4108 0.9653
8.2121 2.1281 -2.4112 0.9653
8.2002 2.1792 -2.4116 0.9653
8.1753 2.2812 -2.4124 0.9653
8.1492 2.3829 -2.4132 0.9653
8.1356 2.4336 -2.4136 0.9653
8.1218 2.4843 -2.4140 0.9653
8.0783 2.6358 -2.4152 0.9653
8.0632 2.6862 -2.4156 0.9653
8.0477 2.7364 -2.4160 0.9653
8.0320 2.7867 -2.4164 0.9653
7.9995 2.8867 -2.4172 0.9653
7.9659 2.9864 -2.4180 0.9652
7.9309 3.0857 -2.4188 0.9652
7.8572 3.2831 -2.4204 0.9652
7.8380 3.3321 -2.4207 0.9652
7.8185 3.3810 -2.4211 0.9652
7.7786 3.4786 -2.4219 0.9652
7.7582 3.5272 -2.4223 0.9652
7.7165 3.6241 -2.4231 0.9652
7.6735 3.7204 -2.4238 0.9652
7.6515 3.7684 -2.4242 0.9652
7.6293 3.8163 -2.4246 0.9651
7.5839 3.9116 -2.4254 0.9651
7.5608 3.9590 -2.4258 0.9651
7.5373 4.0063 -2.4261 0.9651
7.5135 4.0535 -2.4265 0.9651
7.4405 4.1941 -2.4277 0.9651
7.4156 4.2407 -2.4280 0.9651
7.3904 4.2872 -2.4284 0.9651
7.3390 4.3796 -2.4292 0.9651
7.2866 4.4714 -2.4299 0.9651
7.2056 4.6079 -2.4310 0.9651
7.1221 4.7429 -2.4321 0.9650
7.0650 4.8321 -2.4328 0.9650
7.0360 4.8764 -2.4332 0.9650
7.0068 4.9206 -2.4335 0.9650
6.8870 5.0954 -2.4350 0.9650
6.7942 5.2245 -2.4360 0.9650
6.7628 5.2672 -2.4364 0.9650
6.7310 5.3097 -2.4367 0.9650
6.6014 5.4776 -2.4381 0.9650
6.5013 5.6015 -2.4391 0.9649
6.4333 5.6830 -2.4398 0.9649
6.3989 5.7235 -2.4401 0.9649
6.3643 5.7638 -2.4405 0.9649
6.3294 5.8038 -2.4408 0.9649
6.2942 5.8436 -2.4411 0.9649
6.2232 5.9226 -2.4418 0.9649
6.1872 5.9618 -2.4421 0.9649
6.1511 6.0007 -2.4425 0.9649
6.0522 5.9778 -2.4178 0.9652
5.9325 5.9325 -2.3846 0.9657
5.8159 5.8883 -2.3524 0.9662
5.7025 5.8453 -2.3210 0.9666
5.6035 5.8154 -2.2954 0.9670
5.5524 5.8342 -2.2892 0.9671
5.5170 5.8691 -2.2895 0.9671
5.4454 5.9384 -2.2901 0.9671
5.4092 5.9728 -2.2903 0.9670
5.2624 6.1077 -2.2915 0.9670
5.1878 6.1739 -2.2920 0.9670
5.1122 6.2391 -2.2926 0.9670
5.0742 6.2713 -2.2929 0.9670
4.9198 6.3979 -2.2939 0.9670
4.8019 6.4903 -2.2947 0.9670
4.7622 6.5207 -2.2950 0.9670
4.7224 6.5507 -2.2953 0.9670
4.6823 6.5805 -2.2955 0.9670
4.6420 6.6101 -2.2958 0.9670
4.6015 6.6394 -2.2960 0.9670
4.5609 6.6685 -2.2963 0.9670
4.4378 6.7541 -2.2970 0.9670
4.3964 6.7822 -2.2973 0.9669
4.3549 6.8099 -2.2975 0.9669
4.2712 6.8647 -2.2980 0.9669
4.2291 6.8917 -2.2982 0.9669
4.1868 6.9184 -2.2985 0.9669
4.1018 6.9711 -2.2989 0.9669
4.0590 6.9970 -2.2992 0.9669
3.9730 7.0480 -2.2996 0.9669
3.8862 7.0980 -2.3001 0.9669
3.7549 7.1709 -2.3007 0.9669
3.7108 7.1947 -2.3009 0.9669
3.4432 7.3313 -2.3022 0.9669
3.2163 7.4374 -2.3031 0.9669
3.1246 7.4778 -2.3035 0.9669
3.0786 7.4976 -2.3037 0.9669
3.0323 7.5171 -2.3039 0.9669
2.9860 7.5363 -2.3040 0.9669
2.8930 7.5738 -2.3044 0.9668
2.7995 7.6101 -2.3047 0.9668
2.7526 7.6279 -2.3049 0.9668
2.7056 7.6453 -2.3051 0.9668
2.6585 7.6625 -2.3052 0.9668
2.5638 7.6958 -2.3056 0.9668
2.5164 7.7121 -2.3057 0.9668
2.3255 7.7741 -2.3064 0.9668
2.2775 7.7888 -2.3065 0.9668
2.2294 7.8033 -2.3067 0.9668
2.1813 7.8174 -2.3068 0.9668
1.9391 7.8835 -2.3075 0.9668
1.8905 7.8958 -2.3076 0.9668
1.8417 7.9078 -2.3078 0.9668
1.7929 7.9194 -2.3079 0.9668
1.7439 7.9308 -2.3080 0.9668
1.5968 7.9630 -2.3084 0.9668
1.4489 7.9924 -2.3087 0.9668
1.1021 8.0500 -2.3094 0.9668
1.0523 8.0570 -2.3095 0.9668
0.9027 8.0760 -2.3097 0.9668
0.8528 8.0818 -2.3098 0.9668
0.7028 8.0970 -2.3100 0.9668
0.6027 8.1055 -2.3102 0.9668
0.5525 8.1093 -2.3102 0.9668
0.5024 8.1128 -2.3103 0.9668
0.4522 8.1160 -2.3104 0.9668
0.4020 8.1188 -2.3104 0.9668
0.3518 8.1213 -2.3105 0.9668
0.3016 8.1235 -2.3105 0.9668
0.1508 8.1282 -2.3107 0.9668
0.1006 8.1292 -2.3107 0.9668
-0.0502 8.1301 -2.3109 0.9668
-0.1005 8.1298 -2.3109 0.9668
-0.1508 8.1292 -2.3109 0.9668
-0.2011 8.1282 -2.3110 0.9668
-0.2513 8.1269 -2.3110 0.9668
-0.3017 8.1253 -2.3110 0.9668
-0.3519 8.1234 -2.3111 0.9668
-0.4021 8.1212 -2.3111 0.9668
-0.5025 8.1157 -2.3111 0.9668
-0.6029 8.1090 -2.3112 0.9668
-0.6530 8.1051 -2.3112 0.9668
-0.7532 8.0965 -2.3112 0.9668
-0.8033 8.0917 -2.3112 0.9668
-0.8533 8.0866 -2.3112 0.9668
-0.9033 8.0812 -2.3112 0.9668
-0.9532 8.0754 -2.3112 0.9668
-1.0531 8.0630 -2.3112 0.9668
-1.1029 8.0563 -2.3112 0.9668
-1.1527 8.0493 -2.3112 0.9668
-1.2024 8.0420 -2.3112 0.9668
-1.2521 8.0343 -2.3111 0.9668
-1.3018 8.0264 -2.3111 0.9668
-1.3514 8.0181 -2.3111 0.9668
-1.5985 7.9719 -2.3110 0.9668
-1.6970 7.9513 -2.3109 0.9668
-1.7461 7.9405 -2.3108 0.9668
-1.8440 7.9180 -2.3108 0.9668
-1.8929 7.9063 -2.3107 0.9668
-1.9417 7.8942 -2.3107 0.9668
-1.9905 7.8819 -2.3106 0.9668
-2.0391 7.8693 -2.3105 0.9668
-2.0082 7.1969 -2.1237 0.9694
-2.2812 7.8014 -2.3102 0.9668
-2.3293 7.7869 -2.3102 0.9668
-2.3773 7.7721 -2.3101 0.9668
-2.2735 7.2711 -2.1653 0.9688
-2.3725 7.2713 -2.1739 0.9687
-2.3093 6.9318 -2.0767 0.9701
-2.3746 6.8443 -2.0591 0.9703
-2.4229 6.8463 -2.0642 0.9703
-2.4500 6.7891 -2.0515 0.9704
-2.4437 6.6427 -2.0117 0.9710
-2.3011 6.0242 -1.8329 0.9735
-2.5080 6.4458 -1.9659 0.9716
-2.5162 6.3506 -1.9415 0.9720
-2.5710 6.3734 -1.9533 0.9718
-2.6425 6.3241 -1.9481 0.9719
-2.7018 6.3552 -1.9628 0.9717
-2.7955 6.3562 -1.9736 0.9715
-2.7827 6.1206 -1.9110 0.9724
-2.9233 6.3257 -1.9806 0.9714
-2.9566 6.2952 -1.9768 0.9715
-2.9898 6.2648 -1.9730 0.9715
-3.2381 6.4734 -2.0573 0.9703
-3.3414 6.4784 -2.0718 0.9701
-3.4969 6.4819 -2.0933 0.9698
-3.4711 6.2479 -2.0315 0.9707
-3.5278 6.2584 -2.0419 0.9706
-3.8014 6.5529 -2.1532 0.9690
-4.0796 6.5568 -2.1949 0.9684
-4.2423 6.6339 -2.2381 0.9678
-4.1925 6.3808 -2.1700 0.9687
-4.2572 6.3927 -2.1830 0.9686
-4.4389 6.5770 -2.2553 0.9675
-4.5504 6.6531 -2.2910 0.9670
-4.5739 6.5996 -2.2822 0.9672
-4.6504 6.6220 -2.2999 0.9669
-4.7760 6.5396 -2.3017 0.9669
-5.0899 6.2908 -2.3000 0.9669
-5.2042 6.1935 -2.2993 0.9669
-5.2419 6.1606 -2.2991 0.9669
-5.2793 6.1274 -2.2989 0.9669
-5.3536 6.0604 -2.2984 0.9669
-5.3904 6.0266 -2.2982 0.9669
-5.4996 5.9237 -2.2974 0.9669
-5.6420 5.7834 -2.2965 0.9670
-5.6771 5.7477 -2.2962 0.9670
-5.7119 5.7119 -2.2960 0.9670
-5.7465 5.6758 -2.2957 0.9670
-5.7808 5.6396 -2.2954 0.9670
-5.8150 5.6031 -2.2952 0.9670
-5.9490 5.4550 -2.2941 0.9670
-5.9819 5.4175 -2.2939 0.9670
-6.0146 5.3798 -2.2936 0.9670
-6.0471 5.3419 -2.2933 0.9670
-6.0793 5.3037 -2.2931 0.9670
-6.1112 5.2654 -2.2928 0.9670
-6.1744 5.1882 -2.2922 0.9670
-6.2056 5.1493 -2.2920 0.9670
-6.2673 5.1353 -2.3030 0.9669
-6.3579 5.1442 -2.3245 0.9666
-6.4553 5.1573 -2.3484 0.9662
-6.5547 5.1706 -2.3729 0.9659
-6.6562 5.1842 -2.3980 0.9655
-6.8521 5.2019 -2.4452 0.9649
-6.8833 5.1588 -2.4449 0.9649
-7.0349 4.9403 -2.4433 0.9649
-7.0644 4.8961 -2.4430 0.9649
-7.1512 4.7623 -2.4420 0.9649
-7.2076 4.6722 -2.4414 0.9649
-7.2354 4.6269 -2.4410 0.9649
-7.2901 4.5358 -2.4404 0.9649
-7.3170 4.4901 -2.4400 0.9649
-7.3436 4.4441 -2.4397 0.9649
-7.3699 4.3980 -2.4394 0.9649
-7.4217 4.3053 -2.4387 0.9649
-7.4971 4.1651 -2.4377 0.9650
-7.5217 4.1181 -2.4373 0.9650
-7.5699 4.0237 -2.4366 0.9650
-7.6169 3.9286 -2.4359 0.9650
-7.6399 3.8808 -2.4356 0.9650
-7.7718 3.5916 -2.4334 0.9650
-7.7927 3.5429 -2.4331 0.9650
-7.8133 3.4942 -2.4327 0.9650
-7.8336 3.4453 -2.4324 0.9650
-7.8536 3.3962 -2.4320 0.9650
-7.8732 3.3471 -2.4316 0.9650
-7.8926 3.2978 -2.4313 0.9651
-7.9304 3.1990 -2.4305 0.9651
-7.9669 3.0998 -2.4298 0.9651
-8.0022 3.0000 -2.4290 0.9651
-8.0690 2.7995 -2.4275 0.9651
-8.1005 2.6986 -2.4268 0.9651
-8.1157 2.6480 -2.4264 0.9651
-8.1453 2.5467 -2.4257 0.9651
-8.1736 2.4450 -2.4249 0.9651
-8.1873 2.3940 -2.4245 0.9651
-8.2006 2.3430 -2.4241 0.9652
-8.2137 2.2918 -2.4237 0.9652
-8.2263 2.2406 -2.4233 0.9652
-8.2850 1.9836 -2.4214 0.9652
-8.2958 1.9321 -2.4210 0.9652
-8.3063 1.8804 -2.4206 0.9652
-8.3262 1.7770 -2.4198 0.9652
-8.3448 1.6733 -2.4191 0.9652
-8.3537 1.6214 -2.4187 0.9652
-8.3622 1.5695 -2.4183 0.9652
-8.3782 1.4654 -2.4175 0.9652
-8.4063 1.2569 -2.4159 0.9653
-8.4126 1.2047 -2.4155 0.9653
-8.4185 1.1525 -2.4151 0.9653
-8.4241 1.1002 -2.4147 0.9653
-8.4293 1.0479 -2.4143 0.9653
-8.4342 0.9956 -2.4139 0.9653
-8.4471 0.8385 -2.4127 0.9653
-8.4507 0.7862 -2.4123 0.9653
-8.4540 0.7338 -2.4119 0.9653
-8.4639 0.5241 -2.4103 0.9654
-8.4669 0.4192 -2.4095 0.9654
-8.4679 0.3668 -2.4091 0.9654
-8.4687 0.1571 -2.4075 0.9654
-8.4681 0.1047 -2.4071 0.9654
-8.2310 -0.0509 -2.4057 0.9663
-8.2218 -0.2543 -2.4041 0.9663
-8.2153 -0.3559 -2.4033 0.9663
-8.2116 -0.4066 -2.4030 0.9663
-8.2076 -0.4573 -2.4026 0.9663
-8.2032 -0.5080 -2.4022 0.9663
-8.1986 -0.5586 -2.4018 0.9663
-8.1884 -0.6597 -2.4010 0.9663
-8.1707 -0.8112 -2.3998 0.9664
-8.1643 -0.8615 -2.3994 0.9664
-8.1574 -0.9118 -2.3990 0.9664
-8.1503 -0.9621 -2.3986 0.9664
-8.1428 -1.0123 -2.3982 0.9664
-8.1351 -1.0625 -2.3978 0.9664
-8.1271 -1.1126 -2.3975 0.9664
-8.1187 -1.1627 -2.3971 0.9664
-8.1101 -1.2126 -2.3967 0.9664
-8.0822 -1.3622 -2.3955 0.9664
-8.0408 -1.5607 -2.3939 0.9664
-8.0297 -1.6101 -2.3936 0.9664
-8.0183 -1.6595 -2.3932 0.9665
-7.9945 -1.7580 -2.3924 0.9665
-7.9822 -1.8071 -2.3920 0.9665
-7.9567 -1.9051 -2.3912 0.9665
-7.8271 -2.3413 -2.3878 0.9665
-7.8112 -2.3893 -2.3874 0.9665
-7.7618 -2.5326 -2.3863 0.9665
-7.7275 -2.6276 -2.3855 0.9666
-7.7099 -2.6749 -2.3851 0.9666
-7.6920 -2.7221 -2.3848 0.9666
-7.6738 -2.7692 -2.3844 0.9666
-7.6553 -2.8162 -2.3840 0.9666
-7.5982 -2.9563 -2.3829 0.9666
-7.5786 -3.0028 -2.3825 0.9666
-7.5181 -3.1414 -2.3814 0.9666
-7.4973 -3.1873 -2.3810 0.9666
-7.4763 -3.2331 -2.3807 0.9666
-7.4551 -3.2788 -2.3803 0.9666
-7.4335 -3.3243 -2.3799 0.9666
-7.3895 -3.4150 -2.3792 0.9666
-7.3445 -3.5050 -2.3785 0.9667
-7.3216 -3.5498 -2.3781 0.9667
-7.2984 -3.5945 -2.3778 0.9667
-7.2749 -3.6390 -2.3774 0.9667
-7.2512 -3.6834 -2.3771 0.9667
-7.2272 -3.7276 -2.3767 0.9667
-7.1536 -3.8593 -2.3756 0.9667
-7.0257 -4.0756 -2.3739 0.9667
-6.9992 -4.1184 -2.3735 0.9667
-6.9727 -4.1610 -2.3732 0.9667
-6.8913 -4.2878 -2.3722 0.9667
-6.7506 -4.4955 -2.3705 0.9668
-6.7217 -4.5365 -2.3701 0.9668
-6.6632 -4.6181 -2.3695 0.9668
-6.6336 -4.6585 -2.3691 0.9668
-6.5433 -4.7788 -2.3681 0.9668
-6.5127 -4.8185 -2.3678 0.9668
-6.4819 -4.8580 -2.3675 0.9668
-6.3243 -5.0526 -2.3659 0.9668
-6.2597 -5.1291 -2.3652 0.9668
-6.2270 -5.1670 -2.3649 0.9668
-6.1941 -5.2047 -2.3646 0.9668
-6.0941 -5.3167 -2.3637 0.9669
-6.0603 -5.3536 -2.3634 0.9669
-6.0263 -5.3902 -2.3631 0.9669
-5.9921 -5.4267 -2.3628 0.9669
-5.9576 -5.4630 -2.3625 0.9669
-5.8881 -5.5348 -2.3619 0.9669
-5.7822 -5.6410 -2.3610 0.9669
-5.7465 -5.6759 -2.3607 0.9669
-5.7106 -5.7106 -2.3604 0.9669
-5.6382 -5.7794 -2.3598 0.9669
-5.4908 -5.9142 -2.3587 0.9669
-5.3783 -6.0130 -2.3578 0.9669
-5.3404 -6.0454 -2.3576 0.9669
-5.3023 -6.0776 -2.3573 0.9669
-5.2640 -6.1096 -2.3570 0.9670
-5.1868 -6.1728 -2.3565 0.9670
-5.1089 -6.2351 -2.3559 0.9670
-5.0697 -6.2658 -2.3557 0.9670
-5.0303 -6.2964 -2.3554 0.9670
-4.8708 -6.4161 -2.3544 0.9670
-4.8305 -6.4454 -2.3541 0.9670
-4.7901 -6.4744 -2.3539 0.9670
-4.7087 -6.5318 -2.3534 0.9670
-4.6677 -6.5601 -2.3531 0.9670
-4.6265 -6.5881 -2.3529 0.9670
-4.5852 -6.6160 -2.3526 0.9670
-4.5438 -6.6435 -2.3524 0.9670
-4.5021 -6.6708 -2.3522 0.9670
-4.3763 -6.7511 -2.3515 0.9670
-4.3341 -6.7774 -2.3512 0.9670
-4.2917 -6.8034 -2.3510 0.9670
-4.2491 -6.8292 -2.3508 0.9670
-4.2063 -6.8547 -2.3505 0.9670
-4.1205 -6.9049 -2.3501 0.9670
-3.8154 -7.0722 -2.3486 0.9671
-3.7712 -7.0950 -2.3484 0.9671
-3.7270 -7.1176 -2.3482 0.9671
-3.6826 -7.1399 -2.3480 0.9671
-3.5036 -7.2264 -2.3472 0.9671
-3.4586 -7.2473 -2.3470 0.9671
-3.4135 -7.2680 -2.3468 0.9671
-3.2772 -7.3283 -2.3463 0.9671
-3.2316 -7.3479 -2.3461 0.9671
-3.1400 -7.3861 -2.3457 0.9671
-3.0480 -7.4233 -2.3454 0.9671
-3.0017 -7.4415 -2.3452 0.9671
-2.9555 -7.4594 -2.3450 0.9671
-2.9091 -7.4770 -2.3449 0.9671
-2.8626 -7.4943 -2.3447 0.9671
-2.8160 -7.5113 -2.3445 0.9671
-2.7225 -7.5445 -2.3442 0.9671
-2.6756 -7.5607 -2.3441 0.9671
-2.6286 -7.5766 -2.3439 0.9671
-2.5344 -7.6076 -2.3436 0.9671
-2.4398 -7.6374 -2.3433 0.9671
-2.3924 -7.6518 -2.3432 0.9671
-2.3449 -7.6660 -2.3430 0.9671
-2.2496 -7.6936 -2.3427 0.9671
-2.2018 -7.7069 -2.3426 0.9671
-2.1061 -7.7326 -2.3423 0.9672
-1.9620 -7.7691 -2.3420 0.9672
-1.9138 -7.7807 -2.3418 0.9672
-1.8656 -7.7920 -2.3417 0.9672
-1.8172 -7.8030 -2.3416 0.9672
-1.7205 -7.8241 -2.3414 0.9672
-1.6720 -7.8342 -2.3413 0.9672
-1.6234 -7.8440 -2.3412 0.9672
-1.5261 -7.8628 -2.3409 0.9672
-1.4774 -7.8718 -2.3408 0.9672
-1.3798 -7.8887 -2.3406 0.9672
-1.3309 -7.8968 -2.3405 0.9672
-1.2820 -7.9046 -2.3405 0.9672
-1.2331 -7.9120 -2.3404 0.9672
-1.1841 -7.9192 -2.3403 0.9672
-1.0860 -7.9327 -2.3401 0.9672
-0.9877 -7.9450 -2.3399 0.9672
-0.9385 -7.9507 -2.3399 0.9672
-0.8893 -7.9560 -2.3398 0.9672
-0.7908 -7.9659 -2.3396 0.9672
-0.7415 -7.9704 -2.3396 0.9672
-0.6921 -7.9747 -2.3395 0.9672
-0.5934 -7.9822 -2.3394 0.9672
-0.4946 -7.9885 -2.3393 0.9672
-0.1979 -8.0003 -2.3390 0.9672
-0.1484 -8.0013 -2.3389 0.9672
-0.0989 -8.0019 -2.3389 0.9672
-0.0494 -8.0023 -2.3389 0.9672
0.0000 -8.0023 -2.3388 0.9672
0.1485 -8.0006 -2.3387 0.9672
0.1979 -7.9995 -2.3387 0.9672
0.2969 -7.9962 -2.3387 0.9672
0.3958 -7.9918 -2.3386 0.9672
0.6426 -7.9756 -2.3386 0.9672
0.6919 -7.9715 -2.3386 0.9672
0.7905 -7.9623 -2.3386 0.9672
0.8889 -7.9520 -2.3386 0.9672
0.9380 -7.9464 -2.3386 0.9672
1.0363 -7.9343 -2.3386 0.9672
1.0853 -7.9278 -2.3387 0.9672
1.1343 -7.9209 -2.3387 0.9672
1.2812 -7.8988 -2.3387 0.9672
1.3300 -7.8908 -2.3388 0.9672
1.5734 -7.8465 -2.3389 0.9672
1.6704 -7.8267 -2.3390 0.9672
1.7671 -7.8058 -2.3391 0.9672
1.8637 -7.7837 -2.3392 0.9672
2.0079 -7.7483 -2.3394 0.9672
2.1036 -7.7233 -2.3395 0.9672
2.1514 -7.7104 -2.3396 0.9672
2.1991 -7.6972 -2.3397 0.9672
2.2943 -7.6699 -2.3398 0.9672
2.4837 -7.6118 -2.3401 0.9672
2.5308 -7.5966 -2.3402 0.9672
2.5778 -7.5811 -2.3403 0.9672
2.6247 -7.5653 -2.3404 0.9672
2.6716 -7.5492 -2.3405 0.9672
2.8115 -7.4992 -2.3408 0.9672
2.8579 -7.4820 -2.3409 0.9672
2.9043 -7.4646 -2.3410 0.9672
2.9505 -7.4468 -2.3411 0.9672
2.9967 -7.4287 -2.3412 0.9672
3.1344 -7.3729 -2.3415 0.9672
3.1801 -7.3538 -2.3416 0.9672
3.2257 -7.3343 -2.3418 0.9672
3.2712 -7.3146 -2.3419 0.9672
3.4518 -7.2330 -2.3424 0.9672
3.5414 -7.1906 -2.3426 0.9671
3.8071 -7.0568 -2.3435 0.9671
3.8509 -7.0336 -2.3436 0.9671
3.9815 -6.9623 -2.3441 0.9671
4.0248 -6.9380 -2.3443 0.9671
4.1109 -6.8887 -2.3446 0.9671
4.1537 -6.8636 -2.3447 0.9671
4.1963 -6.8382 -2.3449 0.9671
4.2388 -6.8126 -2.3451 0.9671
4.2812 -6.7868 -2.3453 0.9671
4.3234 -6.7607 -2.3454 0.9671
4.3654 -6.7343 -2.3456 0.9671
4.4491 -6.6808 -2.3460 0.9671
4.4907 -6.6537 -2.3461 0.9671
4.6144 -6.5708 -2.3467 0.9671
4.6553 -6.5426 -2.3469 0.9671
4.6961 -6.5142 -2.3471 0.9671
4.7771 -6.4567 -2.3475 0.9671
4.8574 -6.3983 -2.3478 0.9671
4.9765 -6.3087 -2.3485 0.9671
5.0551 -6.2477 -2.3489 0.9671
5.0941 -6.2169 -2.3491 0.9671
5.1715 -6.1545 -2.3495 0.9671
5.2099 -6.1230 -2.3497 0.9671
5.2482 -6.0912 -2.3499 0.9670
5.3618 -5.9945 -2.3506 0.9670
5.3993 -5.9618 -2.3508 0.9670
5.4366 -5.9289 -2.3511 0.9670
5.5106 -5.8624 -2.3515 0.9670
5.6201 -5.7609 -2.3522 0.9670
5.6921 -5.6921 -2.3527 0.9670
5.7985 -5.5872 -2.3534 0.9670
5.9375 -5.4444 -2.3545 0.9670
6.0056 -5.3717 -2.3550 0.9670
6.0730 -5.2982 -2.3555 0.9670
6.1723 -5.1864 -2.3563 0.9670
6.2050 -5.1487 -2.3565 0.9670
6.2696 -5.0727 -2.3571 0.9669
6.3649 -4.9573 -2.3579 0.9669
6.3962 -4.9184 -2.3582 0.9669
6.4272 -4.8793 -2.3585 0.9669
6.4886 -4.8006 -2.3590 0.9669
6.6086 -4.6409 -2.3602 0.9669
6.6380 -4.6005 -2.3605 0.9669
6.6671 -4.5599 -2.3608 0.9669
6.6961 -4.5192 -2.3611 0.9669
6.7813 -4.3959 -2.3619 0.9669
6.8092 -4.3544 -2.3623 0.9669
6.8369 -4.3128 -2.3626 0.9669
6.9715 -4.1020 -2.3641 0.9669
6.9976 -4.0593 -2.3644 0.9668
7.0491 -3.9735 -2.3650 0.9668
7.0745 -3.9304 -2.3653 0.9668
7.0996 -3.8871 -2.3657 0.9668
7.1245 -3.8436 -2.3660 0.9668
7.2213 -3.6682 -2.3673 0.9668
7.2448 -3.6240 -2.3676 0.9668
7.2681 -3.5796 -2.3679 0.9668
7.3804 -3.3555 -2.3696 0.9668
7.4021 -3.3102 -2.3699 0.9668
7.4235 -3.2649 -2.3702 0.9668
7.5062 -3.0820 -2.3716 0.9668
7.5262 -3.0359 -2.3719 0.9667
7.5460 -2.9898 -2.3723 0.9667
7.5654 -2.9435 -2.3726 0.9667
7.6034 -2.8505 -2.3733 0.9667
7.6584 -2.7102 -2.3743 0.9667
7.6761 -2.6632 -2.3747 0.9667
7.6936 -2.6160 -2.3750 0.9667
7.7276 -2.5214 -2.3757 0.9667
7.7442 -2.4740 -2.3761 0.9667
7.7605 -2.4264 -2.3764 0.9667
7.7766 -2.3787 -2.3768 0.9667
7.7923 -2.3309 -2.3772 0.9667
7.8077 -2.2830 -2.3775 0.9667
7.8378 -2.1870 -2.3782 0.9667
7.8806 -2.0421 -2.3793 0.9666
7.9076 -1.9451 -2.3801 0.9666
7.9208 -1.8964 -2.3804 0.9666
7.9336 -1.8477 -2.3808 0.9666
7.9460 -1.7989 -2.3812 0.9666
7.9931 -1.6028 -2.3826 0.9666
8.0041 -1.5536 -2.3830 0.9666
8.0148 -1.5043 -2.3834 0.9666
8.0252 -1.4549 -2.3837 0.9666
8.0638 -1.2567 -2.3852 0.9666
8.0727 -1.2071 -2.3856 0.9666
8.0896 -1.1075 -2.3864 0.9665
8.0975 -1.0576 -2.3868 0.9665
8.1196 -0.9076 -2.3879 0.9665
8.1264 -0.8575 -2.3883 0.9665
8.1328 -0.8074 -2.3887 0.9665
8.1389 -0.7572 -2.3890 0.9665
8.1448 -0.7069 -2.3894 0.9665
8.1604 -0.5560 -2.3906 0.9665
8.1651 -0.5056 -2.3910 0.9665
8.1803 -0.3037 -2.3925 0.9665
8.1834 -0.2531 -2.3929 0.9665
8.1906 -0.1013 -2.3941 0.9664
8.1924 -0.0507 -2.3944 0.9664
8.1965 0.1521 -2.3960 0.9664
8.1968 0.2028 -2.3964 0.9664
8.1963 0.3043 -2.3972 0.9664
8.1956 0.3550 -2.3976 0.9664
8.1946 0.4058 -2.3980 0.9664
8.1932 0.4565 -2.3984 0.9664
8.1916 0.5072 -2.3987 0.9664
8.1897 0.5580 -2.3991 0.9664
8.1848 0.6595 -2.3999 0.9664
8.1787 0.7609 -2.4007 0.9663
8.1752 0.8116 -2.4011 0.9663
8.1713 0.8622 -2.4015 0.9663
8.1579 1.0142 -2.4027 0.9663
8.1417 1.1659 -2.4039 0.9663
8.1357 1.2165 -2.4042 0.9663
8.1157 1.3678 -2.4054 0.9663
8.1084 1.4182 -2.4058 0.9663
8.1008 1.4686 -2.4062 0.9663
8.0929 1.5189 -2.4066 0.9663
8.0761 1.6194 -2.4074 0.9663
8.0673 1.6696 -2.4078 0.9663
8.0581 1.7197 -2.4082 0.9662
8.0486 1.7698 -2.4086 0.9662
8.0287 1.8698 -2.4093 0.9662
7.9735 2.1189 -2.4113 0.9662
7.9493 2.2181 -2.4121 0.9662
7.9367 2.2676 -2.4125 0.9662
7.9238 2.3170 -2.4129 0.9662
7.9106 2.3663 -2.4133 0.9662
7.8971 2.4156 -2.4136 0.9662
7.8833 2.4648 -2.4140 0.9662
7.8400 2.6118 -2.4152 0.9661
7.8249 2.6607 -2.4156 0.9661
7.8096 2.7095 -2.4160 0.9661
7.7451 2.9037 -2.4175 0.9661
7.7282 2.9520 -2.4179 0.9661
7.7111 3.0002 -2.4183 0.9661
7.6936 3.0483 -2.4187 0.9661
7.6758 3.0963 -2.4190 0.9661
7.6577 3.1442 -2.4194 0.9661
7.6393 3.1920 -2.4198 0.9661
7.6016 3.2873 -2.4206 0.9661
7.5429 3.4293 -2.4217 0.9661
7.5227 3.4765 -2.4221 0.9661
7.4604 3.6171 -2.4232 0.9660
7.4390 3.6637 -2.4236 0.9660
7.4173 3.7102 -2.4239 0.9660
7.3954 3.7566 -2.4243 0.9660
7.3731 3.8029 -2.4247 0.9660
7.3506 3.8490 -2.4251 0.9660
7.3278 3.8950 -2.4254 0.9660
7.3046 3.9408 -2.4258 0.9660
7.2812 3.9865 -2.4262 0.9660
7.2576 4.0321 -2.4265 0.9660
7.2336 4.0775 -2.4269 0.9660
7.1094 4.3024 -2.4287 0.9660
7.0577 4.3913 -2.4294 0.9660
7.0049 4.4795 -2.4302 0.9659
6.9510 4.5672 -2.4309 0.9659
6.8681 4.6974 -2.4319 0.9659
6.7827 4.8261 -2.4330 0.9659
6.6349 5.0370 -2.4347 0.9659
6.6046 5.0787 -2.4350 0.9659
6.4805 5.2434 -2.4364 0.9659
6.3523 5.4051 -2.4377 0.9658
6.3197 5.4450 -2.4381 0.9658
6.2867 5.4847 -2.4384 0.9658
6.2535 5.5242 -2.4387 0.9658
6.1182 5.6802 -2.4400 0.9658
6.0837 5.7187 -2.4403 0.9658
6.0491 5.7569 -2.4406 0.9658
5.9789 5.8328 -2.4413 0.9658
5.9078 5.9079 -2.4419 0.9658
5.7935 5.8656 -2.4096 0.9662
5.6813 5.8236 -2.3779 0.9667
5.5738 5.7845 -2.3478 0.9671
5.4730 5.7507 -2.3203 0.9675
5.3277 5.7385 -2.2886 0.9679
5.2928 5.7721 -2.2889 0.9679
5.2576 5.8054 -2.2892 0.9679
5.1509 5.9041 -2.2900 0.9679
5.1149 5.9365 -2.2903 0.9679
5.0057 6.0325 -2.2911 0.9679
4.9688 6.0641 -2.2913 0.9679
4.9318 6.0954 -2.2916 0.9679
4.8572 6.1574 -2.2921 0.9678
4.7437 6.2486 -2.2929 0.9678
4.7055 6.2785 -2.2932 0.9678
4.6671 6.3082 -2.2934 0.9678
4.5508 6.3958 -2.2942 0.9678
4.5116 6.4245 -2.2944 0.9678
4.4328 6.4812 -2.2949 0.9678
4.3931 6.5091 -2.2952 0.9678
4.3532 6.5369 -2.2954 0.9678
4.3132 6.5643 -2.2956 0.9678
3.9031 6.8252 -2.2979 0.9678
3.8612 6.8498 -2.2982 0.9678
3.8191 6.8742 -2.2984 0.9678
3.6920 6.9458 -2.2990 0.9678
3.6492 6.9692 -2.2992 0.9677
3.6064 6.9922 -2.2994 0.9677
3.5634 7.0150 -2.2996 0.9677
3.5203 7.0375 -2.2998 0.9677
3.4770 7.0598 -2.3000 0.9677
3.4336 7.0818 -2.3002 0.9677
3.3900 7.1035 -2.3004 0.9677
3.3024 7.1461 -2.3008 0.9677
3.2144 7.1875 -2.3012 0.9677
3.1701 7.2079 -2.3014 0.9677
3.0812 7.2477 -2.3018 0.9677
3.0366 7.2672 -2.3019 0.9677
2.9469 7.3053 -2.3023 0.9677
2.9019 7.3239 -2.3025 0.9677
2.8567 7.3423 -2.3026 0.9677
2.7661 7.3781 -2.3030 0.9677
2.7206 7.3957 -2.3031 0.9677
2.6750 7.4128 -2.3033 0.9677
2.5835 7.4464 -2.3036 0.9677
2.4915 7.4788 -2.3039 0.9677
2.4454 7.4946 -2.3041 0.9677
2.3992 7.5101 -2.3043 0.9677
2.3064 7.5402 -2.3046 0.9677
2.2599 7.5548 -2.3047 0.9677
2.1665 7.5831 -2.3050 0.9677
2.1197 7.5968 -2.3051 0.9677
1.9788 7.6362 -2.3056 0.9677
1.8844 7.6610 -2.3058 0.9677
1.7422 7.6959 -2.3062 0.9677
1.6947 7.7069 -2.3063 0.9677
1.5994 7.7280 -2.3065 0.9676
1.5517 7.7382 -2.3067 0.9676
1.4560 7.7575 -2.3069 0.9676
1.4080 7.7667 -2.3070 0.9676
1.3601 7.7756 -2.3071 0.9676
1.3120 7.7842 -2.3072 0.9676
1.1675 7.8082 -2.3075 0.9676
1.1192 7.8156 -2.3076 0.9676
0.9742 7.8359 -2.3078 0.9676
0.8287 7.8534 -2.3081 0.9676
0.7802 7.8586 -2.3081 0.9676
0.6829 7.8682 -2.3083 0.9676
0.6343 7.8725 -2.3083 0.9676
0.5856 7.8764 -2.3084 0.9676
0.5369 7.8801 -2.3085 0.9676
0.4882 7.8835 -2.3085 0.9676
0.3907 7.8893 -2.3086 0.9676
0.3419 7.8918 -2.3087 0.9676
0.2442 7.8957 -2.3088 0.9676
0.1954 7.8973 -2.3088 0.9676
0.1466 7.8985 -2.3089 0.9676
0.0977 7.8994 -2.3089 0.9676
-0.0977 7.9000 -2.3091 0.9676
-0.2931 7.8957 -2.3093 0.9676
-0.3419 7.8938 -2.3093 0.9676
-0.3908 7.8916 -2.3093 0.9676
-0.4396 7.8891 -2.3093 0.9676
-0.4883 7.8863 -2.3093 0.9676
-0.6345 7.8761 -2.3094 0.9676
-0.6833 7.8720 -2.3094 0.9676
-0.7806 7.8630 -2.3094 0.9676
-0.8778 7.8527 -2.3094 0.9676
-0.9263 7.8472 -2.3094 0.9676
-0.9748 7.8413 -2.3094 0.9676
-1.0233 7.8351 -2.3094 0.9676
-1.0717 7.8286 -2.3094 0.9676
-1.2167 7.8072 -2.3094 0.9676
-1.3613 7.7831 -2.3093 0.9676
-1.4094 7.7744 -2.3093 0.9676
-1.6012 7.7367 -2.3091 0.9676
-1.6490 7.7266 -2.3091 0.9676
-1.7444 7.7053 -2.3090 0.9676
-1.7919 7.6942 -2.3090 0.9676
-1.8395 7.6828 -2.3089 0.9676
-1.8869 7.6712 -2.3089 0.9676
-1.9343 7.6592 -2.3088 0.9676
-2.0759 7.6214 -2.3087 0.9676
-2.2167 7.5810 -2.3085 0.9676
-2.2634 7.5669 -2.3084 0.9676
-2.3101 7.5525 -2.3083 0.9676
-2.4032 7.5229 -2.3082 0.9676
-2.4496 7.5076 -2.3081 0.9676
-2.3468 6.9017 -2.1306 0.9701
-2.3912 6.8921 -2.1321 0.9701
