ply
format ascii 1.0
element vertex 1593
property float32 x
property float32 y
property float32 z
property float32 I
end_header
-4.1519 6.3191 -1.8487 0.9693
-4.1995 6.3061 -1.8525 0.9693
-4.4196 6.5484 -1.9317 0.9680
-4.8087 6.4995 -1.9768 0.9673
-4.9457 6.5147 -1.9999 0.9669
-5.0681 6.5071 -2.0167 0.9666
-5.1124 6.4810 -2.0183 0.9666
-5.1436 6.4382 -2.0149 0.9666
-5.2555 6.4954 -2.0429 0.9662
-5.3141 6.4855 -2.0501 0.9661
-5.4279 6.4598 -2.0630 0.9659
-5.4728 6.4319 -2.0649 0.9658
-5.5884 6.4861 -2.0933 0.9654
-5.7004 6.4530 -2.1053 0.9652
-5.6877 6.2804 -2.0717 0.9657
-5.9000 6.2767 -2.1063 0.9651
-6.2469 6.4831 -2.2013 0.9636
-6.3138 6.4720 -2.2107 0.9635
-6.3547 6.4338 -2.2111 0.9634
-6.4032 6.4033 -2.2142 0.9634
-6.5199 6.2824 -2.2138 0.9634
-6.6719 6.1179 -2.2134 0.9634
-6.7093 6.0762 -2.2132 0.9634
-6.7832 5.9922 -2.2130 0.9634
-6.8198 5.9498 -2.2129 0.9634
-6.8562 5.9072 -2.2128 0.9634
-6.9280 5.8214 -2.2126 0.9634
-6.9988 5.7347 -2.2124 0.9634
-7.0338 5.6910 -2.2123 0.9634
-7.1371 5.5588 -2.2119 0.9634
-7.1710 5.5143 -2.2118 0.9634
-7.2047 5.4696 -2.2117 0.9634
-7.3686 5.2430 -2.2112 0.9634
-7.4006 5.1971 -2.2111 0.9634
-7.4323 5.1510 -2.2110 0.9634
-7.4636 5.1047 -2.2109 0.9634
-7.5255 5.0116 -2.2107 0.9635
-7.5561 4.9648 -2.2106 0.9635
-7.7616 4.6317 -2.2100 0.9635
-7.9291 4.5997 -2.2413 0.9630
-8.0330 4.5938 -2.2626 0.9626
-8.1389 4.5878 -2.2844 0.9623
-8.4690 4.5690 -2.3529 0.9611
-8.5238 4.5307 -2.3603 0.9610
-8.5786 4.4246 -2.3601 0.9610
-8.6054 4.3713 -2.3600 0.9610
-8.6320 4.3178 -2.3599 0.9610
-8.6582 4.2642 -2.3598 0.9610
-8.6841 4.2104 -2.3598 0.9610
-8.7349 4.1025 -2.3596 0.9610
-8.7598 4.0482 -2.3595 0.9610
-8.7844 3.9938 -2.3594 0.9610
-8.8325 3.8846 -2.3593 0.9610
-8.8793 3.7748 -2.3591 0.9610
-8.9247 3.6645 -2.3590 0.9611
-8.9688 3.5536 -2.3588 0.9611
-8.9904 3.4979 -2.3587 0.9611
-9.0115 3.4422 -2.3587 0.9611
-9.0529 3.3303 -2.3585 0.9611
-9.1123 3.1615 -2.3583 0.9611
-9.1502 3.0483 -2.3582 0.9611
-9.1687 2.9916 -2.3581 0.9611
-9.2045 2.8779 -2.3580 0.9611
-9.2219 2.8208 -2.3579 0.9611
-9.2389 2.7637 -2.3579 0.9611
-9.2719 2.6490 -2.3578 0.9611
-9.2879 2.5916 -2.3577 0.9611
-9.3337 2.4187 -2.3575 0.9611
-9.3483 2.3608 -2.3575 0.9611
-9.3625 2.3029 -2.3574 0.9611
-9.3763 2.2449 -2.3574 0.9611
-9.3898 2.1869 -2.3573 0.9611
-9.4030 2.1287 -2.3573 0.9611
-9.4403 1.9538 -2.3571 0.9611
-9.4634 1.8368 -2.3571 0.9611
-9.4744 1.7782 -2.3570 0.9611
-9.4953 1.6608 -2.3569 0.9611
-9.5052 1.6020 -2.3569 0.9611
-9.5148 1.5432 -2.3568 0.9611
-9.5240 1.4843 -2.3568 0.9611
-9.5328 1.4254 -2.3568 0.9611
-9.5494 1.3073 -2.3567 0.9611
-9.5646 1.1891 -2.3566 0.9611
-9.5716 1.1299 -2.3566 0.9611
-9.5783 1.0706 -2.3566 0.9611
-9.5846 1.0114 -2.3565 0.9611
-9.5962 0.8927 -2.3565 0.9611
-9.6014 0.8334 -2.3564 0.9611
-9.6062 0.7739 -2.3564 0.9611
-9.6149 0.6550 -2.3564 0.9611
-9.6186 0.5956 -2.3563 0.9611
-9.6251 0.4766 -2.3563 0.9611
-9.6278 0.4170 -2.3563 0.9611
-9.6320 0.2979 -2.3562 0.9611
-9.6348 0.1787 -2.3562 0.9611
-9.6357 0.1192 -2.3562 0.9611
-9.3386 0.0000 -2.3570 0.9622
-9.3383 -0.0578 -2.3570 0.9622
-9.3378 -0.1155 -2.3570 0.9622
-9.3368 -0.1733 -2.3569 0.9622
-9.3356 -0.2310 -2.3569 0.9622
-9.3319 -0.3464 -2.3569 0.9622
-9.3296 -0.4042 -2.3569 0.9622
-9.3204 -0.5771 -2.3569 0.9622
-9.3167 -0.6348 -2.3569 0.9622
-9.3125 -0.6924 -2.3569 0.9622
-9.3033 -0.8075 -2.3569 0.9622
-9.2981 -0.8650 -2.3569 0.9622
-9.2926 -0.9225 -2.3569 0.9622
-9.2805 -1.0374 -2.3569 0.9622
-9.2739 -1.0947 -2.3569 0.9622
-9.2670 -1.1521 -2.3569 0.9622
-9.2521 -1.2666 -2.3569 0.9622
-9.2441 -1.3238 -2.3569 0.9622
-9.2358 -1.3810 -2.3570 0.9622
-9.2087 -1.5521 -2.3570 0.9622
-9.1990 -1.6090 -2.3570 0.9622
-9.1785 -1.7227 -2.3570 0.9622
-9.1678 -1.7795 -2.3570 0.9622
-9.1334 -1.9493 -2.3571 0.9622
-9.0959 -2.1184 -2.3572 0.9622
-9.0692 -2.2308 -2.3572 0.9622
-9.0553 -2.2869 -2.3572 0.9622
-9.0411 -2.3429 -2.3573 0.9622
-9.0266 -2.3987 -2.3573 0.9622
-8.9808 -2.5659 -2.3574 0.9622
-8.9649 -2.6214 -2.3574 0.9622
-8.9321 -2.7322 -2.3575 0.9622
-8.8623 -2.9524 -2.3576 0.9622
-8.8440 -3.0072 -2.3577 0.9622
-8.8254 -3.0619 -2.3577 0.9622
-8.8064 -3.1165 -2.3577 0.9622
-8.7675 -3.2253 -2.3578 0.9622
-8.7476 -3.2795 -2.3579 0.9622
-8.7273 -3.3336 -2.3579 0.9622
-8.7066 -3.3876 -2.3580 0.9622
-8.6209 -3.6022 -2.3581 0.9622
-8.5760 -3.7087 -2.3582 0.9622
-8.5531 -3.7617 -2.3583 0.9622
-8.5063 -3.8674 -2.3584 0.9622
-8.4089 -4.0770 -2.3586 0.9622
-8.3324 -4.2326 -2.3588 0.9622
-8.2260 -4.4379 -2.3590 0.9622
-8.1709 -4.5396 -2.3592 0.9622
-8.0571 -4.7408 -2.3594 0.9622
-8.0279 -4.7907 -2.3595 0.9622
-7.9383 -4.9392 -2.3597 0.9622
-7.9079 -4.9884 -2.3598 0.9622
-7.8771 -5.0374 -2.3599 0.9622
-7.8147 -5.1347 -2.3600 0.9622
-7.7511 -5.2313 -2.3602 0.9622
-7.6204 -5.4222 -2.3605 0.9622
-7.5869 -5.4694 -2.3606 0.9622
-7.5532 -5.5164 -2.3607 0.9621
-7.5192 -5.5632 -2.3607 0.9621
-7.4850 -5.6098 -2.3608 0.9621
-7.4156 -5.7023 -2.3610 0.9621
-7.3450 -5.7940 -2.3612 0.9621
-7.2733 -5.8849 -2.3613 0.9621
-7.2371 -5.9300 -2.3614 0.9621
-7.1637 -6.0195 -2.3616 0.9621
-7.1266 -6.0639 -2.3617 0.9621
-7.0516 -6.1521 -2.3619 0.9621
-7.0138 -6.1958 -2.3620 0.9621
-6.9756 -6.2393 -2.3621 0.9621
-6.9371 -6.2826 -2.3622 0.9621
-6.8985 -6.3257 -2.3623 0.9621
-6.8595 -6.3685 -2.3624 0.9621
-6.8203 -6.4110 -2.3625 0.9621
-6.7410 -6.4955 -2.3627 0.9621
-6.6202 -6.6202 -2.3630 0.9621
-6.5794 -6.6613 -2.3631 0.9621
-6.5384 -6.7022 -2.3632 0.9621
-6.4971 -6.7428 -2.3633 0.9621
-6.4138 -6.8233 -2.3635 0.9621
-6.2870 -6.9421 -2.3638 0.9621
-6.2442 -6.9811 -2.3639 0.9621
-6.2012 -7.0199 -2.3641 0.9621
-6.1579 -7.0585 -2.3642 0.9621
-6.1145 -7.0967 -2.3643 0.9621
-5.8487 -7.3208 -2.3650 0.9621
-5.5748 -7.5350 -2.3657 0.9621
-5.4348 -7.6383 -2.3660 0.9621
-5.3878 -7.6721 -2.3662 0.9621
-5.3405 -7.7057 -2.3663 0.9621
-5.1974 -7.8047 -2.3667 0.9621
-5.1011 -7.8692 -2.3669 0.9621
-5.0526 -7.9010 -2.3670 0.9620
-5.0039 -7.9326 -2.3672 0.9620
-4.8567 -8.0253 -2.3675 0.9620
-4.7576 -8.0857 -2.3678 0.9620
-4.6577 -8.1448 -2.3681 0.9620
-4.6075 -8.1739 -2.3682 0.9620
-4.5571 -8.2027 -2.3683 0.9620
-4.5066 -8.2312 -2.3685 0.9620
-4.4049 -8.2873 -2.3687 0.9620
-4.3026 -8.3421 -2.3690 0.9620
-4.2511 -8.3690 -2.3691 0.9620
-4.1996 -8.3956 -2.3693 0.9620
-4.0959 -8.4479 -2.3696 0.9620
-4.0438 -8.4735 -2.3697 0.9620
-3.9915 -8.4989 -2.3698 0.9620
-3.9391 -8.5239 -2.3700 0.9620
-3.6748 -8.6442 -2.3707 0.9620
-3.5680 -8.6900 -2.3710 0.9620
-3.4607 -8.7346 -2.3712 0.9620
-3.3528 -8.7777 -2.3715 0.9620
-3.2987 -8.7988 -2.3717 0.9620
-3.1353 -8.8601 -2.3721 0.9620
-2.9711 -8.9185 -2.3726 0.9620
-2.9161 -8.9372 -2.3727 0.9620
-2.8609 -8.9556 -2.3729 0.9620
-2.8057 -8.9737 -2.3730 0.9620
-2.7503 -8.9915 -2.3731 0.9620
-2.6948 -9.0089 -2.3733 0.9620
-2.6392 -9.0260 -2.3734 0.9619
-2.3034 -9.1211 -2.3744 0.9619
-2.2471 -9.1358 -2.3745 0.9619
-2.1342 -9.1640 -2.3748 0.9619
-2.0777 -9.1777 -2.3750 0.9619
-2.0210 -9.1909 -2.3751 0.9619
-1.9642 -9.2038 -2.3753 0.9619
-1.8504 -9.2286 -2.3756 0.9619
-1.6221 -9.2740 -2.3762 0.9619
-1.5074 -9.2946 -2.3765 0.9619
-1.3350 -9.3228 -2.3770 0.9619
-1.2774 -9.3315 -2.3771 0.9619
-1.2198 -9.3398 -2.3773 0.9619
-1.1621 -9.3478 -2.3775 0.9619
-1.1043 -9.3554 -2.3776 0.9619
-0.8728 -9.3824 -2.3783 0.9619
-0.7568 -9.3938 -2.3786 0.9619
-0.6406 -9.4036 -2.3789 0.9619
-0.4662 -9.4158 -2.3794 0.9619
-0.4080 -9.4191 -2.3795 0.9619
-0.2914 -9.4247 -2.3798 0.9618
-0.2332 -9.4270 -2.3800 0.9618
-0.1749 -9.4289 -2.3802 0.9618
0.0000 -9.4325 -2.3807 0.9618
0.1167 -9.4330 -2.3810 0.9618
0.5251 -9.4236 -2.3821 0.9618
0.5834 -9.4208 -2.3823 0.9618
0.7000 -9.4142 -2.3826 0.9618
0.8165 -9.4060 -2.3829 0.9618
0.9910 -9.3912 -2.3834 0.9618
1.1073 -9.3795 -2.3837 0.9618
1.1653 -9.3731 -2.3839 0.9618
1.3393 -9.3518 -2.3844 0.9618
1.3971 -9.3440 -2.3845 0.9618
1.4550 -9.3358 -2.3847 0.9618
1.5128 -9.3272 -2.3849 0.9618
1.5706 -9.3183 -2.3850 0.9618
1.6283 -9.3091 -2.3852 0.9618
1.7435 -9.2895 -2.3855 0.9618
1.8586 -9.2684 -2.3858 0.9618
1.9160 -9.2574 -2.3860 0.9618
1.9733 -9.2460 -2.3862 0.9617
2.0306 -9.2342 -2.3863 0.9617
2.0878 -9.2221 -2.3865 0.9617
2.2020 -9.1969 -2.3868 0.9617
2.3727 -9.1563 -2.3873 0.9617
2.4295 -9.1420 -2.3874 0.9617
2.4861 -9.1275 -2.3876 0.9617
2.5427 -9.1125 -2.3878 0.9617
2.5991 -9.0972 -2.3879 0.9617
2.7118 -9.0656 -2.3882 0.9617
2.7680 -9.0492 -2.3884 0.9617
2.8241 -9.0325 -2.3886 0.9617
2.8801 -9.0155 -2.3887 0.9617
3.1585 -8.9251 -2.3895 0.9617
3.2691 -8.8865 -2.3898 0.9617
3.4341 -8.8261 -2.3903 0.9617
3.4888 -8.8053 -2.3904 0.9617
3.7606 -8.6960 -2.3912 0.9617
3.9220 -8.6264 -2.3917 0.9617
4.0822 -8.5539 -2.3921 0.9617
4.1352 -8.5290 -2.3923 0.9617
4.2936 -8.4524 -2.3928 0.9616
4.3461 -8.4262 -2.3929 0.9616
4.3983 -8.3997 -2.3931 0.9616
4.5543 -8.3182 -2.3935 0.9616
4.6059 -8.2904 -2.3937 0.9616
4.7087 -8.2338 -2.3940 0.9616
4.7598 -8.2051 -2.3941 0.9616
4.9121 -8.1168 -2.3945 0.9616
4.9625 -8.0868 -2.3947 0.9616
5.0127 -8.0565 -2.3948 0.9616
5.0628 -8.0258 -2.3950 0.9616
5.1126 -7.9948 -2.3951 0.9616
5.1622 -7.9635 -2.3953 0.9616
5.2118 -7.9319 -2.3954 0.9616
5.4076 -7.8025 -2.3960 0.9616
5.4561 -7.7693 -2.3961 0.9616
5.5044 -7.7359 -2.3963 0.9616
5.6003 -7.6681 -2.3965 0.9616
5.6479 -7.6338 -2.3967 0.9616
5.7896 -7.5290 -2.3971 0.9616
5.8363 -7.4935 -2.3972 0.9616
5.8829 -7.4576 -2.3974 0.9616
5.9754 -7.3852 -2.3976 0.9616
6.0213 -7.3485 -2.3978 0.9616
6.0669 -7.3115 -2.3979 0.9616
6.2026 -7.1989 -2.3983 0.9616
6.2474 -7.1608 -2.3985 0.9616
6.2918 -7.1225 -2.3986 0.9616
6.3361 -7.0838 -2.3987 0.9616
6.3801 -7.0448 -2.3988 0.9615
6.4239 -7.0056 -2.3990 0.9615
6.4675 -6.9662 -2.3991 0.9615
6.5108 -6.9264 -2.3992 0.9615
6.6392 -6.8055 -2.3996 0.9615
6.6816 -6.7647 -2.3997 0.9615
6.7236 -6.7236 -2.3999 0.9615
6.7654 -6.6822 -2.4000 0.9615
6.8070 -6.6406 -2.4001 0.9615
6.8482 -6.5987 -2.4002 0.9615
6.9301 -6.5142 -2.4005 0.9615
6.9705 -6.4715 -2.4006 0.9615
7.0508 -6.3855 -2.4009 0.9615
7.2080 -6.2103 -2.4013 0.9615
7.2850 -6.1213 -2.4016 0.9615
7.3983 -5.9859 -2.4019 0.9615
7.4355 -5.9404 -2.4020 0.9615
7.5092 -5.8485 -2.4022 0.9615
7.5816 -5.7557 -2.4025 0.9615
7.6529 -5.6620 -2.4027 0.9615
7.7231 -5.5675 -2.4029 0.9615
7.7920 -5.4720 -2.4031 0.9615
7.8598 -5.3757 -2.4033 0.9615
8.0239 -5.1312 -2.4038 0.9615
8.0558 -5.0817 -2.4039 0.9615
8.0874 -5.0320 -2.4040 0.9615
8.1187 -4.9820 -2.4041 0.9615
8.1804 -4.8817 -2.4043 0.9615
8.2108 -4.8312 -2.4044 0.9615
8.2408 -4.7805 -2.4045 0.9615
8.2705 -4.7296 -2.4046 0.9615
8.2999 -4.6786 -2.4047 0.9615
8.3578 -4.5759 -2.4049 0.9615
8.4422 -4.4205 -2.4051 0.9614
8.4697 -4.3684 -2.4052 0.9614
8.5237 -4.2636 -2.4054 0.9614
8.5764 -4.1582 -2.4056 0.9614
8.6022 -4.1052 -2.4057 0.9614
8.6529 -3.9987 -2.4058 0.9614
8.7023 -3.8917 -2.4060 0.9614
8.7970 -3.6757 -2.4063 0.9614
8.8198 -3.6214 -2.4064 0.9614
8.9497 -3.2923 -2.4068 0.9614
9.0295 -3.0703 -2.4071 0.9614
9.0485 -3.0145 -2.4071 0.9614
9.0856 -2.9025 -2.4073 0.9614
9.1036 -2.8463 -2.4073 0.9614
9.1213 -2.7900 -2.4074 0.9614
9.1555 -2.6771 -2.4075 0.9614
9.1721 -2.6205 -2.4076 0.9614
9.2198 -2.4501 -2.4077 0.9614
9.2350 -2.3931 -2.4078 0.9614
9.2498 -2.3359 -2.4079 0.9614
9.2784 -2.2215 -2.4080 0.9614
9.3186 -2.0491 -2.4081 0.9614
9.3784 -1.7602 -2.4083 0.9614
9.3893 -1.7022 -2.4084 0.9614
9.3998 -1.6441 -2.4084 0.9614
9.4198 -1.5278 -2.4085 0.9614
9.4469 -1.3529 -2.4086 0.9614
9.4632 -1.2359 -2.4087 0.9614
9.4781 -1.1188 -2.4088 0.9614
9.4975 -0.9429 -2.4089 0.9614
9.5033 -0.8841 -2.4089 0.9614
9.5184 -0.7077 -2.4090 0.9614
9.5227 -0.6488 -2.4090 0.9614
9.5266 -0.5899 -2.4090 0.9614
9.5334 -0.4721 -2.4091 0.9614
9.5362 -0.4131 -2.4091 0.9614
9.5424 -0.2361 -2.4091 0.9614
9.5448 -0.1181 -2.4092 0.9614
9.5456 -0.0000 -2.4092 0.9614
9.5455 0.0590 -2.4092 0.9614
9.5450 0.1181 -2.4092 0.9614
9.5441 0.1771 -2.4092 0.9614
9.5429 0.2361 -2.4093 0.9614
9.5393 0.3540 -2.4093 0.9614
9.5342 0.4721 -2.4093 0.9614
9.5311 0.5311 -2.4093 0.9614
9.5151 0.7666 -2.4093 0.9614
9.5102 0.8254 -2.4093 0.9614
9.5049 0.8842 -2.4093 0.9614
9.4801 1.1191 -2.4093 0.9614
9.4576 1.2947 -2.4093 0.9614
9.4494 1.3532 -2.4093 0.9614
9.4225 1.5282 -2.4092 0.9614
9.4129 1.5865 -2.4092 0.9614
9.4028 1.6446 -2.4092 0.9614
9.3924 1.7027 -2.4092 0.9614
9.3589 1.8767 -2.4091 0.9614
9.3471 1.9345 -2.4091 0.9614
9.3348 1.9922 -2.4091 0.9614
9.3223 2.0499 -2.4091 0.9614
9.3093 2.1075 -2.4090 0.9614
9.2393 2.3942 -2.4089 0.9614
9.2242 2.4512 -2.4089 0.9614
9.2087 2.5082 -2.4089 0.9614
9.1768 2.6218 -2.4088 0.9614
9.1602 2.6785 -2.4088 0.9614
9.1434 2.7350 -2.4087 0.9614
9.1086 2.8478 -2.4087 0.9614
9.0906 2.9041 -2.4086 0.9614
9.0724 2.9602 -2.4086 0.9614
9.0538 3.0162 -2.4085 0.9614
9.0348 3.0721 -2.4085 0.9614
8.9958 3.1835 -2.4084 0.9614
8.9347 3.3496 -2.4083 0.9614
8.9137 3.4047 -2.4082 0.9614
8.8922 3.4597 -2.4082 0.9614
8.8705 3.5146 -2.4081 0.9614
8.8484 3.5693 -2.4081 0.9614
8.7088 3.8946 -2.4078 0.9614
8.6843 3.9483 -2.4077 0.9614
8.6344 4.0552 -2.4076 0.9614
8.6090 4.1084 -2.4076 0.9614
8.5832 4.1615 -2.4075 0.9614
8.4768 4.3721 -2.4073 0.9614
8.3364 4.6314 -2.4069 0.9614
8.3074 4.6827 -2.4069 0.9614
8.2183 4.8356 -2.4066 0.9614
8.1574 4.9366 -2.4065 0.9614
8.0952 5.0368 -2.4063 0.9614
8.0318 5.1362 -2.4062 0.9614
7.6753 5.1800 -2.3370 0.9625
7.4228 5.1444 -2.2794 0.9634
7.2692 5.1722 -2.2517 0.9639
7.1712 5.3056 -2.2515 0.9639
7.1380 5.3497 -2.2514 0.9639
7.1045 5.3935 -2.2513 0.9639
7.0368 5.4806 -2.2511 0.9639
6.8980 5.6521 -2.2508 0.9639
6.8626 5.6944 -2.2507 0.9639
6.8270 5.7365 -2.2506 0.9639
6.7187 5.8615 -2.2503 0.9639
6.6820 5.9026 -2.2502 0.9639
6.5705 6.0249 -2.2500 0.9639
6.3408 6.2628 -2.2494 0.9639
6.3017 6.3017 -2.2493 0.9639
6.2623 6.3402 -2.2492 0.9639
6.2227 6.3785 -2.2491 0.9639
6.1829 6.4166 -2.2490 0.9639
6.1428 6.4544 -2.2489 0.9639
6.0620 6.5293 -2.2487 0.9639
6.0212 6.5664 -2.2486 0.9639
5.9802 6.6032 -2.2485 0.9639
5.9389 6.6397 -2.2484 0.9639
5.8558 6.7120 -2.2481 0.9639
5.7943 6.7250 -2.2405 0.9640
5.2488 6.4872 -2.1061 0.9662
5.3766 6.7298 -2.1741 0.9651
5.1256 6.6656 -2.1222 0.9659
4.7804 6.4613 -2.0286 0.9674
4.9196 6.7362 -2.1053 0.9662
4.8656 6.7494 -2.1000 0.9663
4.5345 6.4570 -1.9914 0.9680
4.6514 6.7113 -2.0609 0.9669
4.5673 6.6779 -2.0419 0.9672
4.4969 6.6630 -2.0289 0.9674
4.4436 6.6727 -2.0234 0.9675
4.3940 6.6875 -2.0196 0.9675
4.1865 6.4582 -1.9425 0.9687
4.0697 6.6319 -1.9639 0.9684
4.0068 6.6209 -1.9532 0.9686
3.9724 6.6567 -1.9565 0.9685
3.9316 6.6819 -1.9567 0.9685
3.8825 6.6928 -1.9528 0.9686
3.6768 6.6182 -1.9108 0.9692
3.5297 6.4469 -1.8551 0.9701
3.5399 6.6597 -1.9035 0.9694
3.4504 6.6897 -1.8998 0.9694
3.4044 6.7020 -1.8973 0.9695
3.2746 6.6489 -1.8706 0.9699
3.1726 6.5436 -1.8354 0.9704
3.1832 6.6703 -1.8654 0.9700
3.0842 6.6738 -1.8556 0.9701
2.9087 6.6136 -1.8235 0.9706
2.7792 6.4267 -1.7672 0.9715
2.8149 6.6213 -1.8159 0.9708
2.7669 6.6220 -1.8114 0.9708
2.7157 6.6140 -1.8045 0.9709
2.6648 6.6060 -1.7978 0.9710
2.6446 6.6746 -1.8120 0.9708
2.4809 6.6173 -1.7836 0.9713
2.4390 6.6302 -1.7830 0.9713
2.3767 6.7159 -1.7980 0.9710
2.0985 6.4316 -1.7075 0.9725
2.1272 6.6587 -1.7643 0.9716
1.9202 6.4191 -1.6911 0.9727
1.8768 6.4184 -1.6878 0.9728
1.7132 6.6114 -1.7238 0.9722
1.5816 6.6058 -1.7144 0.9724
1.5391 6.6086 -1.7126 0.9724
1.4526 6.6057 -1.7071 0.9725
1.4049 6.5826 -1.6988 0.9726
1.2835 6.4009 -1.6477 0.9734
1.2912 6.6523 -1.7103 0.9724
1.1998 6.6181 -1.6976 0.9726
1.1577 6.6189 -1.6959 0.9727
1.0375 6.3967 -1.6356 0.9736
0.9105 6.6510 -1.6943 0.9727
0.8692 6.6555 -1.6940 0.9727
0.8277 6.6575 -1.6932 0.9727
0.7822 6.6262 -1.6840 0.9728
0.7363 6.5872 -1.6729 0.9730
0.6566 6.6140 -1.6775 0.9730
0.5950 6.3962 -1.6213 0.9738
0.5551 6.3955 -1.6202 0.9739
0.4886 6.5712 -1.6631 0.9732
0.4475 6.5673 -1.6614 0.9732
0.2433 6.5541 -1.6553 0.9733
0.2037 6.5837 -1.6625 0.9732
0.1620 6.5447 -1.6523 0.9734
0.1226 6.6067 -1.6678 0.9731
0.0821 6.6385 -1.6756 0.9730
0.0395 6.3866 -1.6120 0.9740
0.0000 6.3859 -1.6118 0.9740
-0.2033 6.5725 -1.6596 0.9732
-0.2435 6.5606 -1.6570 0.9733
-0.3286 6.6376 -1.6773 0.9730
-0.3699 6.6391 -1.6782 0.9729
-0.4341 6.3712 -1.6118 0.9740
-0.4736 6.3706 -1.6123 0.9740
-0.6092 6.5483 -1.6599 0.9732
-0.6482 6.5300 -1.6562 0.9733
-0.6719 6.3671 -1.6159 0.9739
-0.7116 6.3664 -1.6168 0.9739
-0.7753 6.5679 -1.6692 0.9731
-0.8183 6.5822 -1.6741 0.9730
-0.8571 6.5627 -1.6704 0.9731
-1.0176 6.5296 -1.6679 0.9731
-1.1139 6.6091 -1.6916 0.9727
-1.1495 6.5722 -1.6839 0.9729
-1.1935 6.5830 -1.6886 0.9728
-1.2353 6.3646 -1.6363 0.9736
-1.3158 6.5621 -1.6892 0.9728
-1.3972 6.5470 -1.6896 0.9728
-1.5361 6.5955 -1.7092 0.9724
-1.5761 6.5828 -1.7084 0.9725
-1.6113 6.5510 -1.7027 0.9726
-1.6057 6.3582 -1.6551 0.9733
-1.7491 6.5823 -1.7190 0.9723
-1.9075 6.5234 -1.7154 0.9724
-1.9542 6.5331 -1.7211 0.9723
-1.9989 6.5351 -1.7248 0.9722
-2.0433 6.5355 -1.7282 0.9721
-2.1249 6.5124 -1.7290 0.9721
-2.1999 6.3407 -1.6939 0.9727
-2.4674 6.5814 -1.7740 0.9714
-2.5249 6.4895 -1.7575 0.9717
-2.5726 6.4929 -1.7627 0.9716
-2.6642 6.4887 -1.7704 0.9715
-2.7384 6.4415 -1.7666 0.9715
-2.7754 6.4181 -1.7648 0.9716
-2.9278 6.5468 -1.8101 0.9708
-3.1065 6.5095 -1.8204 0.9707
-3.0704 6.3329 -1.7763 0.9714
-3.2662 6.5297 -1.8427 0.9703
-3.2156 6.3303 -1.7920 0.9711
-3.3605 6.5154 -1.8503 0.9702
-3.3138 6.3286 -1.8030 0.9710
-3.5225 6.5294 -1.8725 0.9699
-3.5753 6.5303 -1.8790 0.9698
-3.6420 6.5555 -1.8927 0.9695
-3.7025 6.5683 -1.9030 0.9694
-3.7946 6.5412 -1.9086 0.9693
-3.8404 6.5269 -1.9113 0.9692
-3.8932 6.5240 -1.9175 0.9691
-3.9266 6.3108 -1.8759 0.9698
-4.1173 6.5271 -1.9477 0.9687
-4.2063 6.5777 -1.9706 0.9683
-4.1521 6.3193 -1.9084 0.9693
-4.1995 6.3061 -1.9122 0.9692
-4.8837 6.5162 -2.0552 0.9670
-4.9634 6.5380 -2.0718 0.9667
-4.9905 6.4899 -2.0663 0.9668
-5.1056 6.4723 -2.0806 0.9666
-5.2978 6.5478 -2.1258 0.9658
-5.2938 6.3001 -2.0769 0.9666
-5.3545 6.2929 -2.0854 0.9665
-5.6165 6.4377 -2.1563 0.9654
-5.6781 6.4277 -2.1646 0.9652
-5.8088 6.4943 -2.1991 0.9647
-5.6877 6.2803 -2.1385 0.9656
-5.9721 6.4326 -2.2154 0.9644
-5.9000 6.2767 -2.1742 0.9651
-6.0506 6.3576 -2.2151 0.9644
-6.1665 6.2433 -2.2148 0.9644
-6.2047 6.2047 -2.2147 0.9644
-6.3177 6.0876 -2.2143 0.9645
-6.3549 6.0481 -2.2142 0.9645
-6.4286 5.9684 -2.2140 0.9645
-6.4651 5.9283 -2.2139 0.9645
-6.5372 5.8473 -2.2137 0.9645
-6.5730 5.8065 -2.2136 0.9645
-6.6084 5.7654 -2.2134 0.9645
-6.6437 5.7242 -2.2133 0.9645
-6.6786 5.6827 -2.2132 0.9645
-6.7133 5.6410 -2.2131 0.9645
-6.7477 5.5991 -2.2130 0.9645
-6.8495 5.4722 -2.2127 0.9645
-6.9488 5.3434 -2.2124 0.9645
-6.9814 5.3001 -2.2123 0.9645
-7.0138 5.2566 -2.2122 0.9645
-7.0458 5.2129 -2.2121 0.9645
-7.0776 5.1690 -2.2120 0.9645
-7.1091 5.1249 -2.2119 0.9645
-7.1404 5.0806 -2.2118 0.9645
-7.1714 5.0362 -2.2117 0.9645
-7.3514 4.7655 -2.2112 0.9645
-7.3804 4.7197 -2.2111 0.9645
-7.4092 4.6738 -2.2110 0.9645
-7.6094 4.6050 -2.2449 0.9640
-7.7073 4.5994 -2.2653 0.9636
-7.9086 4.5878 -2.3076 0.9630
-8.0120 4.5818 -2.3295 0.9626
-8.2057 4.4926 -2.3611 0.9621
-8.2330 4.4416 -2.3611 0.9621
-8.2867 4.3392 -2.3609 0.9621
-8.3131 4.2877 -2.3608 0.9621
-8.4154 4.0802 -2.3605 0.9622
-8.4888 3.9229 -2.3602 0.9622
-8.5126 3.8703 -2.3602 0.9622
-8.5821 3.7113 -2.3599 0.9622
-8.7123 3.3898 -2.3595 0.9622
-8.7530 3.2815 -2.3594 0.9622
-8.7925 3.1729 -2.3592 0.9622
-8.8491 3.0090 -2.3590 0.9622
-8.8673 2.9541 -2.3590 0.9622
-8.8852 2.8991 -2.3589 0.9622
-8.9027 2.8440 -2.3588 0.9622
-9.0007 2.5115 -2.3585 0.9622
-9.0159 2.4557 -2.3584 0.9622
-9.0865 2.1755 -2.3582 0.9622
-9.1124 2.0629 -2.3581 0.9622
-9.1368 1.9500 -2.3580 0.9622
-9.1816 1.7232 -2.3578 0.9622
-9.2019 1.6095 -2.3577 0.9622
-9.2115 1.5525 -2.3577 0.9622
-9.2207 1.4955 -2.3576 0.9622
-9.2297 1.4384 -2.3576 0.9622
-9.2383 1.3813 -2.3576 0.9622
-9.2465 1.3241 -2.3575 0.9622
-9.2543 1.2669 -2.3575 0.9622
-9.2690 1.1523 -2.3574 0.9622
-9.2759 1.0950 -2.3574 0.9622
-9.2885 0.9801 -2.3573 0.9622
-9.3047 0.8076 -2.3573 0.9622
-9.3138 0.6924 -2.3572 0.9622
-9.3277 0.4618 -2.3571 0.9622
-9.3372 0.1732 -2.3570 0.9622
-9.3384 0.0577 -2.3570 0.9622
-9.0575 -0.0560 -2.3577 0.9633
-9.0548 -0.2240 -2.3577 0.9633
-9.0512 -0.3360 -2.3577 0.9633
-9.0490 -0.3920 -2.3577 0.9633
-9.0434 -0.5039 -2.3577 0.9633
-9.0401 -0.5598 -2.3577 0.9633
-9.0365 -0.6157 -2.3577 0.9633
-9.0325 -0.6716 -2.3577 0.9633
-9.0131 -0.8948 -2.3577 0.9633
-9.0074 -0.9505 -2.3577 0.9633
-8.9812 -1.1730 -2.3577 0.9633
-8.9661 -1.2840 -2.3577 0.9633
-8.9580 -1.3394 -2.3577 0.9633
-8.9496 -1.3948 -2.3577 0.9633
-8.9409 -1.4502 -2.3578 0.9633
-8.9318 -1.5054 -2.3578 0.9633
-8.9223 -1.5606 -2.3578 0.9633
-8.9126 -1.6158 -2.3578 0.9633
-8.9025 -1.6709 -2.3578 0.9633
-8.8701 -1.8358 -2.3579 0.9633
-8.8587 -1.8906 -2.3579 0.9633
-8.8469 -1.9454 -2.3579 0.9633
-8.8223 -2.0547 -2.3579 0.9633
-8.7964 -2.1637 -2.3580 0.9633
-8.7691 -2.2724 -2.3580 0.9632
-8.7406 -2.3807 -2.3581 0.9632
-8.7107 -2.4887 -2.3581 0.9632
-8.6952 -2.5425 -2.3582 0.9632
-8.6795 -2.5963 -2.3582 0.9632
-8.6469 -2.7035 -2.3583 0.9632
-8.6131 -2.8104 -2.3583 0.9632
-8.5228 -3.0756 -2.3585 0.9632
-8.5037 -3.1282 -2.3586 0.9632
-8.4647 -3.2333 -2.3587 0.9632
-8.4447 -3.2856 -2.3587 0.9632
-8.3615 -3.4938 -2.3589 0.9632
-8.3180 -3.5971 -2.3590 0.9632
-8.2957 -3.6485 -2.3590 0.9632
-8.2732 -3.6998 -2.3591 0.9632
-8.2503 -3.7510 -2.3591 0.9632
-8.2271 -3.8020 -2.3592 0.9632
-8.1558 -3.9543 -2.3593 0.9632
-8.0816 -4.1052 -2.3595 0.9632
-8.0306 -4.2051 -2.3596 0.9632
-8.0046 -4.2548 -2.3597 0.9632
-7.9784 -4.3043 -2.3598 0.9632
-7.9518 -4.3537 -2.3598 0.9632
-7.8978 -4.4519 -2.3599 0.9632
-7.8703 -4.5008 -2.3600 0.9632
-7.7861 -4.6464 -2.3602 0.9632
-7.7575 -4.6947 -2.3603 0.9632
-7.6697 -4.8382 -2.3605 0.9632
-7.6399 -4.8857 -2.3606 0.9632
-7.5794 -4.9801 -2.3607 0.9632
-7.5486 -5.0270 -2.3608 0.9632
-7.4864 -5.1203 -2.3609 0.9632
-7.4548 -5.1667 -2.3610 0.9632
-7.4230 -5.2129 -2.3611 0.9632
-7.3908 -5.2589 -2.3612 0.9632
-7.3257 -5.3502 -2.3613 0.9632
-7.2595 -5.4408 -2.3615 0.9632
-7.2259 -5.4858 -2.3616 0.9632
-7.1921 -5.5305 -2.3617 0.9632
-7.0890 -5.6636 -2.3619 0.9632
-7.0542 -5.7076 -2.3620 0.9632
-7.0190 -5.7513 -2.3621 0.9632
-6.9835 -5.7948 -2.3622 0.9632
-6.8391 -5.9667 -2.3625 0.9632
-6.8024 -6.0091 -2.3626 0.9632
-6.6905 -6.1350 -2.3629 0.9632
-6.6527 -6.1765 -2.3630 0.9632
-6.6146 -6.2178 -2.3631 0.9632
-6.5763 -6.2588 -2.3632 0.9632
-6.4990 -6.3402 -2.3634 0.9632
-6.4599 -6.3805 -2.3635 0.9632
-6.4206 -6.4206 -2.3636 0.9632
-6.3412 -6.5001 -2.3638 0.9632
-6.2609 -6.5786 -2.3640 0.9632
-6.2204 -6.6175 -2.3641 0.9632
-6.1386 -6.6945 -2.3643 0.9632
-6.0973 -6.7327 -2.3644 0.9632
-6.0142 -6.8082 -2.3646 0.9631
-5.9300 -6.8826 -2.3648 0.9631
-5.8450 -6.9561 -2.3651 0.9631
-5.8021 -6.9924 -2.3652 0.9631
-5.7590 -7.0285 -2.3653 0.9631
-5.6284 -7.1352 -2.3656 0.9631
-5.5403 -7.2049 -2.3658 0.9631
-5.4959 -7.2394 -2.3660 0.9631
-5.3162 -7.3746 -2.3664 0.9631
-5.2251 -7.4405 -2.3667 0.9631
-4.9939 -7.6004 -2.3673 0.9631
-4.8053 -7.7233 -2.3678 0.9631
-4.7100 -7.7829 -2.3680 0.9631
-4.6620 -7.8123 -2.3681 0.9631
-4.6138 -7.8414 -2.3683 0.9631
-4.4194 -7.9548 -2.3688 0.9631
-4.3704 -7.9825 -2.3689 0.9631
-4.3212 -8.0098 -2.3690 0.9631
-4.2718 -8.0368 -2.3692 0.9631
-4.1725 -8.0899 -2.3694 0.9631
-3.9720 -8.1925 -2.3700 0.9631
-3.8200 -8.2661 -2.3704 0.9631
-3.6666 -8.3370 -2.3708 0.9631
-3.5637 -8.3827 -2.3710 0.9631
-3.5119 -8.4051 -2.3712 0.9630
-3.2514 -8.5122 -2.3719 0.9630
-3.1462 -8.5527 -2.3722 0.9630
-3.0935 -8.5725 -2.3723 0.9630
-2.9344 -8.6300 -2.3727 0.9630
-2.7743 -8.6845 -2.3732 0.9630
-2.7207 -8.7020 -2.3733 0.9630
-2.5592 -8.7526 -2.3737 0.9630
-2.5052 -8.7688 -2.3739 0.9630
-2.4511 -8.7847 -2.3740 0.9630
-2.3969 -8.8002 -2.3742 0.9630
-2.0147 -8.8996 -2.3752 0.9630
-1.9597 -8.9124 -2.3754 0.9630
-1.7391 -8.9604 -2.3760 0.9630
-1.6838 -8.9716 -2.3761 0.9630
-1.5729 -8.9929 -2.3764 0.9630
-1.5174 -9.0030 -2.3766 0.9630
-1.4618 -9.0128 -2.3767 0.9630
-1.4061 -9.0222 -2.3769 0.9630
-1.3503 -9.0313 -2.3770 0.9630
-1.1268 -9.0643 -2.3776 0.9629
-1.0708 -9.0717 -2.3778 0.9629
-1.0148 -9.0787 -2.3779 0.9629
-0.9587 -9.0854 -2.3781 0.9629
-0.7901 -9.1034 -2.3785 0.9629
-0.7338 -9.1087 -2.3787 0.9629
-0.6775 -9.1136 -2.3789 0.9629
-0.6212 -9.1183 -2.3790 0.9629
-0.5648 -9.1225 -2.3792 0.9629
-0.5085 -9.1264 -2.3793 0.9629
-0.4520 -9.1300 -2.3795 0.9629
-0.3956 -9.1332 -2.3796 0.9629
-0.3391 -9.1361 -2.3798 0.9629
-0.1696 -9.1426 -2.3803 0.9629
-0.0565 -9.1452 -2.3806 0.9629
0.0566 -9.1464 -2.3809 0.9629
0.2829 -9.1446 -2.3815 0.9629
0.3395 -9.1433 -2.3817 0.9629
0.3960 -9.1416 -2.3818 0.9629
0.5091 -9.1372 -2.3821 0.9629
0.6222 -9.1314 -2.3824 0.9629
0.6787 -9.1280 -2.3826 0.9629
0.7916 -9.1201 -2.3829 0.9629
0.8481 -9.1157 -2.3831 0.9629
0.9045 -9.1108 -2.3832 0.9629
1.0736 -9.0943 -2.3837 0.9629
1.1299 -9.0881 -2.3839 0.9629
1.2424 -9.0746 -2.3842 0.9628
1.2985 -9.0673 -2.3843 0.9628
1.3547 -9.0597 -2.3845 0.9628
1.6346 -9.0165 -2.3853 0.9628
1.8020 -8.9864 -2.3857 0.9628
1.9132 -8.9646 -2.3861 0.9628
1.9688 -8.9532 -2.3862 0.9628
2.0796 -8.9293 -2.3865 0.9628
2.1350 -8.9168 -2.3867 0.9628
2.3004 -8.8774 -2.3871 0.9628
2.3554 -8.8636 -2.3873 0.9628
2.4104 -8.8494 -2.3875 0.9628
2.5200 -8.8201 -2.3878 0.9628
2.5747 -8.8049 -2.3879 0.9628
2.6292 -8.7894 -2.3881 0.9628
2.7924 -8.7408 -2.3885 0.9628
2.8465 -8.7239 -2.3887 0.9628
2.9006 -8.7067 -2.3888 0.9628
2.9546 -8.6892 -2.3890 0.9628
3.0085 -8.6713 -2.3891 0.9628
3.0622 -8.6531 -2.3893 0.9628
3.1159 -8.6345 -2.3895 0.9628
3.2229 -8.5964 -2.3898 0.9628
3.3294 -8.5570 -2.3901 0.9628
3.5409 -8.4742 -2.3907 0.9628
3.6982 -8.4086 -2.3911 0.9627
3.7504 -8.3861 -2.3913 0.9627
3.8024 -8.3633 -2.3914 0.9627
3.8543 -8.3401 -2.3916 0.9627
3.9576 -8.2928 -2.3919 0.9627
4.0091 -8.2687 -2.3920 0.9627
4.0604 -8.2443 -2.3922 0.9627
4.2641 -8.1433 -2.3927 0.9627
4.3650 -8.0909 -2.3930 0.9627
4.4153 -8.0643 -2.3932 0.9627
4.5152 -8.0100 -2.3935 0.9627
4.6145 -7.9545 -2.3938 0.9627
4.6638 -7.9263 -2.3939 0.9627
4.8110 -7.8398 -2.3943 0.9627
4.9564 -7.7506 -2.3947 0.9627
5.0046 -7.7202 -2.3949 0.9627
5.1003 -7.6586 -2.3952 0.9627
5.1952 -7.5958 -2.3954 0.9627
5.4291 -7.4337 -2.3961 0.9627
5.4753 -7.4004 -2.3963 0.9627
5.5670 -7.3330 -2.3965 0.9627
5.6125 -7.2988 -2.3967 0.9627
5.6579 -7.2644 -2.3968 0.9627
5.7030 -7.2296 -2.3969 0.9627
5.7479 -7.1946 -2.3971 0.9627
5.9254 -7.0518 -2.3976 0.9626
5.9693 -7.0154 -2.3977 0.9626
6.0128 -6.9787 -2.3978 0.9626
6.2696 -6.7530 -2.3986 0.9626
6.3116 -6.7145 -2.3987 0.9626
6.3533 -6.6756 -2.3989 0.9626
6.6784 -6.3558 -2.3998 0.9626
6.7179 -6.3147 -2.3999 0.9626
6.7571 -6.2734 -2.4001 0.9626
6.7961 -6.2318 -2.4002 0.9626
6.8349 -6.1899 -2.4003 0.9626
6.8734 -6.1478 -2.4004 0.9626
6.9872 -6.0201 -2.4008 0.9626
7.0246 -5.9771 -2.4009 0.9626
7.0618 -5.9338 -2.4010 0.9626
7.0987 -5.8903 -2.4011 0.9626
7.1354 -5.8466 -2.4012 0.9626
7.2078 -5.7584 -2.4014 0.9626
7.2435 -5.7140 -2.4015 0.9626
7.4525 -5.4428 -2.4022 0.9626
7.4864 -5.3968 -2.4023 0.9626
7.5199 -5.3507 -2.4024 0.9626
7.5532 -5.3043 -2.4025 0.9626
7.5861 -5.2577 -2.4026 0.9626
7.6834 -5.1167 -2.4029 0.9626
7.7467 -5.0217 -2.4031 0.9626
7.7779 -4.9739 -2.4032 0.9626
7.8998 -4.7807 -2.4036 0.9626
7.9296 -4.7320 -2.4037 0.9626
7.9589 -4.6830 -2.4038 0.9626
8.0169 -4.5845 -2.4039 0.9625
8.0736 -4.4854 -2.4041 0.9625
8.1563 -4.3353 -2.4044 0.9625
8.2879 -4.0818 -2.4048 0.9625
8.3874 -3.8761 -2.4051 0.9625
8.4115 -3.8243 -2.4052 0.9625
8.4353 -3.7723 -2.4053 0.9625
8.5046 -3.6155 -2.4055 0.9625
8.5492 -3.5102 -2.4057 0.9625
8.5924 -3.4044 -2.4058 0.9625
8.6549 -3.2447 -2.4060 0.9625
8.6751 -3.1912 -2.4061 0.9625
8.6949 -3.1376 -2.4061 0.9625
8.7143 -3.0839 -2.4062 0.9625
8.7523 -2.9760 -2.4063 0.9625
8.7889 -2.8677 -2.4065 0.9625
8.8241 -2.7589 -2.4066 0.9625
8.8412 -2.7044 -2.4066 0.9625
8.8580 -2.6497 -2.4067 0.9625
8.8744 -2.5949 -2.4068 0.9625
8.9217 -2.4300 -2.4069 0.9625
8.9368 -2.3749 -2.4070 0.9625
8.9514 -2.3196 -2.4070 0.9625
8.9658 -2.2642 -2.4071 0.9625
8.9935 -2.1533 -2.4072 0.9625
9.0068 -2.0976 -2.4072 0.9625
9.0324 -1.9862 -2.4073 0.9625
9.0567 -1.8744 -2.4074 0.9625
9.0795 -1.7623 -2.4075 0.9625
9.1111 -1.5936 -2.4076 0.9625
9.1209 -1.5372 -2.4077 0.9625
9.1396 -1.4244 -2.4078 0.9625
9.1483 -1.3679 -2.4078 0.9625
9.1648 -1.2547 -2.4079 0.9625
9.2058 -0.9139 -2.4081 0.9625
9.2166 -0.8000 -2.4081 0.9625
9.2214 -0.7430 -2.4081 0.9625
9.2260 -0.6859 -2.4082 0.9625
9.2339 -0.5718 -2.4082 0.9625
9.2405 -0.4575 -2.4083 0.9625
9.2476 -0.2860 -2.4083 0.9625
9.2515 -0.1144 -2.4084 0.9625
9.2521 -0.0572 -2.4084 0.9625
9.2523 -0.0000 -2.4084 0.9625
9.2517 0.1144 -2.4084 0.9625
9.2509 0.1717 -2.4084 0.9625
9.2496 0.2288 -2.4084 0.9625
9.2481 0.2861 -2.4085 0.9625
9.2413 0.4575 -2.4085 0.9625
9.2383 0.5147 -2.4085 0.9625
9.2350 0.5718 -2.4085 0.9625
9.2272 0.6860 -2.4085 0.9625
9.2180 0.8001 -2.4085 0.9625
9.2129 0.8571 -2.4085 0.9625
9.1507 1.3682 -2.4084 0.9625
9.1330 1.4813 -2.4084 0.9625
9.0826 1.7629 -2.4083 0.9625
9.0714 1.8190 -2.4083 0.9625
9.0359 1.9869 -2.4083 0.9625
9.0233 2.0427 -2.4082 0.9625
9.0105 2.0985 -2.4082 0.9625
8.9972 2.1542 -2.4082 0.9625
8.9837 2.2097 -2.4082 0.9625
8.9554 2.3206 -2.4081 0.9625
8.9408 2.3759 -2.4081 0.9625
8.9105 2.4863 -2.4080 0.9625
8.8949 2.5413 -2.4080 0.9625
8.8625 2.6510 -2.4079 0.9625
8.8458 2.7057 -2.4079 0.9625
8.7937 2.8692 -2.4078 0.9625
8.7757 2.9235 -2.4077 0.9625
8.7386 3.0317 -2.4077 0.9625
8.7195 3.0857 -2.4076 0.9625
8.6191 3.3535 -2.4074 0.9625
8.5981 3.4067 -2.4074 0.9625
8.5329 3.5654 -2.4072 0.9625
8.3937 3.8789 -2.4069 0.9625
8.3693 3.9307 -2.4069 0.9625
8.3446 3.9823 -2.4068 0.9625
8.1900 4.2885 -2.4064 0.9625
8.1631 4.3389 -2.4064 0.9625
8.1083 4.4393 -2.4062 0.9625
8.0524 4.5390 -2.4061 0.9625
7.9952 4.6380 -2.4060 0.9625
7.9661 4.6872 -2.4059 0.9625
7.9367 4.7362 -2.4058 0.9625
7.9071 4.7851 -2.4058 0.9625
7.8771 4.8337 -2.4057 0.9625
7.8468 4.8822 -2.4056 0.9625
7.7853 4.9786 -2.4055 0.9625
7.7542 5.0265 -2.4054 0.9625
7.7227 5.0742 -2.4053 0.9625
7.6909 5.1217 -2.4052 0.9625
7.2747 5.1087 -2.3139 0.9639
7.1582 5.0932 -2.2868 0.9643
7.0541 5.0852 -2.2636 0.9647
6.9513 5.1429 -2.2508 0.9649
6.8866 5.2281 -2.2506 0.9649
6.8539 5.2704 -2.2506 0.9649
6.7877 5.3543 -2.2504 0.9649
6.7205 5.4375 -2.2502 0.9649
6.6522 5.5198 -2.2501 0.9649
6.6177 5.5606 -2.2500 0.9649
6.5126 5.6818 -2.2497 0.9649
6.4771 5.7217 -2.2496 0.9649
6.3691 5.8401 -2.2494 0.9649
6.1842 6.0330 -2.2489 0.9649
6.1465 6.0709 -2.2488 0.9649
6.0704 6.1459 -2.2486 0.9649
6.0320 6.1831 -2.2485 0.9649
5.9155 6.2931 -2.2482 0.9649
5.8762 6.3292 -2.2481 0.9649
5.7168 6.4715 -2.2477 0.9649
5.6764 6.5064 -2.2476 0.9649
5.6358 6.5411 -2.2475 0.9649
5.5127 6.6436 -2.2472 0.9649
5.4713 6.6772 -2.2471 0.9649
5.1445 6.6053 -2.1793 0.9660
4.9763 6.4714 -2.1250 0.9668
4.9121 6.4703 -2.1146 0.9670
4.7804 6.4613 -2.0922 0.9673
4.5345 6.4570 -2.0538 0.9679
4.6546 6.7160 -2.1270 0.9668
4.4199 6.4623 -2.0380 0.9682
4.4364 6.6618 -2.0834 0.9675
4.4194 6.7261 -2.0949 0.9673
4.2154 6.5919 -2.0367 0.9682
4.1637 6.6006 -2.0314 0.9683
4.0687 6.6302 -2.0249 0.9684
3.7660 6.6810 -1.9964 0.9688
3.7418 6.7351 -2.0056 0.9687
3.4275 6.4483 -1.9009 0.9703
3.5058 6.6953 -1.9673 0.9692
3.1909 6.5813 -1.9039 0.9702
3.1716 6.6459 -1.9169 0.9700
3.0482 6.5959 -1.8914 0.9704
2.9760 6.5456 -1.8717 0.9707
2.9470 6.7007 -1.9054 0.9702
2.7792 6.4267 -1.8226 0.9715
2.7817 6.6574 -1.8781 0.9706
2.6782 6.6392 -1.8635 0.9708
2.6384 6.6590 -1.8644 0.9708
2.4492 6.6578 -1.8466 0.9711
2.3412 6.6157 -1.8267 0.9714
2.3002 6.6300 -1.8267 0.9714
2.2593 6.6444 -1.8268 0.9714
2.0476 6.5489 -1.7861 0.9720
1.9637 6.4199 -1.7475 0.9726
1.9934 6.6640 -1.8106 0.9717
1.9442 6.6491 -1.8033 0.9718
1.8631 6.6771 -1.8045 0.9718
1.8029 6.6191 -1.7857 0.9720
1.7061 6.5837 -1.7704 0.9723
1.6593 6.5703 -1.7640 0.9724
1.6185 6.5801 -1.7639 0.9724
1.4467 6.5792 -1.7535 0.9725
1.4065 6.5904 -1.7541 0.9725
1.3656 6.5982 -1.7539 0.9725
1.2434 6.6251 -1.7546 0.9725
1.2156 6.7052 -1.7738 0.9722
1.1740 6.7120 -1.7737 0.9722
1.1233 6.6644 -1.7592 0.9725
0.9791 6.5484 -1.7235 0.9730
0.8643 6.6176 -1.7372 0.9728
0.6146 6.6067 -1.7272 0.9729
0.5683 6.5475 -1.7108 0.9732
0.3261 6.5858 -1.7164 0.9731
0.2028 6.5548 -1.7070 0.9733
0.1583 6.3976 -1.6658 0.9739
0.0000 6.5751 -1.7115 0.9732
-0.1217 6.5604 -1.7080 0.9732
-0.1622 6.5554 -1.7069 0.9733
-0.2026 6.5503 -1.7059 0.9733
-0.2425 6.5337 -1.7019 0.9733
-0.2864 6.6116 -1.7226 0.9730
-0.3272 6.6083 -1.7223 0.9730
-0.5315 6.5970 -1.7228 0.9730
-0.5719 6.5886 -1.7215 0.9730
-0.6081 6.5366 -1.7089 0.9732
-0.6515 6.5633 -1.7169 0.9731
-0.6719 6.3671 -1.6666 0.9739
-0.7116 6.3664 -1.6675 0.9739
-0.8154 6.5595 -1.7206 0.9730
-0.8959 6.5440 -1.7193 0.9731
-0.9369 6.5425 -1.7204 0.9731
-1.2093 6.6704 -1.7646 0.9724
-1.2516 6.6687 -1.7662 0.9723
-1.2802 6.5956 -1.7489 0.9726
-1.3196 6.5808 -1.7471 0.9726
-1.3169 6.3632 -1.6915 0.9735
-1.3579 6.3625 -1.6935 0.9735
-1.3989 6.3618 -1.6956 0.9734
-1.4877 6.5718 -1.7539 0.9725
-1.5265 6.5544 -1.7518 0.9726
-1.5226 6.3596 -1.7022 0.9733
-1.6285 6.6207 -1.7747 0.9722
-1.6718 6.6199 -1.7773 0.9722
-1.8118 6.4933 -1.7548 0.9725
-1.9982 6.5327 -1.7783 0.9722
-2.0384 6.5198 -1.7781 0.9722
-2.0787 6.5070 -1.7781 0.9722
-2.1478 6.5826 -1.8024 0.9718
-2.2105 6.6353 -1.8205 0.9715
-2.2199 6.5286 -1.7950 0.9719
-2.1999 6.3407 -1.7470 0.9726
-2.3335 6.5939 -1.8207 0.9715
-2.3759 6.5839 -1.8220 0.9715
-2.4566 6.5525 -1.8216 0.9715
-2.5660 6.5950 -1.8421 0.9712
-2.7494 6.4674 -1.8293 0.9714
-2.7789 6.4261 -1.8225 0.9715
-2.8744 6.5357 -1.8585 0.9709
-2.9427 6.4726 -1.8508 0.9710
-2.9750 6.3345 -1.8217 0.9715
-3.2763 6.5498 -1.9063 0.9702
-3.3079 6.5121 -1.9013 0.9703
-3.3833 6.5598 -1.9213 0.9700
-3.4508 6.5902 -1.9364 0.9697
-3.4840 6.5547 -1.9323 0.9698
-3.5924 6.5615 -1.9472 0.9696
-3.5140 6.3252 -1.8835 0.9705
-3.6860 6.5392 -1.9540 0.9694
-3.7315 6.5252 -1.9566 0.9694
-3.8356 6.5187 -1.9688 0.9692
-3.8860 6.5119 -1.9739 0.9691
-3.9270 6.4891 -1.9744 0.9691
-3.9266 6.3108 -1.9347 0.9697
-4.1022 6.5031 -2.0014 0.9687
-4.1855 6.5451 -2.0223 0.9684
-4.1866 6.4585 -2.0035 0.9687
-4.1523 6.3196 -1.9683 0.9692
-4.3265 6.3258 -1.9949 0.9688
-4.8449 6.5485 -2.1204 0.9669
-4.9194 6.5639 -2.1352 0.9667
-4.9693 6.2995 -2.0886 0.9674
-5.2765 6.5215 -2.1836 0.9659
-5.3548 6.5352 -2.1993 0.9657
-5.4446 6.4796 -2.2031 0.9656
-5.5581 6.4509 -2.2165 0.9654
-5.5976 6.4161 -2.2164 0.9654
-5.6759 6.3457 -2.2162 0.9654
-5.6877 6.2803 -2.2056 0.9656
-5.7917 6.2384 -2.2158 0.9654
-5.8299 6.2021 -2.2157 0.9654
-5.9056 6.1289 -2.2155 0.9654
-5.9431 6.0920 -2.2154 0.9654
-6.0541 5.9797 -2.2150 0.9654
-6.0907 5.9419 -2.2149 0.9654
-6.1631 5.8655 -2.2147 0.9654
-6.3051 5.7102 -2.2143 0.9655
-6.5442 5.4302 -2.2136 0.9655
-6.5773 5.3894 -2.2134 0.9655
-6.6429 5.3071 -2.2132 0.9655
-6.6753 5.2657 -2.2132 0.9655
-6.7393 5.1823 -2.2130 0.9655
-6.8023 5.0981 -2.2128 0.9655
-6.8334 5.0557 -2.2127 0.9655
-6.8642 5.0131 -2.2126 0.9655
-6.9251 4.9275 -2.2124 0.9655
-6.9551 4.8843 -2.2123 0.9655
-6.9849 4.8410 -2.2122 0.9655
-7.0145 4.7975 -2.2121 0.9655
-7.0727 4.7100 -2.2119 0.9655
-7.1014 4.6660 -2.2118 0.9655
-7.1407 4.6289 -2.2151 0.9654
-7.2168 4.6151 -2.2298 0.9652
-7.3078 4.6098 -2.2491 0.9649
-7.4003 4.6045 -2.2688 0.9646
-7.4945 4.5990 -2.2889 0.9643
-7.5902 4.5934 -2.3094 0.9640
-7.6877 4.5877 -2.3304 0.9637
-7.7870 4.5819 -2.3518 0.9633
-7.8494 4.5535 -2.3621 0.9632
-7.9046 4.4557 -2.3620 0.9632
-7.9585 4.3573 -2.3618 0.9632
-7.9850 4.3078 -2.3617 0.9632
-8.0371 4.2084 -2.3615 0.9632
-8.0627 4.1585 -2.3615 0.9632
-8.0880 4.1084 -2.3614 0.9632
-8.2332 3.8048 -2.3609 0.9632
-8.2562 3.7537 -2.3608 0.9632
-8.2791 3.7025 -2.3608 0.9632
-8.3015 3.6511 -2.3607 0.9632
-8.3237 3.5995 -2.3606 0.9632
-8.4092 3.3921 -2.3603 0.9632
-8.4699 3.2353 -2.3601 0.9632
-8.4895 3.1828 -2.3601 0.9632
-8.5088 3.1301 -2.3600 0.9632
-8.5278 3.0773 -2.3599 0.9632
-8.5464 3.0245 -2.3599 0.9632
-8.5647 2.9715 -2.3598 0.9632
-8.5827 2.9184 -2.3597 0.9632
-8.6004 2.8652 -2.3597 0.9632
-8.6177 2.8119 -2.3596 0.9632
-8.6347 2.7584 -2.3596 0.9632
-8.6514 2.7049 -2.3595 0.9632
-8.6838 2.5976 -2.3594 0.9632
-8.6995 2.5438 -2.3593 0.9632
-8.7148 2.4899 -2.3593 0.9632
-8.7589 2.3276 -2.3591 0.9632
-8.7867 2.2190 -2.3590 0.9632
-8.8000 2.1646 -2.3590 0.9632
-8.8619 1.8913 -2.3587 0.9632
-8.8949 1.7265 -2.3586 0.9632
-8.9153 1.6163 -2.3585 0.9632
-8.9250 1.5611 -2.3585 0.9632
-8.9344 1.5058 -2.3584 0.9632
-8.9433 1.4505 -2.3584 0.9632
-8.9833 1.1733 -2.3582 0.9632
-8.9902 1.1176 -2.3582 0.9632
-8.9968 1.0620 -2.3582 0.9632
-9.0031 1.0063 -2.3581 0.9632
-9.0090 0.9506 -2.3581 0.9632
-9.0199 0.8391 -2.3581 0.9632
-9.0443 0.5039 -2.3579 0.9633
-9.0471 0.4479 -2.3579 0.9633
-9.0497 0.3920 -2.3579 0.9633
-9.0537 0.2800 -2.3578 0.9633
-9.0552 0.2240 -2.3578 0.9633
-9.0571 0.1120 -2.3578 0.9633
-9.0576 0.0560 -2.3578 0.9633
-8.7922 -0.0000 -2.3585 0.9642
-8.7920 -0.0544 -2.3585 0.9642
-8.7906 -0.1631 -2.3585 0.9642
-8.7894 -0.2175 -2.3585 0.9642
-8.7812 -0.4348 -2.3584 0.9642
-8.7783 -0.4891 -2.3584 0.9642
-8.7751 -0.5434 -2.3584 0.9642
-8.7716 -0.5976 -2.3584 0.9642
-8.7677 -0.6519 -2.3584 0.9642
-8.7635 -0.7061 -2.3584 0.9642
-8.7489 -0.8685 -2.3584 0.9642
-8.7249 -1.0847 -2.3584 0.9642
-8.7108 -1.1925 -2.3584 0.9642
-8.7033 -1.2464 -2.3585 0.9642
-8.6873 -1.3539 -2.3585 0.9642
-8.6513 -1.5684 -2.3585 0.9642
-8.6415 -1.6219 -2.3585 0.9642
-8.6314 -1.6753 -2.3586 0.9642
-8.6209 -1.7287 -2.3586 0.9642
-8.5876 -1.8884 -2.3586 0.9642
-8.5758 -1.9414 -2.3586 0.9642
-8.5513 -2.0474 -2.3587 0.9642
-8.5121 -2.2058 -2.3588 0.9642
-8.4984 -2.2584 -2.3588 0.9642
-8.4700 -2.3634 -2.3588 0.9642
-8.4554 -2.4157 -2.3589 0.9642
-8.4403 -2.4680 -2.3589 0.9642
-8.3934 -2.6243 -2.3590 0.9642
-8.3606 -2.7280 -2.3591 0.9642
-8.3436 -2.7797 -2.3591 0.9642
-8.2544 -3.0365 -2.3593 0.9642
-8.2356 -3.0876 -2.3593 0.9642
-8.2165 -3.1385 -2.3594 0.9642
-8.1773 -3.2400 -2.3595 0.9642
-8.1573 -3.2905 -2.3595 0.9642
-8.1369 -3.3410 -2.3595 0.9642
-8.0953 -3.4415 -2.3596 0.9642
-8.0525 -3.5416 -2.3597 0.9642
-8.0306 -3.5913 -2.3598 0.9642
-8.0084 -3.6410 -2.3598 0.9642
-7.9859 -3.6905 -2.3599 0.9642
-7.9631 -3.7399 -2.3599 0.9642
-7.9166 -3.8383 -2.3600 0.9642
-7.8929 -3.8873 -2.3601 0.9642
-7.8688 -3.9361 -2.3601 0.9642
-7.8446 -3.9848 -2.3602 0.9642
-7.8200 -4.0334 -2.3603 0.9642
-7.7443 -4.1780 -2.3604 0.9642
-7.6661 -4.3213 -2.3606 0.9642
-7.6125 -4.4161 -2.3607 0.9642
-7.5018 -4.6035 -2.3610 0.9642
-7.4734 -4.6500 -2.3611 0.9642
-7.3271 -4.8795 -2.3614 0.9642
-7.2970 -4.9249 -2.3615 0.9642
-7.2360 -5.0151 -2.3617 0.9642
-7.2051 -5.0599 -2.3617 0.9642
-7.1424 -5.1489 -2.3619 0.9642
-7.0787 -5.2372 -2.3620 0.9642
-7.0464 -5.2811 -2.3621 0.9642
-7.0138 -5.3247 -2.3622 0.9642
-6.9146 -5.4545 -2.3624 0.9642
-6.8470 -5.5400 -2.3626 0.9642
-6.8129 -5.5824 -2.3627 0.9642
-6.6383 -5.7915 -2.3631 0.9642
-6.5666 -5.8736 -2.3633 0.9642
-6.5304 -5.9143 -2.3634 0.9642
-6.4203 -6.0351 -2.3637 0.9642
-6.3832 -6.0750 -2.3638 0.9642
-6.3457 -6.1146 -2.3639 0.9642
-6.3080 -6.1540 -2.3640 0.9642
-6.2701 -6.1931 -2.3641 0.9642
-6.2319 -6.2320 -2.3641 0.9642
-6.1160 -6.3473 -2.3644 0.9642
-6.0769 -6.3853 -2.3645 0.9642
-6.0376 -6.4230 -2.3646 0.9642
-5.8779 -6.5715 -2.3651 0.9641
-5.8374 -6.6081 -2.3652 0.9641
-5.7557 -6.6803 -2.3654 0.9641
-5.7145 -6.7161 -2.3655 0.9641
-5.6731 -6.7516 -2.3656 0.9641
-5.5897 -6.8219 -2.3658 0.9641
-5.5477 -6.8567 -2.3659 0.9641
-5.4630 -6.9254 -2.3661 0.9641
-5.4203 -6.9593 -2.3662 0.9641
-5.2475 -7.0926 -2.3667 0.9641
-5.2038 -7.1253 -2.3668 0.9641
-5.1598 -7.1577 -2.3669 0.9641
-5.0714 -7.2217 -2.3671 0.9641
-4.9822 -7.2845 -2.3674 0.9641
-4.9373 -7.3156 -2.3675 0.9641
-4.8922 -7.3463 -2.3676 0.9641
-4.8014 -7.4070 -2.3678 0.9641
-4.7558 -7.4369 -2.3680 0.9641
-4.7099 -7.4666 -2.3681 0.9641
-4.6639 -7.4959 -2.3682 0.9641
-4.5713 -7.5538 -2.3684 0.9641
-4.4780 -7.6106 -2.3687 0.9641
-4.3840 -7.6662 -2.3689 0.9641
-4.3368 -7.6936 -2.3691 0.9641
-4.2417 -7.7474 -2.3693 0.9641
-4.1939 -7.7739 -2.3694 0.9641
-4.1460 -7.8001 -2.3696 0.9641
-3.9526 -7.9020 -2.3701 0.9641
-3.8060 -7.9753 -2.3705 0.9641
-3.7568 -7.9991 -2.3706 0.9641
-3.7075 -8.0226 -2.3707 0.9641
-3.6580 -8.0459 -2.3709 0.9641
-3.5586 -8.0914 -2.3711 0.9641
-3.5087 -8.1137 -2.3713 0.9641
-3.4586 -8.1357 -2.3714 0.9641
-3.4085 -8.1574 -2.3715 0.9640
-3.3581 -8.1788 -2.3717 0.9640
-3.3077 -8.1998 -2.3718 0.9640
-3.2571 -8.2206 -2.3719 0.9640
-3.2064 -8.2411 -2.3721 0.9640
-3.0534 -8.3006 -2.3725 0.9640
-2.9509 -8.3387 -2.3727 0.9640
-2.8995 -8.3572 -2.3729 0.9640
-2.8479 -8.3755 -2.3730 0.9640
-2.7444 -8.4111 -2.3733 0.9640
-2.6925 -8.4284 -2.3734 0.9640
-2.6404 -8.4454 -2.3736 0.9640
-2.5883 -8.4620 -2.3737 0.9640
-2.5361 -8.4784 -2.3739 0.9640
-2.4837 -8.4944 -2.3740 0.9640
-2.4313 -8.5101 -2.3741 0.9640
-2.3788 -8.5255 -2.3743 0.9640
-2.1677 -8.5838 -2.3749 0.9640
-2.0616 -8.6110 -2.3751 0.9640
-1.9552 -8.6369 -2.3754 0.9640
-1.9019 -8.6493 -2.3756 0.9640
-1.8485 -8.6614 -2.3757 0.9640
-1.7414 -8.6847 -2.3760 0.9640
-1.6340 -8.7067 -2.3763 0.9640
-1.5803 -8.7171 -2.3764 0.9640
-1.5264 -8.7273 -2.3766 0.9640
-1.4725 -8.7371 -2.3767 0.9640
-1.3646 -8.7557 -2.3770 0.9640
-1.3104 -8.7645 -2.3772 0.9640
-1.2563 -8.7730 -2.3773 0.9640
-1.2021 -8.7812 -2.3775 0.9640
-1.1479 -8.7890 -2.3776 0.9640
-1.0936 -8.7965 -2.3778 0.9640
-0.9848 -8.8104 -2.3781 0.9640
-0.9304 -8.8169 -2.3782 0.9639
-0.7667 -8.8343 -2.3787 0.9639
-0.7121 -8.8394 -2.3788 0.9639
-0.6029 -8.8487 -2.3791 0.9639
-0.5481 -8.8528 -2.3793 0.9639
-0.4934 -8.8566 -2.3794 0.9639
-0.4387 -8.8600 -2.3796 0.9639
-0.3839 -8.8631 -2.3797 0.9639
-0.3291 -8.8659 -2.3799 0.9639
-0.2743 -8.8683 -2.3800 0.9639
-0.2195 -8.8704 -2.3802 0.9639
-0.1646 -8.8722 -2.3803 0.9639
-0.0548 -8.8747 -2.3806 0.9639
0.0000 -8.8754 -2.3808 0.9639
0.0549 -8.8758 -2.3809 0.9639
0.3294 -8.8727 -2.3817 0.9639
0.4941 -8.8667 -2.3821 0.9639
0.5489 -8.8641 -2.3823 0.9639
0.6037 -8.8611 -2.3825 0.9639
0.7682 -8.8500 -2.3829 0.9639
0.8777 -8.8410 -2.3832 0.9639
0.9871 -8.8306 -2.3835 0.9639
1.0418 -8.8249 -2.3837 0.9639
1.0964 -8.8188 -2.3838 0.9639
1.1510 -8.8125 -2.3840 0.9639
1.2055 -8.8057 -2.3841 0.9639
1.3145 -8.7913 -2.3844 0.9639
1.3689 -8.7835 -2.3846 0.9639
1.5320 -8.7583 -2.3850 0.9638
1.5862 -8.7492 -2.3852 0.9638
1.9104 -8.6877 -2.3861 0.9638
1.9642 -8.6762 -2.3863 0.9638
2.0180 -8.6645 -2.3864 0.9638
2.0716 -8.6524 -2.3866 0.9638
2.1253 -8.6400 -2.3867 0.9638
2.2856 -8.6007 -2.3872 0.9638
2.3389 -8.5869 -2.3873 0.9638
2.3921 -8.5728 -2.3875 0.9638
2.7095 -8.4814 -2.3884 0.9638
2.9192 -8.4139 -2.3890 0.9638
2.9713 -8.3962 -2.3891 0.9638
3.0234 -8.3782 -2.3893 0.9638
3.2305 -8.3029 -2.3898 0.9638
3.3846 -8.2430 -2.3903 0.9638
3.4357 -8.2224 -2.3904 0.9638
3.5375 -8.1803 -2.3907 0.9638
3.5883 -8.1588 -2.3909 0.9638
3.6894 -8.1148 -2.3912 0.9638
3.7899 -8.0695 -2.3914 0.9638
3.8400 -8.0464 -2.3916 0.9637
3.8899 -8.0229 -2.3917 0.9637
3.9397 -7.9992 -2.3919 0.9637
3.9893 -7.9752 -2.3920 0.9637
4.1373 -7.9012 -2.3924 0.9637
4.1863 -7.8759 -2.3926 0.9637
4.2352 -7.8503 -2.3927 0.9637
4.3325 -7.7983 -2.3930 0.9637
4.4772 -7.7179 -2.3934 0.9637
4.5252 -7.6905 -2.3936 0.9637
4.6678 -7.6066 -2.3940 0.9637
4.7150 -7.5780 -2.3941 0.9637
4.8090 -7.5200 -2.3944 0.9637
4.8557 -7.4905 -2.3945 0.9637
4.9022 -7.4608 -2.3947 0.9637
5.0863 -7.3389 -2.3952 0.9637
5.2225 -7.2445 -2.3956 0.9637
5.2674 -7.2124 -2.3957 0.9637
5.3569 -7.1475 -2.3960 0.9637
5.4013 -7.1146 -2.3961 0.9637
5.4454 -7.0815 -2.3963 0.9637
5.4894 -7.0480 -2.3964 0.9637
5.5332 -7.0143 -2.3965 0.9637
5.5768 -6.9804 -2.3966 0.9637
5.7062 -6.8768 -2.3970 0.9637
5.7914 -6.8064 -2.3973 0.9637
5.8337 -6.7708 -2.3974 0.9637
5.8758 -6.7350 -2.3975 0.9637
6.0418 -6.5889 -2.3980 0.9637
6.1235 -6.5143 -2.3983 0.9637
6.1639 -6.4767 -2.3984 0.9636
6.2042 -6.4388 -2.3985 0.9636
6.2442 -6.4006 -2.3986 0.9636
6.2840 -6.3622 -2.3987 0.9636
6.3628 -6.2846 -2.3990 0.9636
6.5176 -6.1265 -2.3994 0.9636
6.5556 -6.0863 -2.3995 0.9636
6.5935 -6.0459 -2.3997 0.9636
6.6684 -5.9645 -2.3999 0.9636
6.9225 -5.6722 -2.4007 0.9636
6.9577 -5.6295 -2.4008 0.9636
7.0961 -5.4566 -2.4012 0.9636
7.1300 -5.4129 -2.4013 0.9636
7.1636 -5.3689 -2.4014 0.9636
7.1970 -5.3247 -2.4015 0.9636
7.2629 -5.2358 -2.4017 0.9636
7.2955 -5.1910 -2.4018 0.9636
7.3278 -5.1459 -2.4019 0.9636
7.3597 -5.1008 -2.4020 0.9636
7.4229 -5.0097 -2.4022 0.9636
7.4849 -4.9180 -2.4024 0.9636
7.5757 -4.7788 -2.4027 0.9636
7.6054 -4.7320 -2.4028 0.9636
7.6348 -4.6851 -2.4029 0.9636
7.6639 -4.6380 -2.4029 0.9636
7.6927 -4.5907 -2.4030 0.9636
7.7774 -4.4476 -2.4033 0.9636
7.8051 -4.3996 -2.4034 0.9636
7.9127 -4.2058 -2.4037 0.9636
7.9646 -4.1079 -2.4039 0.9636
7.9901 -4.0587 -2.4040 0.9636
8.0648 -3.9102 -2.4042 0.9636
8.1131 -3.8104 -2.4044 0.9636
8.1602 -3.7100 -2.4045 0.9636
8.2059 -3.6090 -2.4047 0.9636
8.2284 -3.5583 -2.4048 0.9636
8.2505 -3.5075 -2.4048 0.9636
8.2937 -3.4053 -2.4050 0.9636
8.3763 -3.1995 -2.4052 0.9635
8.3962 -3.1477 -2.4053 0.9635
8.4350 -3.0439 -2.4054 0.9635
8.5085 -2.8346 -2.4057 0.9635
8.5261 -2.7820 -2.4058 0.9635
8.5434 -2.7293 -2.4058 0.9635
8.5931 -2.5704 -2.4060 0.9635
8.6247 -2.4641 -2.4061 0.9635
8.6400 -2.4108 -2.4062 0.9635
8.6977 -2.1965 -2.4064 0.9635
8.7375 -2.0349 -2.4065 0.9635
8.7501 -1.9809 -2.4066 0.9635
8.7623 -1.9268 -2.4066 0.9635
8.7971 -1.7640 -2.4067 0.9635
8.8079 -1.7096 -2.4068 0.9635
8.8386 -1.5458 -2.4069 0.9635
8.8747 -1.3269 -2.4071 0.9635
8.8829 -1.2721 -2.4071 0.9635
8.8981 -1.1621 -2.4072 0.9635
8.9053 -1.1071 -2.4072 0.9635
8.9121 -1.0520 -2.4072 0.9635
8.9246 -0.9417 -2.4073 0.9635
8.9304 -0.8865 -2.4073 0.9635
8.9358 -0.8313 -2.4073 0.9635
8.9408 -0.7760 -2.4074 0.9635
8.9456 -0.7208 -2.4074 0.9635
8.9500 -0.6654 -2.4074 0.9635
8.9540 -0.6100 -2.4074 0.9635
8.9640 -0.4439 -2.4075 0.9635
8.9709 -0.2775 -2.4076 0.9635
8.9754 0.0555 -2.4076 0.9635
8.9696 0.3330 -2.4077 0.9635
8.9673 0.3884 -2.4077 0.9635
8.9648 0.4439 -2.4077 0.9635
8.9619 0.4993 -2.4077 0.9635
8.9586 0.5547 -2.4077 0.9635
8.9262 0.9419 -2.4077 0.9635
8.9071 1.1073 -2.4077 0.9635
8.9001 1.1624 -2.4077 0.9635
8.8850 1.2724 -2.4077 0.9635
8.8686 1.3821 -2.4077 0.9635
8.8598 1.4369 -2.4076 0.9635
8.8412 1.5464 -2.4076 0.9635
8.8213 1.6556 -2.4076 0.9635
8.8108 1.7101 -2.4076 0.9635
8.7889 1.8189 -2.4075 0.9635
8.7774 1.8732 -2.4075 0.9635
8.7655 1.9275 -2.4075 0.9635
8.7534 1.9816 -2.4075 0.9635
8.7281 2.0897 -2.4074 0.9635
8.7014 2.1974 -2.4074 0.9635
8.6875 2.2512 -2.4074 0.9635
8.6287 2.4652 -2.4072 0.9635
8.6132 2.5185 -2.4072 0.9635
8.5812 2.6248 -2.4071 0.9635
8.5132 2.8361 -2.4070 0.9635
8.4772 2.9411 -2.4069 0.9635
8.4587 2.9934 -2.4069 0.9635
8.4399 3.0456 -2.4068 0.9635
8.4207 3.0976 -2.4068 0.9635
8.4012 3.1496 -2.4068 0.9635
8.3815 3.2015 -2.4067 0.9635
8.3409 3.3048 -2.4066 0.9635
8.3202 3.3562 -2.4066 0.9635
8.2991 3.4075 -2.4065 0.9635
8.2777 3.4587 -2.4065 0.9635
8.2339 3.5607 -2.4064 0.9635
8.1660 3.7126 -2.4062 0.9635
8.0215 4.0124 -2.4059 0.9635
7.9964 4.0618 -2.4059 0.9635
7.9451 4.1602 -2.4057 0.9635
7.9190 4.2092 -2.4057 0.9635
7.8659 4.3066 -2.4055 0.9635
7.8390 4.3550 -2.4055 0.9635
7.7562 4.4993 -2.4053 0.9635
7.7280 4.5471 -2.4052 0.9635
7.6707 4.6421 -2.4051 0.9635
7.6416 4.6893 -2.4050 0.9636
7.6123 4.7363 -2.4049 0.9636
7.5826 4.7831 -2.4049 0.9636
7.5527 4.8298 -2.4048 0.9636
7.5224 4.8763 -2.4047 0.9636
7.4611 4.9686 -2.4046 0.9636
7.3986 5.0602 -2.4044 0.9636
7.2520 5.0927 -2.3771 0.9640
7.1370 5.0782 -2.3496 0.9644
7.0275 5.0660 -2.3239 0.9648
6.9232 5.0562 -2.2997 0.9651
6.8215 5.0469 -2.2762 0.9655
6.7319 5.0453 -2.2567 0.9658
6.6809 5.0719 -2.2500 0.9659
6.6492 5.1129 -2.2500 0.9659
6.4201 5.3945 -2.2494 0.9659
6.3863 5.4339 -2.2493 0.9659
6.3524 5.4731 -2.2492 0.9659
6.2837 5.5508 -2.2491 0.9659
6.2141 5.6277 -2.2489 0.9659
6.1789 5.6658 -2.2488 0.9659
6.1435 5.7037 -2.2487 0.9659
6.1079 5.7413 -2.2486 0.9659
5.9631 5.8897 -2.2482 0.9659
5.9262 5.9262 -2.2482 0.9659
5.8520 5.9985 -2.2480 0.9659
5.8146 6.0344 -2.2479 0.9659
5.7769 6.0699 -2.2478 0.9659
5.7390 6.1053 -2.2477 0.9659
5.6240 6.2099 -2.2474 0.9659
5.4677 6.3460 -2.2470 0.9659
5.4281 6.3794 -2.2469 0.9659
5.2271 6.5426 -2.2464 0.9659
4.9872 6.6543 -2.2307 0.9661
4.7804 6.4613 -2.1560 0.9673
4.8308 6.7011 -2.2159 0.9664
4.5025 6.6713 -2.1590 0.9672
4.3423 6.6087 -2.1212 0.9678
4.0251 6.6512 -2.0854 0.9683
3.9664 6.6466 -2.0763 0.9685
3.8692 6.6699 -2.0684 0.9686
3.7438 6.6416 -2.0451 0.9689
3.3268 6.4501 -1.9468 0.9704
3.3893 6.6723 -2.0075 0.9695
3.3170 6.6312 -1.9889 0.9698
