ply
format ascii 1.0
element vertex 1551
property float32 x
property float32 y
property float32 z
property float32 I
end_header
-4.1509 1.7344 -0.4794 0.9821
-4.3009 1.7349 -0.4942 0.9815
-4.3795 1.7352 -0.5020 0.9812
-5.0078 1.7374 -0.5648 0.9789
-6.3924 1.7411 -0.7060 0.9737
-6.5538 1.7417 -0.7226 0.9731
-7.0814 1.7419 -0.7771 0.9711
-7.2734 1.7414 -0.7970 0.9704
-7.9134 1.7401 -0.8634 0.9679
-22.0671 4.5670 -2.4013 0.9133
-22.1208 4.2935 -2.4012 0.9133
-22.1712 4.0194 -2.4011 0.9133
-22.1951 3.8822 -2.4010 0.9133
-22.2181 3.7447 -2.4010 0.9133
-22.2403 3.6073 -2.4009 0.9134
-22.2617 3.4695 -2.4009 0.9134
-22.3018 3.1937 -2.4007 0.9134
-22.3386 2.9175 -2.4006 0.9134
-22.3556 2.7792 -2.4006 0.9134
-22.3718 2.6409 -2.4005 0.9134
-22.4282 2.0865 -2.4003 0.9134
-22.4401 1.9477 -2.4002 0.9134
-22.4708 1.5310 -2.4001 0.9134
-22.4793 1.3920 -2.4000 0.9134
-22.4996 0.9746 -2.3998 0.9134
-22.5047 0.8354 -2.3998 0.9134
-22.5089 0.6962 -2.3997 0.9134
-22.5147 0.4177 -2.3996 0.9134
-21.0342 0.0000 -2.3995 0.9188
-21.0333 -0.1301 -2.3994 0.9188
-21.0317 -0.2602 -2.3994 0.9188
-21.0259 -0.5203 -2.3993 0.9188
-20.9975 -1.1699 -2.3990 0.9188
-20.9894 -1.2997 -2.3990 0.9188
-20.9603 -1.6888 -2.3988 0.9188
-20.8474 -2.7228 -2.3984 0.9188
-20.8298 -2.8516 -2.3983 0.9188
-20.7920 -3.1089 -2.3982 0.9188
-20.7510 -3.3656 -2.3981 0.9188
-20.7070 -3.6219 -2.3980 0.9189
-20.6597 -3.8775 -2.3979 0.9189
-20.6093 -4.1326 -2.3978 0.9189
-20.5829 -4.2599 -2.3978 0.9189
-20.5277 -4.5139 -2.3977 0.9189
-20.4081 -5.0199 -2.3975 0.9189
-20.3436 -5.2717 -2.3974 0.9189
-20.2760 -5.5227 -2.3973 0.9189
-20.1315 -6.0220 -2.3971 0.9189
-20.0935 -6.1462 -2.3970 0.9189
-20.0547 -6.2703 -2.3970 0.9189
-20.0151 -6.3940 -2.3969 0.9189
-19.8918 -6.7638 -2.3968 0.9189
-19.8493 -6.8866 -2.3967 0.9189
-19.7617 -7.1312 -2.3966 0.9189
-19.7169 -7.2532 -2.3966 0.9189
-19.6713 -7.3748 -2.3965 0.9189
-19.6249 -7.4962 -2.3965 0.9189
-19.5778 -7.6172 -2.3964 0.9189
-19.5299 -7.7380 -2.3964 0.9189
-19.4813 -7.8585 -2.3963 0.9189
-19.4320 -7.9787 -2.3963 0.9189
-19.3818 -8.0985 -2.3963 0.9189
-19.1204 -8.6930 -2.3960 0.9189
-18.7826 -9.3953 -2.3957 0.9189
-18.7238 -9.5111 -2.3957 0.9189
-18.6642 -9.6265 -2.3957 0.9189
-18.6040 -9.7416 -2.3956 0.9189
-18.4191 -10.0845 -2.3955 0.9189
-18.3560 -10.1980 -2.3954 0.9189
-18.2278 -10.4239 -2.3953 0.9189
-18.0968 -10.6482 -2.3953 0.9189
-17.9631 -10.8708 -2.3952 0.9189
-17.8267 -11.0917 -2.3951 0.9189
-17.7574 -11.2015 -2.3951 0.9189
-17.6875 -11.3110 -2.3950 0.9189
-17.6169 -11.4199 -2.3950 0.9190
-17.5456 -11.5285 -2.3949 0.9190
-17.4737 -11.6365 -2.3949 0.9190
-17.4012 -11.7443 -2.3948 0.9190
-17.2540 -11.9581 -2.3948 0.9190
-17.1794 -12.0644 -2.3947 0.9190
-17.0283 -12.2755 -2.3946 0.9190
-16.9518 -12.3804 -2.3946 0.9190
-16.7184 -12.6921 -2.3945 0.9190
-16.6393 -12.7951 -2.3944 0.9190
-16.5596 -12.8975 -2.3944 0.9190
-16.4792 -12.9994 -2.3944 0.9190
-16.3983 -13.1009 -2.3943 0.9190
-16.2345 -13.3023 -2.3943 0.9190
-16.1516 -13.4022 -2.3942 0.9190
-15.9842 -13.6006 -2.3941 0.9190
-15.8143 -13.7968 -2.3941 0.9190
-15.7284 -13.8942 -2.3940 0.9190
-15.6419 -13.9909 -2.3940 0.9190
-15.4672 -14.1829 -2.3939 0.9190
-15.2008 -14.4667 -2.3938 0.9190
-15.1108 -14.5603 -2.3938 0.9190
-15.0203 -14.6532 -2.3938 0.9190
-14.7452 -14.9288 -2.3937 0.9190
-14.6524 -15.0194 -2.3936 0.9190
-14.1801 -15.4642 -2.3935 0.9190
-13.9874 -15.6380 -2.3934 0.9190
-13.8903 -15.7240 -2.3934 0.9190
-13.7926 -15.8094 -2.3933 0.9190
-13.5956 -15.9784 -2.3933 0.9190
-13.4964 -16.0620 -2.3933 0.9190
-13.3966 -16.1449 -2.3932 0.9190
-13.2964 -16.2273 -2.3932 0.9190
-13.1956 -16.3090 -2.3932 0.9190
-12.7876 -16.6296 -2.3931 0.9190
-12.5807 -16.7861 -2.3930 0.9190
-12.4765 -16.8634 -2.3930 0.9190
-12.3718 -16.9400 -2.3929 0.9190
-12.2667 -17.0161 -2.3929 0.9190
-12.1611 -17.0914 -2.3929 0.9190
-12.0550 -17.1660 -2.3929 0.9190
-11.9485 -17.2401 -2.3928 0.9190
-11.0447 -16.3647 -2.2522 0.9236
-10.6275 -16.3944 -2.2288 0.9244
-10.2745 -16.5132 -2.2186 0.9247
-9.5947 -16.5397 -2.1813 0.9259
-9.4817 -16.5803 -2.1789 0.9260
-9.3789 -16.6385 -2.1788 0.9260
-8.9997 -16.6818 -2.1623 0.9265
-8.4931 -16.4666 -2.1136 0.9281
-7.8835 -16.5193 -2.0880 0.9290
-7.8023 -16.6126 -2.0937 0.9288
-7.7692 -16.8117 -2.1127 0.9282
-7.7927 -17.4253 -2.1775 0.9260
-8.1263 -18.7915 -2.3355 0.9209
-7.8518 -18.7913 -2.3232 0.9213
-7.7155 -18.7911 -2.3173 0.9215
-7.3110 -18.7905 -2.3001 0.9220
-7.0445 -18.7901 -2.2892 0.9224
-6.7804 -18.7896 -2.2787 0.9227
-6.6493 -18.7893 -2.2737 0.9229
-6.0032 -18.7917 -2.2504 0.9237
-5.8763 -18.7945 -2.2464 0.9238
-5.3944 -18.8812 -2.2401 0.9240
-5.2776 -18.9141 -2.2401 0.9240
-5.1605 -18.9463 -2.2401 0.9240
-5.0432 -18.9778 -2.2400 0.9240
-4.9257 -19.0086 -2.2400 0.9240
-4.8081 -19.0387 -2.2400 0.9240
-4.6902 -19.0679 -2.2400 0.9240
-4.5722 -19.0965 -2.2400 0.9240
-4.3356 -19.1515 -2.2400 0.9240
-3.7414 -19.2762 -2.2400 0.9240
-3.5027 -19.3209 -2.2400 0.9240
-3.3832 -19.3422 -2.2400 0.9240
-3.2635 -19.3627 -2.2400 0.9240
-2.9037 -19.4199 -2.2400 0.9240
-2.5429 -19.4704 -2.2400 0.9240
-2.0605 -19.5273 -2.2400 0.9240
-1.5769 -19.5723 -2.2400 0.9240
-1.4559 -19.5817 -2.2400 0.9240
-1.3347 -19.5904 -2.2400 0.9240
-0.8498 -19.6174 -2.2400 0.9240
-0.6071 -19.6265 -2.2400 0.9240
-0.0000 -19.6361 -2.2400 0.9240
0.2428 -19.6347 -2.2400 0.9240
0.3643 -19.6329 -2.2400 0.9240
0.4857 -19.6304 -2.2400 0.9240
0.6253 -16.8448 -1.9229 0.9344
0.8346 -16.8556 -1.9252 0.9343
1.2544 -16.8728 -1.9301 0.9342
1.5711 -16.8879 -1.9348 0.9340
1.6723 -16.8457 -1.9311 0.9341
1.8823 -16.8399 -1.9330 0.9341
2.0934 -16.8392 -1.9357 0.9340
2.1992 -16.8387 -1.9372 0.9339
2.3052 -16.8386 -1.9388 0.9339
2.7309 -16.8376 -1.9459 0.9336
3.1598 -16.8356 -1.9541 0.9334
3.3750 -16.8311 -1.9582 0.9332
3.5937 -16.8387 -1.9641 0.9330
3.7116 -16.8789 -1.9715 0.9328
4.0420 -16.8822 -1.9803 0.9325
4.8090 -19.0424 -2.2405 0.9240
4.4714 -16.8262 -1.9861 0.9323
4.7156 -16.9002 -2.0015 0.9318
5.5124 -18.8518 -2.2406 0.9240
5.7452 -18.7825 -2.2406 0.9240
5.9772 -18.7103 -2.2407 0.9240
6.0978 -18.6885 -2.2425 0.9239
6.4784 -18.6729 -2.2547 0.9235
6.6070 -18.6698 -2.2592 0.9234
6.5216 -16.1672 -1.9887 0.9322
6.6256 -16.1366 -1.9899 0.9322
6.8587 -16.1335 -1.9999 0.9319
6.9770 -16.1338 -2.0052 0.9317
8.4739 -18.6385 -2.3356 0.9209
8.6123 -18.6361 -2.3420 0.9207
8.7514 -18.6336 -2.3484 0.9205
8.8913 -18.6311 -2.3550 0.9202
9.0319 -18.6286 -2.3617 0.9200
9.1734 -18.6260 -2.3685 0.9198
9.1416 -17.7240 -2.2750 0.9229
9.4151 -17.7131 -2.2884 0.9224
8.8484 -16.1614 -2.1019 0.9285
9.1064 -16.1551 -2.1155 0.9281
9.2333 -16.1458 -2.1218 0.9279
9.3842 -16.1769 -2.1334 0.9275
10.8636 -17.9513 -2.3936 0.9190
10.9745 -17.8840 -2.3936 0.9190
11.0851 -17.8160 -2.3937 0.9190
11.3049 -17.6780 -2.3937 0.9190
11.7394 -17.3940 -2.3939 0.9190
11.8469 -17.3213 -2.3939 0.9190
11.9539 -17.2480 -2.3939 0.9190
12.1667 -17.0993 -2.3940 0.9190
12.2724 -17.0240 -2.3940 0.9190
12.3776 -16.9481 -2.3941 0.9190
12.4824 -16.8715 -2.3941 0.9190
12.5867 -16.7942 -2.3942 0.9190
12.8967 -16.5586 -2.3943 0.9190
13.1009 -16.3983 -2.3943 0.9190
13.3031 -16.2355 -2.3944 0.9190
13.4035 -16.1532 -2.3945 0.9190
13.6027 -15.9867 -2.3945 0.9190
13.7999 -15.8177 -2.3946 0.9190
13.8976 -15.7323 -2.3946 0.9190
13.9949 -15.6464 -2.3947 0.9190
14.1878 -15.4726 -2.3948 0.9190
14.2835 -15.3848 -2.3948 0.9190
14.3786 -15.2965 -2.3948 0.9190
14.5672 -15.1180 -2.3949 0.9190
14.7535 -14.9371 -2.3950 0.9189
14.8459 -14.8459 -2.3951 0.9189
15.2096 -14.4752 -2.3952 0.9189
15.4763 -14.1913 -2.3954 0.9189
15.5641 -14.0956 -2.3954 0.9189
15.9939 -13.6089 -2.3956 0.9189
16.0781 -13.5100 -2.3957 0.9189
16.4086 -13.1091 -2.3958 0.9189
16.5701 -12.9056 -2.3959 0.9189
16.7291 -12.7002 -2.3960 0.9189
16.8076 -12.5968 -2.3961 0.9189
16.8855 -12.4928 -2.3961 0.9189
16.9628 -12.3884 -2.3962 0.9189
17.1907 -12.0723 -2.3963 0.9189
17.4854 -11.6443 -2.3965 0.9189
17.6288 -11.4276 -2.3966 0.9189
17.6994 -11.3186 -2.3966 0.9189
17.7694 -11.2091 -2.3967 0.9189
17.9075 -10.9890 -2.3968 0.9189
18.1093 -10.6555 -2.3969 0.9189
18.2405 -10.4312 -2.3970 0.9189
18.3050 -10.3183 -2.3971 0.9189
18.3689 -10.2052 -2.3971 0.9189
18.4945 -9.9776 -2.3972 0.9189
18.5562 -9.8632 -2.3973 0.9189
18.6775 -9.6334 -2.3974 0.9189
18.9117 -9.1692 -2.3976 0.9189
19.0798 -8.8174 -2.3977 0.9189
19.1881 -8.5811 -2.3978 0.9189
19.3962 -8.1045 -2.3980 0.9189
19.6396 -7.5018 -2.3983 0.9188
19.9070 -6.7690 -2.3986 0.9188
19.9901 -6.5225 -2.3987 0.9188
20.0304 -6.3989 -2.3988 0.9188
20.1089 -6.1509 -2.3989 0.9188
20.1470 -6.0266 -2.3989 0.9188
20.2917 -5.5269 -2.3991 0.9188
20.3921 -5.1499 -2.3993 0.9188
20.4552 -4.8975 -2.3994 0.9188
20.5719 -4.3904 -2.3996 0.9188
20.5991 -4.2632 -2.3997 0.9188
20.6255 -4.1359 -2.3997 0.9188
20.6760 -3.8806 -2.3998 0.9188
20.7001 -3.7527 -2.3999 0.9188
20.6763 -3.4848 -2.3919 0.9190
20.7187 -3.2290 -2.3920 0.9190
20.7387 -3.1009 -2.3921 0.9190
20.7580 -2.9726 -2.3921 0.9190
20.8463 -2.8539 -2.4002 0.9188
20.8641 -2.7250 -2.4003 0.9188
20.8810 -2.5959 -2.4004 0.9188
20.8971 -2.4668 -2.4004 0.9188
20.9124 -2.3376 -2.4005 0.9188
20.9270 -2.2082 -2.4005 0.9188
20.9536 -1.9494 -2.4006 0.9188
20.9770 -1.6901 -2.4007 0.9188
20.9875 -1.5604 -2.4008 0.9188
21.0338 -0.7809 -2.4011 0.9188
21.0387 -0.6507 -2.4012 0.9187
21.0428 -0.5207 -2.4012 0.9187
21.0461 -0.3905 -2.4013 0.9187
20.9836 -0.2595 -2.3939 0.9190
20.9853 -0.1298 -2.3940 0.9190
21.0505 0.2604 -2.4015 0.9187
21.0489 0.3906 -2.4016 0.9187
21.0465 0.5207 -2.4016 0.9187
21.0434 0.6509 -2.4017 0.9187
21.0394 0.7810 -2.4017 0.9187
21.0346 0.9111 -2.4018 0.9187
21.0227 1.1713 -2.4019 0.9187
20.9892 1.6911 -2.4021 0.9187
20.9555 2.0803 -2.4023 0.9187
20.9427 2.2099 -2.4023 0.9187
20.9147 2.4688 -2.4024 0.9187
18.3868 2.6331 -2.1189 0.9279
17.4750 2.7235 -2.0175 0.9313
17.3808 3.0401 -2.0128 0.9314
14.8290 2.6884 -1.7192 0.9411
14.4627 2.7145 -1.6787 0.9425
14.0392 2.7250 -1.6314 0.9441
12.5707 2.7642 -1.4683 0.9495
12.0492 2.8062 -1.4113 0.9514
11.6368 2.8624 -1.3670 0.9529
11.5132 2.9076 -1.3546 0.9533
11.4995 2.9799 -1.3551 0.9533
11.4509 3.1189 -1.3539 0.9533
11.4255 3.2644 -1.3555 0.9533
11.4165 3.3383 -1.3569 0.9532
11.4052 3.4886 -1.3606 0.9531
11.3955 3.6404 -1.3647 0.9530
11.3916 3.7170 -1.3669 0.9529
11.3918 3.7952 -1.3697 0.9528
11.3929 3.8739 -1.3727 0.9527
11.3958 3.9537 -1.3760 0.9526
11.4101 4.1175 -1.3838 0.9523
18.4400 7.0436 -2.2518 0.9236
18.3818 7.2831 -2.2555 0.9235
18.3365 7.3967 -2.2555 0.9235
18.2905 7.5100 -2.2555 0.9235
18.2438 7.6230 -2.2556 0.9235
18.1965 7.7357 -2.2556 0.9235
18.0995 7.9603 -2.2556 0.9235
17.6844 8.8460 -2.2557 0.9235
17.4604 9.2808 -2.2557 0.9235
17.4028 9.3887 -2.2557 0.9235
17.2855 9.6032 -2.2557 0.9235
17.2258 9.7100 -2.2557 0.9235
15.6236 9.1929 -2.0679 0.9296
15.6263 9.3251 -2.0759 0.9294
15.6318 9.5925 -2.0922 0.9288
6.9200 4.4253 -0.9370 0.9675
6.8371 4.4321 -0.9295 0.9677
6.6088 4.4604 -0.9095 0.9684
6.4980 4.5035 -0.9019 0.9687
6.3383 4.5693 -0.8913 0.9690
6.2921 4.5953 -0.8888 0.9691
6.1781 4.6903 -0.8849 0.9693
6.1175 4.7647 -0.8846 0.9693
6.0979 4.8103 -0.8860 0.9692
6.0798 4.8572 -0.8877 0.9692
6.0216 5.1882 -0.9067 0.9685
6.0178 5.3161 -0.9160 0.9682
6.0159 5.3810 -0.9207 0.9680
6.0139 5.4465 -0.9256 0.9679
6.0098 5.5796 -0.9355 0.9675
6.0056 5.7156 -0.9458 0.9672
6.0045 5.7857 -0.9512 0.9670
6.0259 6.2538 -0.9907 0.9656
6.0498 6.4360 -1.0076 0.9651
6.3648 6.8556 -1.0671 0.9630
9.4820 10.4699 -1.6114 0.9447
9.4025 10.5120 -1.6089 0.9448
9.2328 10.5829 -1.6021 0.9450
9.2645 10.7527 -1.6191 0.9445
9.2124 10.8269 -1.6217 0.9444
9.1601 10.9014 -1.6243 0.9443
9.0814 10.9445 -1.6223 0.9444
1.3449 1.7268 -0.2497 0.9912
1.3279 1.7269 -0.2485 0.9913
1.2944 1.7271 -0.2462 0.9913
1.2779 1.7272 -0.2451 0.9914
1.2133 1.7277 -0.2408 0.9915
1.1355 1.7282 -0.2359 0.9917
1.1203 1.7283 -0.2350 0.9917
1.1053 1.7284 -0.2340 0.9918
1.0608 1.7287 -0.2314 0.9919
1.0462 1.7287 -0.2305 0.9919
1.0173 1.7289 -0.2288 0.9920
1.0030 1.7290 -0.2280 0.9920
0.9468 1.7293 -0.2249 0.9921
0.9056 1.7296 -0.2227 0.9922
0.8921 1.7296 -0.2220 0.9922
0.8786 1.7297 -0.2213 0.9922
0.8653 1.7298 -0.2206 0.9922
0.8520 1.7299 -0.2200 0.9923
0.7738 1.7303 -0.2162 0.9924
0.7610 1.7304 -0.2156 0.9924
0.7231 1.7305 -0.2140 0.9925
0.7106 1.7306 -0.2134 0.9925
0.6981 1.7307 -0.2129 0.9925
0.6857 1.7307 -0.2124 0.9925
0.5886 1.7312 -0.2086 0.9927
0.4832 1.7316 -0.2051 0.9928
0.4487 1.7318 -0.2041 0.9928
0.4373 1.7318 -0.2038 0.9928
0.4260 1.7319 -0.2035 0.9928
0.4147 1.7319 -0.2032 0.9929
0.4034 1.7319 -0.2029 0.9929
0.3585 1.7321 -0.2018 0.9929
0.3362 1.7322 -0.2013 0.9929
0.3030 1.7323 -0.2006 0.9929
0.2700 1.7324 -0.2000 0.9930
0.2590 1.7324 -0.1998 0.9930
0.2263 1.7325 -0.1993 0.9930
0.2045 1.7326 -0.1990 0.9930
0.1937 1.7326 -0.1989 0.9930
0.1828 1.7326 -0.1987 0.9930
0.1720 1.7327 -0.1986 0.9930
0.1504 1.7327 -0.1984 0.9930
0.1396 1.7328 -0.1983 0.9930
0.1073 1.7328 -0.1981 0.9930
0.0965 1.7329 -0.1980 0.9930
0.0751 1.7329 -0.1979 0.9930
0.0536 1.7329 -0.1978 0.9930
0.0429 1.7330 -0.1977 0.9930
0.0322 1.7330 -0.1977 0.9930
0.0214 1.7330 -0.1977 0.9930
-0.0107 1.7331 -0.1977 0.9930
-0.0214 1.7330 -0.1977 0.9930
-0.0322 1.7330 -0.1977 0.9930
-0.0751 1.7328 -0.1979 0.9930
-0.0858 1.7328 -0.1979 0.9930
-0.0965 1.7327 -0.1980 0.9930
-0.1073 1.7327 -0.1980 0.9930
-0.1396 1.7326 -0.1983 0.9930
-0.1504 1.7327 -0.1984 0.9930
-0.1612 1.7327 -0.1985 0.9930
-0.1720 1.7327 -0.1986 0.9930
-0.1937 1.7327 -0.1989 0.9930
-0.2045 1.7327 -0.1990 0.9930
-0.2263 1.7327 -0.1993 0.9930
-0.2372 1.7327 -0.1995 0.9930
-0.2700 1.7328 -0.2001 0.9930
-0.2920 1.7328 -0.2005 0.9930
-0.3363 1.7328 -0.2014 0.9929
-0.3698 1.7328 -0.2021 0.9929
-0.3810 1.7328 -0.2024 0.9929
-0.3923 1.7328 -0.2027 0.9929
-0.4262 1.7328 -0.2036 0.9928
-0.4376 1.7328 -0.2039 0.9928
-0.4490 1.7328 -0.2042 0.9928
-0.4835 1.7328 -0.2052 0.9928
-0.5183 1.7328 -0.2063 0.9927
-0.5300 1.7328 -0.2067 0.9927
-0.5654 1.7328 -0.2079 0.9927
-0.5773 1.7327 -0.2083 0.9927
-0.5892 1.7327 -0.2088 0.9927
-0.6012 1.7327 -0.2092 0.9926
-0.6132 1.7327 -0.2097 0.9926
-0.6253 1.7327 -0.2101 0.9926
-0.6496 1.7327 -0.2111 0.9926
-0.6741 1.7327 -0.2121 0.9925
-0.6865 1.7327 -0.2126 0.9925
-0.6989 1.7326 -0.2131 0.9925
-0.7240 1.7326 -0.2142 0.9925
-0.7366 1.7326 -0.2148 0.9924
-0.7492 1.7326 -0.2153 0.9924
-0.7748 1.7326 -0.2165 0.9924
-0.7877 1.7325 -0.2171 0.9924
-0.8006 1.7325 -0.2177 0.9923
-0.8137 1.7325 -0.2183 0.9923
-0.8268 1.7325 -0.2190 0.9923
-0.8666 1.7324 -0.2210 0.9922
-0.8935 1.7324 -0.2224 0.9922
-0.9208 1.7323 -0.2238 0.9921
-0.9346 1.7323 -0.2245 0.9921
-0.9906 1.7322 -0.2276 0.9920
-1.0048 1.7321 -0.2284 0.9920
-1.0192 1.7321 -0.2293 0.9919
-1.0336 1.7321 -0.2301 0.9919
-1.0482 1.7321 -0.2309 0.9919
-1.0629 1.7320 -0.2318 0.9919
-1.0776 1.7320 -0.2327 0.9918
-1.1075 1.7319 -0.2345 0.9918
-1.1227 1.7319 -0.2354 0.9917
-1.1379 1.7319 -0.2364 0.9917
-1.2002 1.7317 -0.2403 0.9916
-1.2161 1.7317 -0.2414 0.9915
-1.2483 1.7316 -0.2435 0.9914
-1.2646 1.7315 -0.2446 0.9914
-1.2976 1.7314 -0.2468 0.9913
-1.3313 1.7313 -0.2491 0.9912
-1.3484 1.7313 -0.2503 0.9912
-1.3657 1.7312 -0.2515 0.9912
-1.4363 1.7310 -0.2566 0.9910
-1.4728 1.7309 -0.2593 0.9909
-1.5100 1.7308 -0.2620 0.9908
-1.5289 1.7307 -0.2634 0.9907
-1.6066 1.7304 -0.2694 0.9905
-1.6265 1.7304 -0.2709 0.9905
-1.6467 1.7303 -0.2725 0.9904
-1.6672 1.7302 -0.2741 0.9904
-1.7088 1.7301 -0.2774 0.9903
-1.7300 1.7300 -0.2791 0.9902
-1.7515 1.7299 -0.2808 0.9901
-1.7732 1.7298 -0.2826 0.9901
-1.8400 1.7296 -0.2881 0.9899
-1.8629 1.7295 -0.2900 0.9898
-1.8860 1.7294 -0.2919 0.9898
-1.9095 1.7293 -0.2939 0.9897
-1.9333 1.7292 -0.2959 0.9896
-1.9574 1.7291 -0.2979 0.9895
-1.9819 1.7290 -0.3000 0.9895
-2.0832 1.7286 -0.3088 0.9892
-2.1095 1.7285 -0.3111 0.9891
-2.1362 1.7284 -0.3135 0.9890
-2.1633 1.7283 -0.3159 0.9889
-2.1908 1.7282 -0.3183 0.9888
-2.2189 1.7282 -0.3208 0.9887
-2.3063 1.7285 -0.3288 0.9885
-2.3364 1.7286 -0.3315 0.9884
-2.3982 1.7288 -0.3372 0.9882
-2.4621 1.7290 -0.3432 0.9880
-2.4949 1.7291 -0.3463 0.9879
-2.5284 1.7293 -0.3494 0.9877
-2.5624 1.7294 -0.3527 0.9876
-2.5971 1.7295 -0.3559 0.9875
-2.6324 1.7296 -0.3593 0.9874
-2.6684 1.7297 -0.3628 0.9873
-2.7425 1.7300 -0.3699 0.9870
-2.7807 1.7301 -0.3736 0.9869
-2.8196 1.7303 -0.3774 0.9868
-2.8999 1.7305 -0.3852 0.9865
-2.9837 1.7308 -0.3935 0.9862
-3.0269 1.7310 -0.3978 0.9861
-3.2581 1.7318 -0.4209 0.9853
-3.3076 1.7320 -0.4259 0.9851
-3.4636 1.7325 -0.4418 0.9845
-3.5182 1.7327 -0.4474 0.9843
-3.6316 1.7331 -0.4590 0.9839
-3.6906 1.7333 -0.4651 0.9837
-3.7512 1.7336 -0.4714 0.9835
-3.8134 1.7338 -0.4779 0.9833
-3.8774 1.7340 -0.4845 0.9830
-3.9432 1.7342 -0.4914 0.9828
-4.0109 1.7345 -0.4985 0.9826
-4.2262 1.7353 -0.5212 0.9818
-4.3024 1.7355 -0.5292 0.9815
-4.4621 1.7361 -0.5462 0.9809
-4.6324 1.7367 -0.5644 0.9803
-4.8145 1.7374 -0.5839 0.9796
-4.9104 1.7378 -0.5942 0.9792
-5.0097 1.7381 -0.6049 0.9789
-5.1127 1.7385 -0.6160 0.9785
-5.2195 1.7389 -0.6276 0.9781
-5.6881 1.7399 -0.6786 0.9763
-6.0930 1.7408 -0.7229 0.9748
-6.3949 1.7418 -0.7561 0.9737
-6.5565 1.7424 -0.7739 0.9731
-6.7246 1.7426 -0.7924 0.9724
-7.0813 1.7418 -0.8319 0.9711
-7.9133 1.7401 -0.9243 0.9679
-8.1510 1.7396 -0.9508 0.9670
-20.6385 4.1383 -2.4012 0.9187
-20.7102 3.7546 -2.4011 0.9188
-20.7326 3.6263 -2.4010 0.9188
-20.7949 3.2409 -2.4008 0.9188
-20.8140 3.1122 -2.4008 0.9188
-20.8829 2.5961 -2.4006 0.9188
-20.8980 2.4669 -2.4005 0.9188
-20.9124 2.3375 -2.4005 0.9188
-20.9388 2.0786 -2.4004 0.9188
-20.9508 1.9490 -2.4003 0.9188
-20.9819 1.5599 -2.4001 0.9188
-20.9987 1.3003 -2.4000 0.9188
-21.0122 1.0404 -2.3999 0.9188
-21.0178 0.9104 -2.3999 0.9188
-21.0225 0.7804 -2.3998 0.9188
-21.0296 0.5203 -2.3997 0.9188
-21.0320 0.3902 -2.3997 0.9188
-21.0336 0.2601 -2.3996 0.9188
-19.7326 -0.0000 -2.3996 0.9236
-19.7318 -0.1220 -2.3995 0.9236
-19.7303 -0.2441 -2.3995 0.9236
-19.7249 -0.4880 -2.3994 0.9236
-19.7211 -0.6100 -2.3993 0.9236
-19.7165 -0.7319 -2.3993 0.9236
-19.7113 -0.8538 -2.3992 0.9236
-19.7052 -0.9757 -2.3992 0.9236
-19.6984 -1.0975 -2.3991 0.9236
-19.6908 -1.2193 -2.3991 0.9236
-19.6825 -1.3411 -2.3990 0.9236
-19.6734 -1.4627 -2.3990 0.9236
-19.6636 -1.5842 -2.3989 0.9236
-19.6530 -1.7058 -2.3989 0.9236
-19.6296 -1.9487 -2.3988 0.9236
-19.6032 -2.1912 -2.3987 0.9236
-19.5737 -2.4334 -2.3986 0.9236
-19.5580 -2.5543 -2.3985 0.9236
-19.5414 -2.6752 -2.3985 0.9236
-19.5241 -2.7960 -2.3984 0.9236
-19.5060 -2.9166 -2.3984 0.9236
-19.4677 -3.1575 -2.3983 0.9236
-19.4263 -3.3979 -2.3982 0.9236
-19.3588 -3.7575 -2.3980 0.9236
-19.3348 -3.8771 -2.3980 0.9236
-19.2846 -4.1157 -2.3979 0.9236
-19.2315 -4.3537 -2.3978 0.9236
-19.2038 -4.4725 -2.3977 0.9236
-19.1463 -4.7095 -2.3977 0.9236
-19.1164 -4.8277 -2.3976 0.9236
-19.0858 -4.9457 -2.3976 0.9236
-18.6623 -6.3457 -2.3970 0.9236
-18.5816 -6.5758 -2.3969 0.9236
-18.4554 -6.9190 -2.3968 0.9237
-18.2773 -7.3728 -2.3966 0.9237
-18.1840 -7.5980 -2.3965 0.9237
-18.0880 -7.8221 -2.3964 0.9237
-17.9388 -8.1559 -2.3963 0.9237
-17.8359 -8.3768 -2.3962 0.9237
-17.7834 -8.4868 -2.3962 0.9237
-17.5668 -8.9234 -2.3960 0.9237
-17.2811 -9.4614 -2.3958 0.9237
-17.1621 -9.6741 -2.3957 0.9237
-17.0406 -9.8853 -2.3956 0.9237
-16.9165 -10.0950 -2.3955 0.9237
-16.7898 -10.3031 -2.3955 0.9237
-16.7254 -10.4065 -2.3954 0.9237
-16.6605 -10.5096 -2.3954 0.9237
-16.5949 -10.6123 -2.3953 0.9237
-16.3944 -10.9177 -2.3952 0.9237
-16.3263 -11.0188 -2.3952 0.9237
-16.1883 -11.2195 -2.3951 0.9237
-16.1183 -11.3192 -2.3951 0.9237
-16.0478 -11.4185 -2.3950 0.9237
-15.5369 -12.1010 -2.3948 0.9237
-15.4616 -12.1967 -2.3947 0.9237
-15.3091 -12.3866 -2.3947 0.9237
-15.2319 -12.4808 -2.3946 0.9237
-15.1542 -12.5746 -2.3946 0.9237
-14.9971 -12.7607 -2.3945 0.9237
-14.7572 -13.0362 -2.3944 0.9237
-14.6761 -13.1270 -2.3944 0.9237
-14.3461 -13.4853 -2.3943 0.9237
-13.8349 -14.0071 -2.3941 0.9237
-13.7478 -14.0922 -2.3941 0.9237
-13.6602 -14.1767 -2.3940 0.9237
-13.5721 -14.2608 -2.3940 0.9237
-13.3944 -14.4272 -2.3939 0.9237
-13.3047 -14.5096 -2.3939 0.9237
-13.2146 -14.5914 -2.3939 0.9237
-13.1239 -14.6726 -2.3938 0.9237
-13.0328 -14.7533 -2.3938 0.9237
-12.9411 -14.8335 -2.3938 0.9237
-12.7564 -14.9921 -2.3937 0.9237
-12.5697 -15.1483 -2.3937 0.9237
-12.4756 -15.2256 -2.3936 0.9237
-12.3811 -15.3023 -2.3936 0.9237
-12.2861 -15.3784 -2.3936 0.9237
-12.0947 -15.5288 -2.3935 0.9238
-11.9983 -15.6031 -2.3935 0.9238
-11.7064 -15.8225 -2.3934 0.9238
-11.5096 -15.9658 -2.3934 0.9238
-11.4105 -16.0365 -2.3934 0.9238
-11.0099 -16.3132 -2.3933 0.9238
-10.6026 -16.5799 -2.3932 0.9238
-10.3966 -16.7094 -2.3931 0.9238
-10.1889 -16.8364 -2.3931 0.9238
-9.9798 -16.9609 -2.3930 0.9238
-9.8746 -17.0221 -2.3930 0.9238
-9.4502 -17.2606 -2.3929 0.9238
-9.3432 -17.3186 -2.3929 0.9238
-9.1282 -17.4326 -2.3929 0.9238
-8.3667 -16.4709 -2.2465 0.9283
-8.2330 -16.4590 -2.2379 0.9285
-8.5845 -17.7058 -2.3928 0.9238
-8.3648 -17.8104 -2.3928 0.9238
-8.2544 -17.8616 -2.3928 0.9238
-7.9215 -18.0113 -2.3927 0.9238
-7.6980 -18.1077 -2.3927 0.9238
-7.4734 -18.2013 -2.3927 0.9238
-7.3606 -18.2471 -2.3926 0.9238
-7.1343 -18.3365 -2.3926 0.9238
-7.0207 -18.3802 -2.3926 0.9238
-6.9068 -18.4232 -2.3926 0.9238
-6.7929 -18.4655 -2.3926 0.9238
-6.6783 -18.5070 -2.3926 0.9238
-6.5637 -18.5479 -2.3926 0.9238
-6.2186 -18.6662 -2.3925 0.9238
-6.1029 -18.7042 -2.3925 0.9238
-5.9871 -18.7415 -2.3925 0.9238
-5.7384 -18.7603 -2.3856 0.9240
-5.6117 -18.7599 -2.3811 0.9241
-5.3596 -18.7592 -2.3725 0.9244
-5.1093 -18.7584 -2.3642 0.9247
-4.8607 -18.7576 -2.3563 0.9249
-4.6137 -18.7567 -2.3489 0.9251
-4.4907 -18.7562 -2.3453 0.9252
-3.5195 -18.7519 -2.3201 0.9260
-3.3994 -18.7513 -2.3174 0.9261
-2.8032 -18.7481 -2.3052 0.9265
-2.6847 -18.7474 -2.3030 0.9265
-2.5664 -18.7467 -2.3009 0.9266
-2.4483 -18.7459 -2.2989 0.9267
-2.2127 -18.7445 -2.2952 0.9268
-2.0951 -18.7437 -2.2935 0.9268
-1.9778 -18.7429 -2.2919 0.9269
-1.8606 -18.7421 -2.2903 0.9269
-1.7435 -18.7413 -2.2888 0.9270
-1.6266 -18.7405 -2.2875 0.9270
-1.5098 -18.7396 -2.2862 0.9270
-1.3932 -18.7388 -2.2850 0.9271
-1.1602 -18.7370 -2.2829 0.9271
-1.0439 -18.7362 -2.2819 0.9272
-0.8115 -18.7343 -2.2803 0.9272
-0.3475 -18.7304 -2.2781 0.9273
-0.1158 -18.7284 -2.2775 0.9273
0.1158 -18.7263 -2.2772 0.9273
0.2316 -18.7253 -2.2772 0.9273
0.4632 -18.7231 -2.2775 0.9273
0.5791 -18.7220 -2.2777 0.9273
0.8109 -18.7196 -2.2785 0.9273
0.9268 -18.7185 -2.2790 0.9273
1.0428 -18.7174 -2.2796 0.9272
1.1473 -16.8399 -2.0525 0.9342
1.3600 -16.8797 -2.0593 0.9340
2.5601 -18.7005 -2.2953 0.9268
2.7957 -18.6976 -2.2990 0.9267
2.9138 -18.6962 -2.3010 0.9266
3.3883 -18.6902 -2.3098 0.9263
3.5936 -16.8384 -2.0937 0.9330
3.9306 -16.8772 -2.1073 0.9326
4.1406 -16.8336 -2.1080 0.9325
4.8380 -18.6702 -2.3454 0.9252
5.2080 -18.6647 -2.3564 0.9249
5.3321 -18.6629 -2.3603 0.9248
5.8327 -18.6553 -2.3768 0.9243
5.9589 -18.6533 -2.3812 0.9241
6.0857 -18.6512 -2.3857 0.9240
6.2129 -18.6492 -2.3904 0.9238
6.3354 -18.6320 -2.3931 0.9238
6.6502 -17.7386 -2.3037 0.9265
6.8954 -17.7226 -2.3125 0.9262
7.0205 -17.7191 -2.3177 0.9261
6.5257 -16.1773 -2.1212 0.9321
6.6277 -16.1418 -2.1219 0.9321
6.8677 -16.1546 -2.1346 0.9317
7.0936 -16.1288 -2.1426 0.9315
8.2570 -17.8673 -2.3935 0.9238
8.6968 -17.6583 -2.3936 0.9237
8.9147 -17.5498 -2.3937 0.9237
9.0232 -17.4945 -2.3937 0.9237
9.1313 -17.4387 -2.3937 0.9237
9.2391 -17.3820 -2.3938 0.9237
9.3465 -17.3247 -2.3938 0.9237
8.9055 -16.2657 -2.2550 0.9280
8.9699 -16.1455 -2.2460 0.9283
9.0949 -16.1346 -2.2523 0.9281
9.2247 -16.1308 -2.2597 0.9279
9.3616 -16.1378 -2.2687 0.9276
9.9835 -16.9673 -2.3940 0.9237
10.1929 -16.8430 -2.3940 0.9237
10.2970 -16.7799 -2.3941 0.9237
10.5040 -16.6517 -2.3941 0.9237
10.6069 -16.5866 -2.3941 0.9237
10.7095 -16.5209 -2.3942 0.9237
10.9132 -16.3876 -2.3942 0.9237
11.1154 -16.2519 -2.3943 0.9237
11.2158 -16.1830 -2.3943 0.9237
11.4154 -16.0435 -2.3944 0.9237
11.5146 -15.9728 -2.3944 0.9237
11.7116 -15.8296 -2.3945 0.9237
11.8094 -15.7572 -2.3945 0.9237
11.9068 -15.6840 -2.3946 0.9237
12.1002 -15.5360 -2.3946 0.9237
12.3870 -15.3096 -2.3948 0.9237
12.4816 -15.2328 -2.3948 0.9237
12.9474 -14.8408 -2.3950 0.9237
13.0393 -14.7607 -2.3950 0.9237
13.4904 -14.3517 -2.3952 0.9237
13.6674 -14.1842 -2.3953 0.9237
13.7550 -14.0996 -2.3953 0.9237
14.0149 -13.8426 -2.3954 0.9237
14.1005 -13.7560 -2.3955 0.9237
14.1855 -13.6687 -2.3955 0.9237
14.3540 -13.4927 -2.3956 0.9237
14.6026 -13.2247 -2.3957 0.9237
14.6843 -13.1344 -2.3957 0.9237
15.2408 -12.4881 -2.3960 0.9237
15.3947 -12.2991 -2.3961 0.9237
15.4707 -12.2039 -2.3962 0.9237
15.9145 -11.6228 -2.3964 0.9237
15.9863 -11.5244 -2.3965 0.9237
16.1282 -11.3262 -2.3966 0.9237
16.1982 -11.2265 -2.3966 0.9237
16.3365 -11.0257 -2.3967 0.9237
16.4047 -10.9246 -2.3967 0.9237
16.4722 -10.8232 -2.3968 0.9237
16.6711 -10.5163 -2.3969 0.9236
16.7361 -10.4132 -2.3970 0.9236
16.9274 -10.1015 -2.3971 0.9236
16.9899 -9.9968 -2.3971 0.9236
17.0517 -9.8917 -2.3972 0.9236
17.1734 -9.6805 -2.3973 0.9236
17.2333 -9.5742 -2.3973 0.9236
17.2925 -9.4677 -2.3974 0.9236
17.3510 -9.3607 -2.3974 0.9236
17.4090 -9.2534 -2.3975 0.9236
17.4662 -9.1458 -2.3975 0.9236
17.5786 -8.9294 -2.3976 0.9236
17.6884 -8.7116 -2.3977 0.9236
17.7955 -8.4926 -2.3978 0.9236
17.8999 -8.2721 -2.3979 0.9236
18.1005 -7.8275 -2.3981 0.9236
18.1489 -7.7156 -2.3981 0.9236
18.1966 -7.6033 -2.3982 0.9236
18.2437 -7.4908 -2.3982 0.9236
18.2900 -7.3780 -2.3983 0.9236
18.3357 -7.2649 -2.3983 0.9236
18.4684 -6.9239 -2.3985 0.9236
18.5113 -6.8096 -2.3985 0.9236
18.5534 -6.6952 -2.3986 0.9236
18.6356 -6.4655 -2.3987 0.9236
18.6756 -6.3503 -2.3987 0.9236
18.7534 -6.1191 -2.3988 0.9236
18.8285 -5.8869 -2.3989 0.9236
18.8649 -5.7704 -2.3990 0.9236
18.9006 -5.6538 -2.3990 0.9236
18.9699 -5.4198 -2.3991 0.9236
19.0996 -4.9494 -2.3993 0.9236
19.1304 -4.8312 -2.3994 0.9236
19.1603 -4.7129 -2.3994 0.9236
19.1894 -4.5945 -2.3995 0.9236
19.2179 -4.4758 -2.3995 0.9236
19.2988 -4.1188 -2.3997 0.9236
19.3243 -3.9994 -2.3997 0.9236
19.3964 -3.6404 -2.3999 0.9236
19.4408 -3.4004 -2.4000 0.9236
19.3965 -3.2691 -2.3920 0.9238
19.5206 -2.9187 -2.4002 0.9235
19.5387 -2.7981 -2.4002 0.9235
19.5560 -2.6772 -2.4003 0.9235
19.5726 -2.5563 -2.4003 0.9235
19.6035 -2.3141 -2.4004 0.9235
19.6179 -2.1928 -2.4005 0.9235
19.6315 -2.0715 -2.4005 0.9235
19.6677 -1.7071 -2.4007 0.9235
19.6783 -1.5855 -2.4007 0.9235
19.6882 -1.4638 -2.4008 0.9235
19.7056 -1.2202 -2.4009 0.9235
19.7200 -0.9764 -2.4010 0.9235
19.7314 -0.7325 -2.4011 0.9235
19.7429 -0.3663 -2.4012 0.9235
19.7475 0.1221 -2.4014 0.9235
19.6859 0.2435 -2.3941 0.9237
19.6844 0.3653 -2.3941 0.9237
19.6822 0.4870 -2.3942 0.9237
19.6755 0.7304 -2.3943 0.9237
19.6710 0.8521 -2.3943 0.9237
19.6657 0.9738 -2.3944 0.9237
19.6455 1.3385 -2.3945 0.9237
19.6632 1.4619 -2.3977 0.9236
19.6890 1.5863 -2.4020 0.9235
19.6792 1.7081 -2.4021 0.9235
19.6687 1.8298 -2.4021 0.9235
19.6454 2.0730 -2.4022 0.9235
19.6326 2.1945 -2.4023 0.9235
19.6190 2.3159 -2.4023 0.9235
19.5897 2.5585 -2.4024 0.9235
19.5739 2.6797 -2.4025 0.9235
18.4338 2.7563 -2.2665 0.9276
19.5220 3.0425 -2.4026 0.9235
19.4634 3.4044 -2.4028 0.9235
13.9985 2.7170 -1.7340 0.9442
13.5771 2.7225 -1.6839 0.9457
12.7108 2.7128 -1.5805 0.9490
12.3819 2.7227 -1.5417 0.9502
11.8828 2.7675 -1.4837 0.9520
11.6035 2.7782 -1.4509 0.9531
11.3542 3.0173 -1.4286 0.9538
11.3413 3.0891 -1.4294 0.9537
11.3348 3.1627 -1.4310 0.9537
11.3292 3.2368 -1.4328 0.9536
11.3219 3.3867 -1.4371 0.9535
11.3161 3.6151 -1.4446 0.9533
11.3179 3.7705 -1.4507 0.9531
11.3237 3.9287 -1.4575 0.9529
11.3612 4.1794 -1.4721 0.9524
17.2559 6.7138 -2.2516 0.9281
17.2143 6.8205 -2.2516 0.9281
17.1721 6.9270 -2.2517 0.9281
17.1293 7.0332 -2.2517 0.9281
17.0678 7.2559 -2.2553 0.9280
16.8834 7.6760 -2.2553 0.9280
16.8357 7.7803 -2.2553 0.9280
16.6886 8.0914 -2.2554 0.9280
16.6384 8.1945 -2.2554 0.9280
16.5359 8.3997 -2.2554 0.9280
16.4837 8.5018 -2.2554 0.9280
16.4308 8.6036 -2.2554 0.9280
16.3774 8.7051 -2.2554 0.9280
16.3233 8.8063 -2.2554 0.9280
16.2132 9.0075 -2.2554 0.9280
16.1573 9.1077 -2.2554 0.9280
16.1007 9.2074 -2.2554 0.9280
15.6945 9.1044 -2.2064 0.9295
7.2436 4.3227 -1.0258 0.9666
7.1064 4.3006 -1.0101 0.9671
6.8930 4.2888 -0.9872 0.9678
6.8115 4.2967 -0.9793 0.9681
6.6508 4.3113 -0.9638 0.9686
6.5384 4.3542 -0.9553 0.9688
6.4839 4.3760 -0.9512 0.9690
6.3756 4.4187 -0.9433 0.9692
6.3259 4.4424 -0.9400 0.9693
6.2803 4.4687 -0.9373 0.9694
6.2349 4.4947 -0.9347 0.9695
6.1897 4.5205 -0.9320 0.9696
6.1018 4.5731 -0.9273 0.9697
6.0639 4.6035 -0.9258 0.9698
6.0273 4.6348 -0.9246 0.9698
6.0082 4.8001 -0.9352 0.9695
6.0055 4.8590 -0.9394 0.9694
5.9945 5.1006 -0.9571 0.9688
5.9920 5.1627 -0.9618 0.9686
5.9852 5.3535 -0.9765 0.9682
5.9831 5.4186 -0.9816 0.9680
5.9809 5.4843 -0.9868 0.9678
5.9787 5.5507 -0.9921 0.9677
5.9764 5.6178 -0.9974 0.9675
5.9718 5.7542 -1.0085 0.9671
5.9729 5.8270 -1.0147 0.9669
5.9815 5.9815 -1.0287 0.9665
5.9859 6.0604 -1.0358 0.9663
5.9756 6.2016 -1.0473 0.9659
5.9826 6.2861 -1.0553 0.9656
5.9890 6.3713 -1.0633 0.9654
5.9906 6.4526 -1.0707 0.9651
6.0592 6.6905 -1.0976 0.9643
6.1314 6.9409 -1.1262 0.9634
6.1691 7.0712 -1.1411 0.9629
9.2123 10.8269 -1.7287 0.9443
9.1601 10.9013 -1.7315 0.9442
9.0550 11.0509 -1.7373 0.9441
9.0021 11.1261 -1.7404 0.9440
1.3611 1.7255 -0.2672 0.9912
1.3270 1.7257 -0.2647 0.9913
1.3102 1.7258 -0.2635 0.9913
1.2935 1.7260 -0.2623 0.9913
1.2770 1.7261 -0.2611 0.9914
1.2607 1.7262 -0.2599 0.9914
1.2445 1.7263 -0.2588 0.9915
1.2284 1.7264 -0.2577 0.9915
1.1967 1.7266 -0.2555 0.9916
1.1046 1.7273 -0.2493 0.9918
1.0896 1.7274 -0.2484 0.9918
1.0455 1.7277 -0.2456 0.9919
0.9882 1.7280 -0.2421 0.9920
0.9187 1.7284 -0.2380 0.9921
0.9051 1.7285 -0.2373 0.9922
0.8781 1.7287 -0.2358 0.9922
0.8514 1.7288 -0.2343 0.9923
0.8382 1.7289 -0.2336 0.9923
0.7862 1.7292 -0.2310 0.9924
0.7733 1.7293 -0.2304 0.9924
0.7606 1.7293 -0.2297 0.9924
0.7352 1.7295 -0.2285 0.9925
0.6977 1.7296 -0.2268 0.9925
0.6730 1.7298 -0.2257 0.9925
0.6607 1.7298 -0.2252 0.9926
0.6485 1.7299 -0.2247 0.9926
0.6364 1.7300 -0.2241 0.9926
0.6243 1.7300 -0.2237 0.9926
0.6002 1.7301 -0.2227 0.9926
0.5883 1.7302 -0.2222 0.9927
0.5646 1.7303 -0.2213 0.9927
0.5410 1.7304 -0.2205 0.9927
0.5293 1.7304 -0.2201 0.9927
0.5176 1.7305 -0.2196 0.9927
0.5060 1.7305 -0.2193 0.9928
0.4944 1.7306 -0.2189 0.9928
0.4257 1.7309 -0.2168 0.9928
0.3919 1.7310 -0.2158 0.9929
0.3806 1.7311 -0.2155 0.9929
0.3471 1.7312 -0.2147 0.9929
0.3360 1.7312 -0.2144 0.9929
0.3139 1.7313 -0.2140 0.9929
0.3028 1.7313 -0.2137 0.9929
0.2918 1.7314 -0.2135 0.9930
0.2808 1.7314 -0.2133 0.9930
0.2698 1.7314 -0.2131 0.9930
0.2589 1.7315 -0.2129 0.9930
0.2370 1.7315 -0.2125 0.9930
0.2044 1.7316 -0.2120 0.9930
0.1827 1.7317 -0.2117 0.9930
0.1719 1.7317 -0.2116 0.9930
0.1611 1.7317 -0.2115 0.9930
0.1503 1.7318 -0.2114 0.9930
0.1180 1.7319 -0.2111 0.9930
0.0858 1.7319 -0.2109 0.9930
0.0750 1.7320 -0.2108 0.9930
0.0536 1.7320 -0.2107 0.9930
0.0214 1.7321 -0.2106 0.9930
0.0000 1.7321 -0.2106 0.9930
-0.0321 1.7321 -0.2107 0.9930
-0.0536 1.7320 -0.2107 0.9930
-0.0643 1.7320 -0.2108 0.9930
-0.0965 1.7319 -0.2109 0.9930
-0.1072 1.7318 -0.2110 0.9930
-0.1395 1.7318 -0.2113 0.9930
-0.1503 1.7318 -0.2114 0.9930
-0.1611 1.7318 -0.2115 0.9930
-0.1719 1.7318 -0.2116 0.9930
-0.1936 1.7318 -0.2119 0.9930
-0.2044 1.7318 -0.2121 0.9930
-0.2371 1.7318 -0.2126 0.9930
-0.2809 1.7319 -0.2134 0.9930
-0.3362 1.7319 -0.2145 0.9929
-0.3473 1.7319 -0.2148 0.9929
-0.3696 1.7319 -0.2153 0.9929
-0.4033 1.7319 -0.2162 0.9929
-0.4147 1.7319 -0.2166 0.9928
-0.4260 1.7319 -0.2169 0.9928
-0.4374 1.7319 -0.2172 0.9928
-0.4602 1.7319 -0.2179 0.9928
-0.4717 1.7319 -0.2183 0.9928
-0.4948 1.7319 -0.2190 0.9928
-0.5064 1.7319 -0.2194 0.9928
-0.5181 1.7319 -0.2198 0.9927
-0.5651 1.7318 -0.2215 0.9927
-0.5769 1.7318 -0.2220 0.9927
-0.6008 1.7318 -0.2229 0.9926
-0.6492 1.7318 -0.2249 0.9926
-0.6985 1.7317 -0.2271 0.9925
-0.7362 1.7316 -0.2288 0.9924
-0.7488 1.7316 -0.2294 0.9924
-0.7744 1.7316 -0.2307 0.9924
-0.7872 1.7316 -0.2313 0.9924
-0.8002 1.7315 -0.2320 0.9923
-0.8132 1.7315 -0.2326 0.9923
-0.8263 1.7315 -0.2333 0.9923
-0.8395 1.7315 -0.2340 0.9923
-0.8527 1.7314 -0.2347 0.9923
-0.8661 1.7314 -0.2354 0.9922
-0.9066 1.7313 -0.2377 0.9922
-0.9900 1.7312 -0.2425 0.9920
-1.0042 1.7311 -0.2434 0.9920
-1.0330 1.7311 -0.2451 0.9919
-1.0476 1.7310 -0.2460 0.9919
-1.0622 1.7310 -0.2470 0.9918
-1.0770 1.7310 -0.2479 0.9918
-1.0919 1.7309 -0.2489 0.9918
-1.1372 1.7308 -0.2518 0.9917
-1.1526 1.7308 -0.2529 0.9917
-1.1681 1.7307 -0.2539 0.9916
-1.1837 1.7307 -0.2550 0.9916
-1.2313 1.7305 -0.2583 0.9915
-1.2475 1.7305 -0.2594 0.9914
-1.2638 1.7304 -0.2606 0.9914
-1.2968 1.7303 -0.2629 0.9913
-1.3305 1.7302 -0.2654 0.9912
-1.3475 1.7302 -0.2667 0.9912
-1.4175 1.7299 -0.2720 0.9910
-1.4535 1.7298 -0.2748 0.9909
-1.5090 1.7296 -0.2791 0.9908
-1.5662 1.7294 -0.2837 0.9906
-1.5857 1.7293 -0.2853 0.9906
-1.6254 1.7292 -0.2886 0.9905
-1.6456 1.7291 -0.2903 0.9904
-1.6660 1.7290 -0.2920 0.9904
-1.6867 1.7289 -0.2937 0.9903
-1.7502 1.7287 -0.2991 0.9901
-1.7719 1.7286 -0.3010 0.9901
-1.8161 1.7284 -0.3049 0.9899
-1.8846 1.7281 -0.3109 0.9897
-1.9080 1.7280 -0.3130 0.9897
-1.9318 1.7279 -0.3152 0.9896
-1.9559 1.7278 -0.3174 0.9895
-1.9804 1.7278 -0.3196 0.9895
-2.0308 1.7279 -0.3242 0.9893
-2.1091 1.7282 -0.3316 0.9891
-2.1361 1.7283 -0.3341 0.9890
-2.1634 1.7284 -0.3367 0.9889
-2.2194 1.7286 -0.3421 0.9887
-2.2481 1.7287 -0.3448 0.9886
-2.2772 1.7288 -0.3477 0.9885
-2.3068 1.7289 -0.3506 0.9885
-2.3369 1.7290 -0.3535 0.9884
-2.4627 1.7294 -0.3659 0.9879
-2.5977 1.7299 -0.3795 0.9875
-2.6330 1.7300 -0.3831 0.9874
-2.7057 1.7303 -0.3906 0.9871
-2.7432 1.7304 -0.3944 0.9870
-2.7813 1.7306 -0.3983 0.9869
-3.1171 1.7318 -0.4336 0.9857
-3.2106 1.7321 -0.4436 0.9854
-3.3085 1.7325 -0.4542 0.9851
-3.3593 1.7326 -0.4596 0.9849
-3.4113 1.7328 -0.4653 0.9847
-3.4646 1.7330 -0.4711 0.9845
-3.5192 1.7332 -0.4770 0.9843
-3.5752 1.7334 -0.4832 0.9841
-3.6327 1.7337 -0.4895 0.9839
-3.8146 1.7343 -0.5096 0.9833
-3.8786 1.7346 -0.5167 0.9830
-4.0121 1.7351 -0.5316 0.9825
-4.1536 1.7356 -0.5474 0.9820
-4.2276 1.7359 -0.5557 0.9818
-4.3038 1.7361 -0.5643 0.9815
-4.3825 1.7364 -0.5732 0.9812
-4.5475 1.7371 -0.5920 0.9806
-4.6341 1.7374 -0.6018 0.9803
-4.7237 1.7377 -0.6121 0.9799
-4.8163 1.7380 -0.6227 0.9796
-4.9123 1.7384 -0.6337 0.9792
-5.0117 1.7388 -0.6451 0.9789
-5.1147 1.7392 -0.6569 0.9785
-5.4480 1.7404 -0.6955 0.9772
-6.5585 1.7429 -0.8252 0.9730
-7.0812 1.7418 -0.8868 0.9710
-7.4753 1.7410 -0.9333 0.9695
-7.6883 1.7405 -0.9586 0.9687
-7.9132 1.7401 -0.9853 0.9679
-8.1509 1.7396 -1.0135 0.9670
-19.3365 4.0019 -2.4012 0.9235
-19.3837 3.7623 -2.4011 0.9235
-19.4062 3.6422 -2.4011 0.9235
-19.4279 3.5221 -2.4010 0.9235
-19.4489 3.4018 -2.4010 0.9235
-19.5255 2.9195 -2.4008 0.9235
-19.5427 2.7987 -2.4007 0.9235
-19.5901 2.4354 -2.4006 0.9235
-19.6179 2.1928 -2.4005 0.9235
-19.6306 2.0715 -2.4004 0.9235
-19.6427 1.9499 -2.4004 0.9235
-19.6539 1.8284 -2.4003 0.9235
-19.6645 1.7068 -2.4003 0.9235
-19.6742 1.5851 -2.4002 0.9235
-19.6833 1.4634 -2.4002 0.9235
-19.6990 1.2198 -2.4001 0.9236
-19.7215 0.7321 -2.3999 0.9236
-19.7253 0.6101 -2.3998 0.9236
-19.7282 0.4881 -2.3998 0.9236
-19.7305 0.3661 -2.3997 0.9236
-19.7326 0.1220 -2.3996 0.9236
-18.5807 0.0000 -2.3996 0.9278
-18.5786 -0.2298 -2.3995 0.9278
-18.5608 -0.8040 -2.3993 0.9278
-18.5551 -0.9187 -2.3992 0.9278
-18.5416 -1.1481 -2.3991 0.9278
-18.5338 -1.2628 -2.3991 0.9278
-18.5253 -1.3773 -2.3990 0.9278
-18.5160 -1.4918 -2.3990 0.9278
-18.5061 -1.6063 -2.3990 0.9278
-18.4954 -1.7207 -2.3989 0.9278
-18.4593 -2.0634 -2.3988 0.9278
-18.4458 -2.1774 -2.3987 0.9278
-18.4316 -2.2914 -2.3987 0.9278
-18.3679 -2.7464 -2.3985 0.9278
-18.2513 -3.4255 -2.3982 0.9278
-18.2294 -3.5383 -2.3982 0.9278
-18.1836 -3.7633 -2.3981 0.9278
-18.1596 -3.8757 -2.3980 0.9278
-18.1350 -3.9878 -2.3980 0.9278
-18.1096 -4.0998 -2.3979 0.9278
-18.0836 -4.2116 -2.3979 0.9278
-18.0569 -4.3233 -2.3979 0.9278
-18.0014 -4.5461 -2.3978 0.9279
-17.9129 -4.8790 -2.3976 0.9279
-17.8183 -5.2102 -2.3975 0.9279
-17.6827 -5.6489 -2.3973 0.9279
-17.6472 -5.7581 -2.3973 0.9279
-17.6109 -5.8670 -2.3972 0.9279
-17.5740 -5.9756 -2.3972 0.9279
-17.5364 -6.0841 -2.3972 0.9279
-17.4195 -6.4081 -2.3970 0.9279
-17.3384 -6.6228 -2.3969 0.9279
-17.2968 -6.7298 -2.3969 0.9279
-17.2545 -6.8365 -2.3969 0.9279
-17.2116 -6.9430 -2.3968 0.9279
-17.0789 -7.2607 -2.3967 0.9279
-16.9873 -7.4711 -2.3966 0.9279
-16.9405 -7.5759 -2.3966 0.9279
-16.8449 -7.7845 -2.3965 0.9279
-16.7467 -7.9921 -2.3964 0.9279
-16.6461 -8.1983 -2.3963 0.9279
-16.4903 -8.5053 -2.3962 0.9279
-16.3833 -8.7083 -2.3961 0.9279
-16.2181 -9.0103 -2.3960 0.9279
-16.1618 -9.1102 -2.3960 0.9279
-16.1049 -9.2099 -2.3959 0.9279
-15.9893 -9.4081 -2.3959 0.9279
-15.9306 -9.5066 -2.3958 0.9279
-15.6896 -9.8971 -2.3957 0.9279
-15.5655 -10.0901 -2.3956 0.9279
-15.5025 -10.1860 -2.3956 0.9279
-15.0456 -10.8462 -2.3953 0.9279
-14.9099 -11.0312 -2.3953 0.9279
-14.8412 -11.1230 -2.3952 0.9279
-14.6317 -11.3959 -2.3951 0.9279
-14.4892 -11.5757 -2.3950 0.9279
-14.4171 -11.6649 -2.3950 0.9279
-14.0487 -12.1043 -2.3949 0.9279
-13.8975 -12.2768 -2.3948 0.9279
-13.7442 -12.4474 -2.3947 0.9279
-13.6668 -12.5320 -2.3947 0.9279
-13.5889 -12.6161 -2.3947 0.9279
-13.4315 -12.7828 -2.3946 0.9279
-13.3520 -12.8655 -2.3946 0.9279
-13.2720 -12.9477 -2.3945 0.9279
-13.1105 -13.1105 -2.3945 0.9279
-13.0290 -13.1912 -2.3945 0.9279
-12.7816 -13.4301 -2.3944 0.9280
-12.5298 -13.6645 -2.3943 0.9280
-12.3596 -13.8181 -2.3942 0.9280
-12.2737 -13.8941 -2.3942 0.9280
-12.0134 -14.1189 -2.3941 0.9280
-11.9258 -14.1928 -2.3941 0.9280
-11.6600 -14.4111 -2.3940 0.9280
-11.4807 -14.5539 -2.3940 0.9280
-11.3903 -14.6245 -2.3939 0.9280
-11.1167 -14.8328 -2.3939 0.9280
-11.0247 -14.9012 -2.3938 0.9280
-10.9322 -14.9689 -2.3938 0.9280
-10.8393 -15.0361 -2.3938 0.9280
-10.7460 -15.1026 -2.3938 0.9280
-10.6523 -15.1687 -2.3938 0.9280
-10.5582 -15.2341 -2.3937 0.9280
-10.3688 -15.3633 -2.3937 0.9280
-10.2735 -15.4270 -2.3937 0.9280
-9.9853 -15.6145 -2.3936 0.9280
-9.6936 -15.7966 -2.3935 0.9280
-9.5957 -15.8561 -2.3935 0.9280
-9.2996 -16.0311 -2.3935 0.9280
-9.0004 -16.2004 -2.3934 0.9280
-8.9000 -16.2556 -2.3934 0.9280
-8.6981 -16.3643 -2.3934 0.9280
-8.5967 -16.4176 -2.3933 0.9280
-8.2905 -16.5739 -2.3933 0.9280
-8.1878 -16.6247 -2.3933 0.9280
-8.0848 -16.6750 -2.3933 0.9280
-7.8778 -16.7735 -2.3932 0.9280
-7.7739 -16.8217 -2.3932 0.9280
-7.6696 -16.8694 -2.3932 0.9280
-7.5651 -16.9164 -2.3932 0.9280
-7.3552 -17.0085 -2.3931 0.9280
-7.1442 -17.0979 -2.3931 0.9280
-6.9321 -17.1848 -2.3931 0.9280
-6.6121 -17.3102 -2.3931 0.9280
-6.5048 -17.3507 -2.3930 0.9280
-6.3974 -17.3905 -2.3930 0.9280
-6.0736 -17.5059 -2.3930 0.9280
-5.9652 -17.5431 -2.3930 0.9280
-5.8566 -17.5796 -2.3930 0.9280
-5.6386 -17.6505 -2.3930 0.9280
-5.4199 -17.7188 -2.3929 0.9280
-5.3101 -17.7519 -2.3929 0.9280
-5.2003 -17.7843 -2.3929 0.9280
-4.8694 -17.8776 -2.3929 0.9280
-4.7587 -17.9073 -2.3929 0.9280
-4.6479 -17.9363 -2.3929 0.9280
-4.5369 -17.9647 -2.3929 0.9280
-4.4257 -17.9924 -2.3929 0.9280
-4.3143 -18.0193 -2.3929 0.9280
-4.0911 -18.0712 -2.3929 0.9280
-3.9792 -18.0961 -2.3929 0.9280
-3.7551 -18.1439 -2.3928 0.9280
-3.6428 -18.1668 -2.3928 0.9280
-3.4178 -18.2104 -2.3928 0.9280
-3.3051 -18.2311 -2.3928 0.9280
-2.7399 -18.3245 -2.3928 0.9280
-2.6265 -18.3411 -2.3928 0.9280
-2.5131 -18.3570 -2.3928 0.9280
-2.2858 -18.3866 -2.3928 0.9280
-1.9443 -18.4259 -2.3928 0.9280
-1.8304 -18.4375 -2.3928 0.9280
-1.7164 -18.4485 -2.3928 0.9280
-1.6021 -18.4588 -2.3928 0.9280
-1.3739 -18.4772 -2.3928 0.9280
-1.2595 -18.4854 -2.3928 0.9280
-1.1451 -18.4928 -2.3928 0.9280
-0.8020 -18.5109 -2.3928 0.9280
-0.6874 -18.5155 -2.3928 0.9280
-0.1146 -18.5282 -2.3929 0.9280
-0.0002 -18.5285 -2.3929 0.9280
0.1146 -18.5282 -2.3929 0.9280
0.2291 -18.5271 -2.3929 0.9280
0.4583 -18.5230 -2.3929 0.9280
0.9163 -18.5063 -2.3929 0.9280
1.1452 -18.4936 -2.3929 0.9280
1.1487 -16.8594 -2.1823 0.9341
1.3604 -16.8844 -2.1876 0.9340
1.6716 -16.8384 -2.1853 0.9340
2.0585 -18.4150 -2.3930 0.9280
2.1721 -18.4019 -2.3930 0.9280
2.2859 -18.3882 -2.3930 0.9280
2.3997 -18.3738 -2.3930 0.9280
2.6268 -18.3429 -2.3931 0.9280
2.7402 -18.3264 -2.3931 0.9280
2.8535 -18.3092 -2.3931 0.9280
2.9667 -18.2913 -2.3931 0.9280
3.0797 -18.2727 -2.3931 0.9280
3.1927 -18.2534 -2.3931 0.9280
3.3055 -18.2334 -2.3931 0.9280
3.4183 -18.2127 -2.3931 0.9280
3.5308 -18.1914 -2.3932 0.9280
3.6433 -18.1692 -2.3932 0.9280
3.7556 -18.1465 -2.3932 0.9280
3.6033 -16.8837 -2.2296 0.9327
3.7033 -16.8412 -2.2269 0.9328
3.9287 -16.8687 -2.2368 0.9325
4.0326 -16.8429 -2.2367 0.9325
4.4264 -17.9954 -2.3933 0.9280
4.5376 -17.9678 -2.3933 0.9280
4.6487 -17.9395 -2.3933 0.9280
4.7596 -17.9105 -2.3933 0.9280
5.2013 -17.7879 -2.3934 0.9280
5.3112 -17.7555 -2.3934 0.9280
5.4210 -17.7225 -2.3934 0.9280
5.6398 -17.6543 -2.3935 0.9280
5.9665 -17.5471 -2.3935 0.9280
6.1832 -17.4722 -2.3936 0.9280
6.3989 -17.3948 -2.3936 0.9280
6.5064 -17.3550 -2.3936 0.9280
6.7207 -17.2735 -2.3937 0.9280
6.9339 -17.1894 -2.3937 0.9280
6.6375 -16.1655 -2.2568 0.9319
6.7450 -16.1424 -2.2594 0.9319
6.9786 -16.1376 -2.2706 0.9315
7.1011 -16.1461 -2.2779 0.9313
7.8802 -16.7785 -2.3939 0.9280
8.3956 -16.5278 -2.3941 0.9280
8.8022 -16.3158 -2.3942 0.9280
9.0035 -16.2061 -2.3942 0.9280
9.1037 -16.1502 -2.3943 0.9280
9.3029 -16.0368 -2.3943 0.9280
9.4020 -15.9791 -2.3943 0.9280
9.7949 -15.7424 -2.3945 0.9279
9.8922 -15.6817 -2.3945 0.9279
9.9891 -15.6204 -2.3945 0.9279
10.0856 -15.5586 -2.3945 0.9279
10.3729 -15.3694 -2.3946 0.9279
10.4679 -15.3051 -2.3947 0.9279
10.5624 -15.2403 -2.3947 0.9279
10.6566 -15.1748 -2.3947 0.9279
10.7504 -15.1089 -2.3948 0.9279
10.8438 -15.0423 -2.3948 0.9279
10.9367 -14.9751 -2.3948 0.9279
11.1215 -14.8391 -2.3949 0.9279
11.2131 -14.7703 -2.3949 0.9279
11.3044 -14.7008 -2.3950 0.9279
11.4857 -14.5603 -2.3950 0.9279
11.5757 -14.4892 -2.3950 0.9279
11.8430 -14.2726 -2.3952 0.9279
12.0190 -14.1254 -2.3952 0.9279
12.1931 -13.9760 -2.3953 0.9279
12.2795 -13.9006 -2.3953 0.9279
12.4508 -13.7481 -2.3954 0.9279
12.5358 -13.6710 -2.3954 0.9279
12.6203 -13.5934 -2.3955 0.9279
12.7043 -13.5153 -2.3955 0.9279
12.7878 -13.4367 -2.3955 0.9279
12.8709 -13.3575 -2.3956 0.9279
12.9534 -13.2779 -2.3956 0.9279
13.0355 -13.1977 -2.3956 0.9279
13.1171 -13.1171 -2.3957 0.9279
13.1981 -13.0359 -2.3957 0.9279
13.3588 -12.8721 -2.3958 0.9279
13.5175 -12.7063 -2.3959 0.9279
13.5959 -12.6226 -2.3959 0.9279
13.7514 -12.4539 -2.3960 0.9279
13.8284 -12.3688 -2.3960 0.9279
14.0562 -12.1108 -2.3961 0.9279
14.2053 -11.9364 -2.3962 0.9279
14.4251 -11.6713 -2.3963 0.9279
14.4972 -11.5821 -2.3964 0.9279
14.5688 -11.4925 -2.3964 0.9279
14.6399 -11.4023 -2.3965 0.9279
14.9184 -11.0374 -2.3966 0.9279
14.9866 -10.9452 -2.3967 0.9279
15.0543 -10.8525 -2.3967 0.9279
15.1214 -10.7593 -2.3967 0.9279
15.3839 -10.3828 -2.3969 0.9279
15.4481 -10.2876 -2.3970 0.9279
15.5747 -10.0961 -2.3970 0.9279
15.6990 -9.9031 -2.3971 0.9279
15.8208 -9.7085 -2.3972 0.9279
15.8808 -9.6106 -2.3972 0.9279
15.9991 -9.4138 -2.3973 0.9279
16.0572 -9.3148 -2.3974 0.9279
16.1718 -9.1159 -2.3975 0.9279
16.2839 -8.9155 -2.3976 0.9279
16.3390 -8.8148 -2.3976 0.9279
16.3935 -8.7137 -2.3976 0.9279
16.4476 -8.6124 -2.3977 0.9279
16.5533 -8.4086 -2.3978 0.9279
16.6053 -8.3062 -2.3978 0.9279
16.6566 -8.2035 -2.3979 0.9278
16.7074 -8.1005 -2.3979 0.9278
16.7574 -7.9971 -2.3980 0.9278
16.8069 -7.8935 -2.3980 0.9278
16.8557 -7.7896 -2.3980 0.9278
17.0445 -7.3708 -2.3982 0.9278
17.0901 -7.2654 -2.3983 0.9278
17.1350 -7.1597 -2.3983 0.9278
17.1793 -7.0538 -2.3984 0.9278
17.2229 -6.9475 -2.3984 0.9278
17.2659 -6.8410 -2.3984 0.9278
17.3908 -6.5199 -2.3986 0.9278
17.4311 -6.4123 -2.3986 0.9278
17.5481 -6.0882 -2.3988 0.9278
17.5858 -5.9797 -2.3988 0.9278
17.6590 -5.7619 -2.3989 0.9278
17.6947 -5.6528 -2.3990 0.9278
17.7297 -5.5433 -2.3990 0.9278
17.7976 -5.3238 -2.3991 0.9278
17.8305 -5.2138 -2.3991 0.9278
17.8628 -5.1035 -2.3992 0.9278
17.8942 -4.9930 -2.3992 0.9278
17.9252 -4.8824 -2.3993 0.9278
17.9554 -4.7715 -2.3993 0.9278
17.9849 -4.6604 -2.3994 0.9278
18.0137 -4.5493 -2.3994 0.9278
18.0419 -4.4378 -2.3995 0.9278
18.0693 -4.3262 -2.3995 0.9278
18.0961 -4.2145 -2.3996 0.9278
18.1475 -3.9905 -2.3997 0.9278
18.1962 -3.7660 -2.3998 0.9278
18.2195 -3.6534 -2.3998 0.9278
18.2421 -3.5407 -2.3998 0.9278
18.2640 -3.4279 -2.3999 0.9278
18.2444 -3.1911 -2.3919 0.9280
18.2641 -3.0783 -2.3920 0.9280
18.3808 -2.7484 -2.4002 0.9278
18.3978 -2.6346 -2.4002 0.9278
18.4588 -2.1790 -2.4004 0.9278
18.4723 -2.0648 -2.4005 0.9278
18.4851 -1.9506 -2.4005 0.9278
18.5085 -1.7219 -2.4006 0.9278
18.5291 -1.4929 -2.4007 0.9278
18.5547 -1.1489 -2.4008 0.9278
18.5619 -1.0342 -2.4009 0.9278
18.5683 -0.9194 -2.4009 0.9278
18.5740 -0.8046 -2.4010 0.9278
18.5789 -0.6897 -2.4010 0.9278
18.5832 -0.5748 -2.4011 0.9278
18.5868 -0.4599 -2.4011 0.9278
18.5896 -0.3449 -2.4012 0.9278
18.5366 0.0000 -2.3939 0.9280
18.5940 0.1150 -2.4014 0.9277
18.5933 0.2300 -2.4014 0.9277
18.5918 0.3450 -2.4015 0.9277
18.5869 0.5749 -2.4015 0.9277
18.5791 0.8048 -2.4016 0.9277
18.5684 1.0346 -2.4017 0.9277
18.5386 1.4936 -2.4019 0.9277
18.5194 1.7228 -2.4020 0.9277
18.5088 1.8374 -2.4021 0.9277
18.4974 1.9519 -2.4021 0.9277
18.4300 2.5230 -2.4023 0.9277
18.4144 2.6370 -2.4024 0.9277
18.3811 2.8647 -2.4025 0.9277
18.3634 2.9784 -2.4025 0.9277
18.3449 3.0919 -2.4026 0.9277
14.3836 2.6996 -1.8900 0.9427
12.6668 2.7034 -1.6727 0.9491
12.2876 2.7020 -1.6248 0.9505
11.7895 2.7457 -1.5633 0.9524
11.5973 2.7767 -1.5401 0.9530
11.4396 2.8139 -1.5214 0.9536
11.3759 2.8729 -1.5153 0.9538
11.3241 3.0844 -1.5157 0.9538
11.3142 3.1570 -1.5170 0.9537
11.3158 3.2330 -1.5199 0.9536
11.3129 3.3080 -1.5222 0.9536
11.3059 3.4583 -1.5269 0.9534
11.3044 3.5344 -1.5296 0.9534
11.3049 3.6115 -1.5327 0.9533
11.3196 3.9273 -1.5474 0.9528
11.3243 4.0075 -1.5514 0.9527
11.3604 4.1791 -1.5633 0.9524
16.0027 6.9203 -2.2516 0.9321
15.9400 7.1284 -2.2550 0.9320
15.8956 7.2269 -2.2550 0.9320
15.8052 7.4230 -2.2551 0.9320
15.7590 7.5207 -2.2551 0.9320
15.7123 7.6180 -2.2551 0.9320
15.6649 7.7150 -2.2551 0.9320
15.5684 7.9082 -2.2551 0.9320
15.4695 8.1003 -2.2551 0.9320
15.3683 8.2910 -2.2551 0.9320
15.3167 8.3859 -2.2552 0.9320
15.2119 8.5748 -2.2552 0.9320
15.1587 8.6687 -2.2552 0.9320
7.0672 4.1583 -1.0590 0.9675
6.9470 4.1457 -1.0448 0.9679
6.7856 4.1640 -1.0282 0.9684
6.5774 4.2062 -1.0083 0.9690
6.4155 4.2724 -0.9954 0.9694
6.0202 4.5120 -0.9716 0.9701
5.9988 4.5542 -0.9727 0.9701
5.9802 4.7778 -0.9885 0.9696
5.9687 5.0154 -1.0068 0.9690
5.9659 5.0763 -1.0116 0.9689
5.9632 5.1379 -1.0165 0.9688
5.9605 5.2001 -1.0215 0.9686
5.9550 5.3265 -1.0318 0.9683
5.9526 5.3909 -1.0371 0.9681
5.9502 5.4562 -1.0426 0.9680
5.9479 5.5221 -1.0481 0.9678
5.9454 5.5887 -1.0538 0.9676
5.9430 5.6560 -1.0595 0.9675
5.9405 5.7241 -1.0654 0.9673
5.9453 5.9453 -1.0858 0.9667
5.9322 6.2332 -1.1113 0.9659
5.9392 6.3183 -1.1199 0.9656
5.9405 6.3985 -1.1276 0.9654
5.9391 6.4769 -1.1349 0.9652
6.0064 6.7994 -1.1717 0.9641
6.0399 6.9231 -1.1865 0.9636
9.0549 11.0509 -1.8451 0.9440
1.3949 1.7240 -0.2864 0.9911
1.3774 1.7241 -0.2850 0.9911
1.3602 1.7243 -0.2836 0.9912
1.3430 1.7244 -0.2823 0.9912
1.3261 1.7245 -0.2809 0.9913
1.2927 1.7248 -0.2784 0.9913
1.2436 1.7252 -0.2746 0.9915
1.2276 1.7253 -0.2735 0.9915
1.1189 1.7260 -0.2656 0.9917
1.1038 1.7261 -0.2646 0.9918
1.0889 1.7262 -0.2636 0.9918
1.0594 1.7264 -0.2616 0.9919
1.0304 1.7266 -0.2597 0.9919
1.0160 1.7267 -0.2587 0.9920
1.0017 1.7268 -0.2578 0.9920
0.9735 1.7270 -0.2560 0.9920
0.9595 1.7271 -0.2552 0.9921
0.9456 1.7272 -0.2543 0.9921
0.9318 1.7273 -0.2535 0.9921
0.9181 1.7273 -0.2526 0.9921
0.8776 1.7276 -0.2502 0.9922
0.8377 1.7279 -0.2480 0.9923
0.8246 1.7279 -0.2473 0.9923
0.7986 1.7281 -0.2458 0.9924
0.7857 1.7281 -0.2452 0.9924
0.7601 1.7283 -0.2438 0.9924
0.7348 1.7284 -0.2425 0.9925
0.7222 1.7285 -0.2419 0.9925
0.7097 1.7286 -0.2413 0.9925
0.6604 1.7288 -0.2390 0.9926
0.6482 1.7289 -0.2385 0.9926
0.6360 1.7289 -0.2379 0.9926
0.5999 1.7291 -0.2364 0.9926
0.5761 1.7292 -0.2354 0.9927
0.5407 1.7294 -0.2340 0.9927
0.5290 1.7295 -0.2336 0.9927
0.5057 1.7296 -0.2327 0.9928
0.4826 1.7297 -0.2319 0.9928
0.4711 1.7297 -0.2315 0.9928
0.4597 1.7298 -0.2311 0.9928
0.4369 1.7298 -0.2304 0.9928
0.4029 1.7300 -0.2294 0.9929
0.3917 1.7300 -0.2291 0.9929
