ply
format ascii 1.0
element vertex 1563
property float32 x
property float32 y
property float32 z
property float32 I
end_header
11.2521 -13.3911 -2.3910 0.9318
11.4994 -13.1810 -2.3912 0.9318
11.8230 -12.8937 -2.3914 0.9318
11.9028 -12.8206 -2.3915 0.9318
12.0610 -12.6730 -2.3916 0.9318
12.2174 -12.5235 -2.3917 0.9318
12.3719 -12.3720 -2.3918 0.9318
12.6002 -12.1412 -2.3920 0.9318
12.8243 -11.9062 -2.3921 0.9318
12.8980 -11.8270 -2.3922 0.9318
12.9712 -11.7473 -2.3923 0.9318
13.1879 -11.5055 -2.3924 0.9318
13.5390 -11.0937 -2.3928 0.9318
13.7436 -10.8415 -2.3929 0.9318
13.8108 -10.7566 -2.3930 0.9318
14.0091 -10.4994 -2.3932 0.9318
14.1386 -10.3259 -2.3933 0.9318
14.2026 -10.2385 -2.3934 0.9318
14.3289 -10.0627 -2.3935 0.9318
14.6352 -9.6162 -2.3939 0.9317
14.6948 -9.5257 -2.3939 0.9317
14.7538 -9.4350 -2.3940 0.9317
14.8123 -9.3438 -2.3941 0.9317
14.8703 -9.2523 -2.3941 0.9317
14.9276 -9.1604 -2.3942 0.9317
14.9844 -9.0682 -2.3943 0.9317
15.0963 -8.8827 -2.3944 0.9317
15.2598 -8.6018 -2.3946 0.9317
15.3659 -8.4129 -2.3948 0.9317
15.4697 -8.2227 -2.3949 0.9317
15.5712 -8.0312 -2.3950 0.9317
15.6210 -7.9350 -2.3951 0.9317
15.6703 -7.8385 -2.3952 0.9317
15.7189 -7.7417 -2.3953 0.9317
15.7669 -7.6446 -2.3953 0.9317
15.9075 -7.3514 -2.3955 0.9317
15.9531 -7.2531 -2.3956 0.9317
15.9982 -7.1545 -2.3957 0.9317
16.0426 -7.0556 -2.3958 0.9317
16.0864 -6.9565 -2.3958 0.9317
16.2142 -6.6576 -2.3961 0.9317
16.2963 -6.4568 -2.3962 0.9317
16.3364 -6.3562 -2.3963 0.9317
16.3759 -6.2552 -2.3964 0.9317
16.4148 -6.1540 -2.3964 0.9317
16.4531 -6.0525 -2.3965 0.9317
16.5641 -5.7469 -2.3967 0.9317
16.5998 -5.6445 -2.3968 0.9317
16.8010 -5.0257 -2.3973 0.9316
16.8930 -4.7137 -2.3975 0.9316
16.9223 -4.6093 -2.3976 0.9316
16.9510 -4.5046 -2.3976 0.9316
17.0850 -3.9791 -2.3980 0.9316
17.1098 -3.8734 -2.3981 0.9316
17.1575 -3.6618 -2.3983 0.9316
17.1804 -3.5557 -2.3983 0.9316
17.2451 -3.2367 -2.3986 0.9316
17.2849 -3.0233 -2.3987 0.9316
17.3038 -2.9165 -2.3988 0.9316
17.3221 -2.8095 -2.3989 0.9316
17.3397 -2.7024 -2.3990 0.9316
17.3886 -2.3805 -2.3992 0.9316
17.4035 -2.2730 -2.3993 0.9316
17.4178 -2.1654 -2.3994 0.9316
17.4315 -2.0578 -2.3994 0.9316
17.4444 -1.9499 -2.3995 0.9316
17.4684 -1.7342 -2.3997 0.9316
17.4793 -1.6262 -2.3998 0.9316
17.5165 -1.1935 -2.4001 0.9316
17.5311 -0.9768 -2.4002 0.9316
17.5374 -0.8684 -2.4003 0.9316
17.5479 -0.6515 -2.4005 0.9316
17.5522 -0.5429 -2.4005 0.9316
17.5587 -0.3258 -2.4007 0.9316
17.5610 -0.2172 -2.4008 0.9316
17.5626 -0.1086 -2.4009 0.9316
17.5635 -0.0000 -2.4009 0.9315
17.5637 0.1086 -2.4010 0.9315
17.5622 0.3258 -2.4012 0.9315
17.5604 0.4345 -2.4013 0.9315
17.5549 0.6517 -2.4014 0.9315
17.5466 0.8688 -2.4016 0.9315
17.5415 0.9773 -2.4017 0.9315
17.5292 1.1943 -2.4018 0.9315
17.5220 1.3027 -2.4019 0.9315
17.5057 1.5194 -2.4020 0.9315
17.4966 1.6277 -2.4021 0.9315
17.4763 1.8441 -2.4023 0.9315
17.4533 2.0602 -2.4024 0.9315
17.3841 2.5993 -2.4028 0.9315
17.3682 2.7068 -2.4029 0.9315
15.9581 2.7912 -2.2146 0.9367
15.0944 2.7364 -2.0970 0.9399
14.4824 2.7181 -2.0143 0.9422
14.0876 2.7343 -1.9617 0.9437
13.7175 2.7506 -1.9125 0.9451
13.1002 2.7958 -1.8311 0.9474
12.9077 2.9221 -1.8091 0.9480
12.8565 3.0782 -1.8072 0.9480
12.8795 3.3374 -1.8188 0.9477
12.8742 3.5066 -1.8240 0.9476
12.8734 3.5920 -1.8270 0.9475
12.8774 3.9389 -1.8409 0.9471
12.8873 4.2049 -1.8531 0.9467
13.2241 4.4055 -1.9054 0.9453
15.5667 5.4008 -2.2524 0.9356
15.5335 5.4971 -2.2525 0.9356
15.4997 5.5932 -2.2526 0.9356
15.4653 5.6891 -2.2526 0.9356
15.4303 5.7848 -2.2527 0.9356
15.3217 6.0706 -2.2529 0.9356
15.2843 6.1655 -2.2530 0.9356
15.2464 6.2601 -2.2530 0.9356
15.2078 6.3544 -2.2531 0.9356
15.1687 6.4485 -2.2532 0.9356
15.1290 6.5424 -2.2532 0.9356
15.0887 6.6360 -2.2533 0.9356
15.0478 6.7294 -2.2534 0.9356
15.0063 6.8226 -2.2534 0.9356
14.9643 6.9154 -2.2535 0.9356
8.8384 4.1510 -1.3348 0.9613
8.2350 4.2474 -1.2667 0.9633
8.1829 4.2848 -1.2627 0.9634
8.0824 4.4251 -1.2596 0.9635
8.0570 4.4762 -1.2600 0.9635
8.0097 4.5150 -1.2569 0.9636
7.9625 4.5535 -1.2539 0.9636
2.9962 1.7381 -0.4735 0.9861
2.9537 1.7379 -0.4685 0.9863
2.9121 1.7378 -0.4636 0.9864
2.8713 1.7376 -0.4588 0.9865
2.7164 1.7371 -0.4408 0.9871
2.6080 1.7367 -0.4283 0.9874
2.5731 1.7366 -0.4244 0.9875
2.5390 1.7365 -0.4205 0.9877
2.5054 1.7364 -0.4167 0.9878
2.4725 1.7363 -0.4130 0.9879
2.4401 1.7362 -0.4094 0.9880
2.4083 1.7361 -0.4058 0.9881
2.3770 1.7360 -0.4024 0.9882
2.3463 1.7359 -0.3990 0.9883
2.2571 1.7356 -0.3892 0.9886
2.1446 1.7352 -0.3771 0.9889
2.1176 1.7351 -0.3742 0.9890
2.0648 1.7349 -0.3687 0.9892
2.0135 1.7348 -0.3633 0.9893
1.9637 1.7346 -0.3582 0.9895
1.9393 1.7346 -0.3557 0.9896
1.8915 1.7344 -0.3508 0.9897
1.8681 1.7343 -0.3485 0.9898
1.8450 1.7343 -0.3461 0.9898
1.7997 1.7341 -0.3417 0.9900
1.6915 1.7338 -0.3311 0.9903
1.6706 1.7338 -0.3291 0.9903
1.6296 1.7337 -0.3253 0.9904
1.6095 1.7336 -0.3234 0.9905
1.5896 1.7335 -0.3215 0.9905
1.5699 1.7335 -0.3197 0.9906
1.4571 1.7341 -0.3096 0.9909
1.4390 1.7342 -0.3080 0.9909
1.4210 1.7343 -0.3065 0.9910
1.3857 1.7344 -0.3035 0.9911
1.3683 1.7346 -0.3020 0.9911
1.3339 1.7347 -0.2991 0.9912
1.3002 1.7349 -0.2964 0.9913
1.2508 1.7351 -0.2924 0.9914
1.2347 1.7352 -0.2911 0.9914
1.2027 1.7354 -0.2886 0.9915
1.1869 1.7354 -0.2874 0.9915
1.1713 1.7355 -0.2862 0.9916
1.1558 1.7356 -0.2850 0.9916
1.1404 1.7356 -0.2839 0.9917
1.0801 1.7359 -0.2795 0.9918
1.0653 1.7360 -0.2784 0.9918
1.0506 1.7360 -0.2774 0.9918
1.0215 1.7361 -0.2754 0.9919
1.0072 1.7362 -0.2744 0.9919
0.9787 1.7363 -0.2725 0.9920
0.9647 1.7364 -0.2715 0.9920
0.9507 1.7364 -0.2706 0.9920
0.9230 1.7365 -0.2688 0.9921
0.8822 1.7367 -0.2663 0.9922
0.8687 1.7367 -0.2655 0.9922
0.8554 1.7368 -0.2647 0.9922
0.8289 1.7369 -0.2631 0.9923
0.8158 1.7369 -0.2623 0.9923
0.8027 1.7370 -0.2616 0.9923
0.7897 1.7370 -0.2608 0.9923
0.7385 1.7371 -0.2580 0.9924
0.7259 1.7372 -0.2574 0.9924
0.6883 1.7373 -0.2555 0.9925
0.6760 1.7373 -0.2548 0.9925
0.6636 1.7374 -0.2542 0.9925
0.6514 1.7374 -0.2536 0.9925
0.6391 1.7374 -0.2531 0.9926
0.5789 1.7376 -0.2504 0.9926
0.5551 1.7376 -0.2494 0.9927
0.5433 1.7377 -0.2489 0.9927
0.5315 1.7377 -0.2484 0.9927
0.4965 1.7377 -0.2471 0.9927
0.4849 1.7378 -0.2466 0.9927
0.4733 1.7378 -0.2462 0.9928
0.4503 1.7378 -0.2454 0.9928
0.4389 1.7379 -0.2450 0.9928
0.3934 1.7379 -0.2436 0.9928
0.3709 1.7379 -0.2429 0.9929
0.3597 1.7379 -0.2426 0.9929
0.3373 1.7380 -0.2420 0.9929
0.3151 1.7380 -0.2415 0.9929
0.2819 1.7380 -0.2407 0.9929
0.2709 1.7380 -0.2405 0.9929
0.2270 1.7381 -0.2396 0.9929
0.2161 1.7381 -0.2394 0.9930
0.2052 1.7381 -0.2392 0.9930
0.1834 1.7381 -0.2389 0.9930
0.1725 1.7381 -0.2388 0.9930
0.1617 1.7381 -0.2386 0.9930
0.1292 1.7381 -0.2383 0.9930
0.1184 1.7381 -0.2382 0.9930
0.0861 1.7381 -0.2379 0.9930
0.0538 1.7381 -0.2377 0.9930
0.0430 1.7381 -0.2377 0.9930
0.0323 1.7381 -0.2376 0.9930
0.0215 1.7381 -0.2376 0.9930
0.0000 1.7381 -0.2376 0.9930
-0.0323 1.7380 -0.2376 0.9930
-0.0538 1.7380 -0.2377 0.9930
-0.0645 1.7380 -0.2378 0.9930
-0.0753 1.7380 -0.2378 0.9930
-0.0861 1.7380 -0.2379 0.9930
-0.1076 1.7380 -0.2380 0.9930
-0.1184 1.7379 -0.2381 0.9930
-0.1292 1.7379 -0.2382 0.9930
-0.1725 1.7379 -0.2387 0.9930
-0.1834 1.7379 -0.2389 0.9930
-0.2051 1.7378 -0.2392 0.9930
-0.2270 1.7378 -0.2396 0.9929
-0.2598 1.7377 -0.2402 0.9929
-0.2708 1.7377 -0.2404 0.9929
-0.2929 1.7377 -0.2409 0.9929
-0.3150 1.7376 -0.2414 0.9929
-0.3261 1.7376 -0.2417 0.9929
-0.3373 1.7376 -0.2420 0.9929
-0.4387 1.7373 -0.2449 0.9928
-0.4617 1.7372 -0.2457 0.9928
-0.4732 1.7372 -0.2461 0.9928
-0.4963 1.7371 -0.2470 0.9927
-0.5079 1.7371 -0.2474 0.9927
-0.5196 1.7370 -0.2478 0.9927
-0.5549 1.7369 -0.2493 0.9927
-0.5667 1.7369 -0.2498 0.9927
-0.6633 1.7365 -0.2541 0.9925
-0.6880 1.7364 -0.2553 0.9925
-0.7129 1.7363 -0.2566 0.9925
-0.7893 1.7360 -0.2607 0.9923
-0.8022 1.7359 -0.2614 0.9923
-0.8153 1.7358 -0.2622 0.9923
-0.8416 1.7357 -0.2637 0.9922
-0.8548 1.7357 -0.2645 0.9922
-0.8682 1.7356 -0.2653 0.9922
-0.8816 1.7355 -0.2661 0.9922
-0.9224 1.7353 -0.2687 0.9921
-0.9362 1.7353 -0.2695 0.9921
-0.9500 1.7352 -0.2704 0.9920
-0.9780 1.7351 -0.2723 0.9920
-0.9922 1.7350 -0.2732 0.9920
-1.0208 1.7348 -0.2752 0.9919
-1.0352 1.7347 -0.2762 0.9919
-1.0498 1.7347 -0.2772 0.9918
-1.0941 1.7344 -0.2803 0.9918
-1.1242 1.7342 -0.2825 0.9917
-1.1394 1.7342 -0.2837 0.9917
-1.1548 1.7341 -0.2848 0.9916
-1.1703 1.7340 -0.2860 0.9916
-1.1859 1.7339 -0.2872 0.9916
-1.2016 1.7338 -0.2884 0.9915
-1.2175 1.7337 -0.2896 0.9915
-1.2335 1.7336 -0.2909 0.9914
-1.3326 1.7330 -0.2988 0.9912
-1.3497 1.7329 -0.3003 0.9912
-1.3843 1.7327 -0.3032 0.9911
-1.4374 1.7323 -0.3077 0.9910
-1.4555 1.7322 -0.3093 0.9909
-1.4738 1.7321 -0.3109 0.9909
-1.4923 1.7320 -0.3125 0.9908
-1.5109 1.7318 -0.3142 0.9908
-1.5298 1.7317 -0.3159 0.9907
-1.5488 1.7316 -0.3176 0.9907
-1.5877 1.7314 -0.3211 0.9906
-1.6479 1.7315 -0.3268 0.9904
-1.6892 1.7315 -0.3307 0.9903
-1.7971 1.7317 -0.3412 0.9900
-1.8195 1.7317 -0.3434 0.9899
-1.8652 1.7317 -0.3479 0.9898
-1.8886 1.7317 -0.3503 0.9897
-1.9362 1.7318 -0.3551 0.9896
-2.0101 1.7319 -0.3627 0.9893
-2.0612 1.7319 -0.3680 0.9892
-2.0873 1.7320 -0.3708 0.9891
-2.1407 1.7320 -0.3764 0.9889
-2.1680 1.7320 -0.3793 0.9889
-2.1957 1.7321 -0.3823 0.9888
-2.2526 1.7321 -0.3884 0.9886
-2.2817 1.7322 -0.3916 0.9885
-2.3112 1.7322 -0.3948 0.9884
-2.4347 1.7323 -0.4085 0.9880
-2.4669 1.7324 -0.4121 0.9879
-2.4997 1.7324 -0.4158 0.9878
-2.5330 1.7325 -0.4195 0.9877
-2.6017 1.7326 -0.4273 0.9875
-2.7095 1.7327 -0.4396 0.9871
-2.7849 1.7328 -0.4484 0.9868
-2.8635 1.7329 -0.4575 0.9866
-2.9039 1.7329 -0.4623 0.9864
-2.9875 1.7330 -0.4721 0.9862
-3.0306 1.7331 -0.4772 0.9860
-3.0747 1.7331 -0.4825 0.9859
-3.1197 1.7332 -0.4879 0.9857
-3.1658 1.7333 -0.4934 0.9855
-3.2129 1.7333 -0.4990 0.9854
-3.2612 1.7334 -0.5049 0.9852
-3.3611 1.7335 -0.5170 0.9848
-3.4659 1.7337 -0.5298 0.9845
-3.6333 1.7339 -0.5503 0.9839
-3.6921 1.7340 -0.5576 0.9837
-3.7524 1.7341 -0.5651 0.9834
-3.8780 1.7343 -0.5807 0.9830
-3.9435 1.7343 -0.5889 0.9828
-4.0105 1.7343 -0.5973 0.9825
-4.1493 1.7337 -0.6147 0.9820
-4.2227 1.7338 -0.6240 0.9817
-4.2983 1.7339 -0.6336 0.9815
-4.5400 1.7341 -0.6644 0.9806
-4.9014 1.7345 -0.7107 0.9792
-4.9998 1.7346 -0.7234 0.9789
-5.3152 1.7343 -0.7643 0.9777
-5.5436 1.7332 -0.7940 0.9768
-5.6646 1.7327 -0.8098 0.9764
-5.7905 1.7321 -0.8262 0.9759
-6.3499 1.7295 -0.8997 0.9738
-6.6687 1.7280 -0.9417 0.9726
-17.0952 4.0930 -2.4030 0.9315
-17.1434 3.8810 -2.4028 0.9315
-17.2108 3.5619 -2.4026 0.9315
-17.2319 3.4553 -2.4025 0.9315
-17.2722 3.2417 -2.4023 0.9315
-17.3277 2.9204 -2.4021 0.9315
-17.3613 2.7057 -2.4020 0.9315
-17.3772 2.5982 -2.4019 0.9315
-17.3923 2.4906 -2.4018 0.9315
-17.4068 2.3829 -2.4017 0.9315
-17.4207 2.2751 -2.4016 0.9315
-17.4338 2.1673 -2.4016 0.9315
-17.4463 2.0594 -2.4015 0.9315
-17.4581 1.9514 -2.4014 0.9315
-17.4693 1.8433 -2.4013 0.9315
-17.4798 1.7352 -2.4012 0.9315
-17.4896 1.6270 -2.4012 0.9315
-17.5222 1.1938 -2.4008 0.9316
-17.5287 1.0854 -2.4008 0.9316
-17.5345 0.9769 -2.4007 0.9316
-17.5552 0.3257 -2.4002 0.9316
-16.6353 -0.0000 -2.4000 0.9350
-16.6345 -0.1029 -2.3999 0.9350
-16.6309 -0.3087 -2.3998 0.9350
-16.6281 -0.4114 -2.3997 0.9350
-16.6247 -0.5142 -2.3996 0.9350
-16.6049 -0.9252 -2.3993 0.9350
-16.5833 -1.2330 -2.3991 0.9350
-16.5561 -1.5403 -2.3989 0.9350
-16.5457 -1.6426 -2.3988 0.9350
-16.5109 -1.9491 -2.3986 0.9350
-16.4845 -2.1530 -2.3984 0.9350
-16.4556 -2.3566 -2.3983 0.9350
-16.3902 -2.7625 -2.3980 0.9350
-16.3723 -2.8637 -2.3979 0.9350
-16.3347 -3.0658 -2.3978 0.9350
-16.3149 -3.1667 -2.3977 0.9350
-16.2945 -3.2674 -2.3976 0.9350
-16.2735 -3.3680 -2.3976 0.9350
-16.2519 -3.4685 -2.3975 0.9350
-16.2296 -3.5688 -2.3974 0.9350
-16.2067 -3.6690 -2.3973 0.9350
-16.1833 -3.7691 -2.3973 0.9351
-16.1344 -3.9687 -2.3971 0.9351
-16.1091 -4.0683 -2.3971 0.9351
-16.0832 -4.1677 -2.3970 0.9351
-16.0566 -4.2670 -2.3969 0.9351
-16.0294 -4.3660 -2.3968 0.9351
-16.0016 -4.4649 -2.3968 0.9351
-15.9733 -4.5637 -2.3967 0.9351
-15.8536 -4.9568 -2.3964 0.9351
-15.8222 -5.0546 -2.3963 0.9351
-15.7902 -5.1522 -2.3963 0.9351
-15.7243 -5.3468 -2.3961 0.9351
-15.6905 -5.4437 -2.3961 0.9351
-15.6561 -5.5405 -2.3960 0.9351
-15.6211 -5.6371 -2.3959 0.9351
-15.5855 -5.7334 -2.3959 0.9351
-15.5493 -5.8295 -2.3958 0.9351
-15.4751 -6.0210 -2.3957 0.9351
-15.4371 -6.1165 -2.3956 0.9351
-15.3986 -6.2116 -2.3955 0.9351
-15.2794 -6.4957 -2.3953 0.9351
-15.2385 -6.5899 -2.3952 0.9351
-15.1123 -6.8708 -2.3950 0.9351
-15.0691 -6.9639 -2.3950 0.9351
-14.9361 -7.2417 -2.3948 0.9351
-14.8906 -7.3337 -2.3947 0.9351
-14.8446 -7.4255 -2.3946 0.9351
-14.6548 -7.7896 -2.3944 0.9351
-14.5566 -7.9698 -2.3943 0.9351
-14.5066 -8.0594 -2.3942 0.9351
-14.4561 -8.1488 -2.3941 0.9351
-14.3534 -8.3265 -2.3940 0.9351
-14.3013 -8.4149 -2.3939 0.9351
-14.2486 -8.5030 -2.3939 0.9351
-14.1954 -8.5906 -2.3938 0.9351
-14.0873 -8.7651 -2.3937 0.9351
-13.9771 -8.9382 -2.3936 0.9351
-13.9212 -9.0243 -2.3935 0.9352
-13.8078 -9.1953 -2.3934 0.9352
-13.5748 -9.5330 -2.3931 0.9352
-13.4552 -9.6997 -2.3930 0.9352
-13.3336 -9.8649 -2.3929 0.9352
-13.2720 -9.9470 -2.3929 0.9352
-13.1473 -10.1099 -2.3927 0.9352
-12.9566 -10.3513 -2.3926 0.9352
-12.8920 -10.4310 -2.3925 0.9352
-12.8269 -10.5103 -2.3925 0.9352
-12.7614 -10.5892 -2.3924 0.9352
-12.6289 -10.7457 -2.3923 0.9352
-12.5619 -10.8233 -2.3922 0.9352
-12.4944 -10.9005 -2.3922 0.9352
-12.3581 -11.0537 -2.3921 0.9352
-12.2892 -11.1296 -2.3920 0.9352
-12.2199 -11.2053 -2.3920 0.9352
-12.0091 -11.4293 -2.3918 0.9352
-11.7943 -11.6494 -2.3917 0.9352
-11.5754 -11.8654 -2.3915 0.9352
-11.5016 -11.9365 -2.3915 0.9352
-11.4273 -12.0071 -2.3914 0.9352
-11.3526 -12.0773 -2.3914 0.9352
-11.2019 -12.2163 -2.3913 0.9352
-11.1259 -12.2851 -2.3912 0.9352
-11.0495 -12.3535 -2.3912 0.9352
-10.8954 -12.4887 -2.3911 0.9352
-10.8178 -12.5556 -2.3910 0.9352
-10.7397 -12.6220 -2.3910 0.9352
-10.6613 -12.6879 -2.3909 0.9352
-10.5031 -12.8183 -2.3908 0.9352
-10.4234 -12.8828 -2.3908 0.9352
-10.2629 -13.0102 -2.3907 0.9352
-10.1821 -13.0732 -2.3907 0.9352
-10.1009 -13.1357 -2.3906 0.9352
-9.6891 -13.4405 -2.3904 0.9352
-9.6056 -13.4999 -2.3904 0.9352
-9.5218 -13.5589 -2.3903 0.9352
-9.3531 -13.6751 -2.3902 0.9352
-9.1829 -13.7893 -2.3902 0.9352
-8.9251 -13.9567 -2.3901 0.9352
-8.8385 -14.0113 -2.3900 0.9352
-8.7515 -14.0655 -2.3900 0.9352
-8.6642 -14.1191 -2.3899 0.9352
-8.5766 -14.1722 -2.3899 0.9352
-8.4887 -14.2248 -2.3899 0.9352
-8.4004 -14.2768 -2.3898 0.9352
-8.2230 -14.3792 -2.3898 0.9352
-8.1337 -14.4296 -2.3897 0.9352
-8.0443 -14.4794 -2.3897 0.9352
-7.9544 -14.5287 -2.3897 0.9353
-7.7739 -14.6255 -2.3896 0.9353
-7.6832 -14.6731 -2.3896 0.9353
-7.5010 -14.7666 -2.3895 0.9353
-7.4094 -14.8125 -2.3895 0.9353
-7.3176 -14.8579 -2.3894 0.9353
-7.1331 -14.9469 -2.3894 0.9353
-7.0404 -14.9905 -2.3894 0.9353
-6.9475 -15.0336 -2.3893 0.9353
-6.6672 -15.1594 -2.3892 0.9353
-6.2899 -15.3189 -2.3891 0.9353
-6.1950 -15.3574 -2.3891 0.9353
-6.0998 -15.3953 -2.3891 0.9353
-6.0044 -15.4325 -2.3891 0.9353
-5.8130 -15.5053 -2.3890 0.9353
-5.4275 -15.6438 -2.3889 0.9353
-5.3306 -15.6769 -2.3889 0.9353
-5.2335 -15.7094 -2.3889 0.9353
-5.1362 -15.7414 -2.3889 0.9353
-5.0387 -15.7727 -2.3888 0.9353
-4.9410 -15.8034 -2.3888 0.9353
-4.8432 -15.8335 -2.3888 0.9353
-4.6469 -15.8919 -2.3888 0.9353
-4.5485 -15.9203 -2.3887 0.9353
-4.4499 -15.9480 -2.3887 0.9353
-4.2523 -16.0016 -2.3887 0.9353
-4.1532 -16.0275 -2.3887 0.9353
-4.0540 -16.0527 -2.3887 0.9353
-3.9546 -16.0774 -2.3886 0.9353
-3.6556 -16.1477 -2.3886 0.9353
-3.5556 -16.1699 -2.3886 0.9353
-3.4556 -16.1915 -2.3886 0.9353
-3.3554 -16.2125 -2.3886 0.9353
-3.1546 -16.2526 -2.3885 0.9353
-3.0540 -16.2717 -2.3885 0.9353
-2.9533 -16.2902 -2.3885 0.9353
-2.6505 -16.3420 -2.3885 0.9353
-2.5494 -16.3580 -2.3885 0.9353
-2.4482 -16.3734 -2.3885 0.9353
-2.3469 -16.3882 -2.3885 0.9353
-2.2455 -16.4023 -2.3885 0.9353
-2.1440 -16.4158 -2.3884 0.9353
-2.0424 -16.4287 -2.3884 0.9353
-1.9408 -16.4410 -2.3884 0.9353
-1.5335 -16.4839 -2.3884 0.9353
-1.4315 -16.4930 -2.3884 0.9353
-1.3295 -16.5015 -2.3884 0.9353
-1.2274 -16.5094 -2.3884 0.9353
-1.1253 -16.5167 -2.3884 0.9353
-1.0232 -16.5233 -2.3884 0.9353
-0.9209 -16.5293 -2.3884 0.9353
-0.6141 -16.5435 -2.3884 0.9353
-0.2048 -16.5537 -2.3884 0.9353
-0.0000 -16.5550 -2.3884 0.9353
0.4095 -16.5500 -2.3884 0.9353
0.5118 -16.5472 -2.3884 0.9353
0.6141 -16.5437 -2.3884 0.9353
0.7164 -16.5396 -2.3884 0.9353
1.0231 -16.5237 -2.3885 0.9353
1.1253 -16.5171 -2.3885 0.9353
1.3295 -16.5020 -2.3885 0.9353
1.6355 -16.4747 -2.3885 0.9353
1.7373 -16.4643 -2.3885 0.9353
1.9408 -16.4417 -2.3885 0.9353
2.0425 -16.4295 -2.3886 0.9353
2.1440 -16.4166 -2.3886 0.9353
2.3470 -16.3891 -2.3886 0.9353
2.4483 -16.3743 -2.3886 0.9353
2.6506 -16.3430 -2.3886 0.9353
2.9534 -16.2913 -2.3887 0.9353
3.0541 -16.2728 -2.3887 0.9353
3.2552 -16.2340 -2.3887 0.9353
3.3556 -16.2137 -2.3887 0.9353
3.4559 -16.1928 -2.3888 0.9353
3.6559 -16.1490 -2.3888 0.9353
4.2527 -16.0031 -2.3889 0.9353
4.3516 -15.9767 -2.3889 0.9353
4.6474 -15.8936 -2.3890 0.9353
5.1368 -15.7432 -2.3891 0.9353
5.2341 -15.7113 -2.3892 0.9353
5.4281 -15.6457 -2.3892 0.9353
5.5248 -15.6120 -2.3892 0.9353
5.7177 -15.5428 -2.3893 0.9353
6.1006 -15.3974 -2.3894 0.9353
6.1958 -15.3596 -2.3894 0.9353
6.2908 -15.3212 -2.3895 0.9353
6.6682 -15.1617 -2.3896 0.9353
6.7619 -15.1204 -2.3896 0.9353
6.9486 -15.0360 -2.3897 0.9352
7.0415 -14.9929 -2.3897 0.9352
7.1342 -14.9494 -2.3898 0.9352
7.2266 -14.9051 -2.3898 0.9352
7.4106 -14.8150 -2.3899 0.9352
7.5935 -14.7227 -2.3899 0.9352
7.6846 -14.6757 -2.3900 0.9352
7.9558 -14.5313 -2.3901 0.9352
8.0457 -14.4821 -2.3901 0.9352
8.2245 -14.3819 -2.3902 0.9352
8.3134 -14.3310 -2.3903 0.9352
8.6659 -14.1219 -2.3904 0.9352
9.3550 -13.6781 -2.3908 0.9352
9.5239 -13.5618 -2.3908 0.9352
9.6912 -13.4435 -2.3909 0.9352
9.8571 -13.3231 -2.3910 0.9352
10.0216 -13.2007 -2.3911 0.9352
10.1032 -13.1387 -2.3912 0.9352
10.1845 -13.0763 -2.3912 0.9352
10.3458 -12.9498 -2.3913 0.9352
10.5056 -12.8214 -2.3914 0.9352
10.6638 -12.6910 -2.3915 0.9352
10.7424 -12.6251 -2.3916 0.9352
10.8982 -12.4918 -2.3917 0.9352
10.9754 -12.4244 -2.3917 0.9352
11.0523 -12.3566 -2.3918 0.9352
11.2047 -12.2194 -2.3919 0.9352
11.5046 -11.9396 -2.3921 0.9352
11.5785 -11.8685 -2.3921 0.9352
11.6519 -11.7969 -2.3922 0.9352
11.7975 -11.6525 -2.3923 0.9352
11.9412 -11.5062 -2.3924 0.9352
12.1535 -11.2835 -2.3926 0.9352
12.2927 -11.1328 -2.3927 0.9352
12.3616 -11.0569 -2.3927 0.9352
12.5655 -10.8264 -2.3929 0.9352
12.6990 -10.6707 -2.3930 0.9352
12.7651 -10.5922 -2.3931 0.9352
13.0881 -10.1938 -2.3934 0.9352
13.1512 -10.1129 -2.3935 0.9352
13.3376 -9.8679 -2.3936 0.9351
13.4593 -9.7027 -2.3938 0.9351
13.5790 -9.5360 -2.3939 0.9351
13.8122 -9.1982 -2.3941 0.9351
13.8692 -9.1129 -2.3942 0.9351
13.9816 -8.9411 -2.3943 0.9351
14.3581 -8.3293 -2.3948 0.9351
14.4098 -8.2405 -2.3949 0.9351
14.5114 -8.0621 -2.3950 0.9351
14.5614 -7.9724 -2.3951 0.9351
14.7080 -7.7016 -2.3953 0.9351
14.9412 -7.2442 -2.3956 0.9351
14.9861 -7.1518 -2.3957 0.9351
15.0743 -6.9663 -2.3958 0.9351
15.2023 -6.6861 -2.3960 0.9351
15.2847 -6.4979 -2.3961 0.9351
15.4040 -6.2138 -2.3964 0.9351
15.4805 -6.0231 -2.3965 0.9351
15.7959 -5.1540 -2.3971 0.9351
15.8279 -5.0564 -2.3972 0.9351
15.9501 -4.6639 -2.3975 0.9350
16.0075 -4.4666 -2.3976 0.9350
16.0353 -4.3676 -2.3977 0.9350
16.0891 -4.1692 -2.3979 0.9350
16.1150 -4.0698 -2.3979 0.9350
16.1651 -3.8704 -2.3981 0.9350
16.1892 -3.7704 -2.3982 0.9350
16.2356 -3.5701 -2.3983 0.9350
16.2579 -3.4698 -2.3984 0.9350
16.2796 -3.3693 -2.3985 0.9350
16.3006 -3.2686 -2.3985 0.9350
16.3210 -3.1679 -2.3986 0.9350
16.3408 -3.0670 -2.3987 0.9350
16.3599 -2.9660 -2.3987 0.9350
16.3784 -2.8648 -2.3988 0.9350
16.4136 -2.6622 -2.3990 0.9350
16.4303 -2.5607 -2.3990 0.9350
16.4765 -2.2557 -2.3993 0.9350
16.5171 -1.9498 -2.3995 0.9350
16.5293 -1.8477 -2.3996 0.9350
16.5410 -1.7454 -2.3996 0.9350
16.5519 -1.6432 -2.3997 0.9350
16.5623 -1.5408 -2.3998 0.9350
16.5896 -1.2335 -2.4000 0.9350
16.5974 -1.1308 -2.4001 0.9350
16.6171 -0.8229 -2.4003 0.9350
16.6372 -0.3087 -2.4007 0.9350
16.6393 -0.2059 -2.4008 0.9350
16.6408 -0.1029 -2.4008 0.9350
16.6416 -0.0000 -2.4009 0.9350
16.6403 0.3087 -2.4011 0.9350
16.6386 0.4117 -2.4012 0.9349
16.6362 0.5145 -2.4013 0.9349
16.6333 0.6174 -2.4014 0.9349
16.6150 1.0288 -2.4017 0.9349
16.6088 1.1316 -2.4017 0.9349
16.6020 1.2343 -2.4018 0.9349
16.5479 1.8496 -2.4023 0.9349
16.5366 1.9520 -2.4023 0.9349
16.5247 2.0543 -2.4024 0.9349
16.4853 2.3607 -2.4026 0.9349
16.4559 2.5646 -2.4028 0.9349
16.4402 2.6664 -2.4029 0.9349
16.4239 2.7681 -2.4029 0.9349
14.5990 2.7400 -2.1430 0.9417
14.0950 2.7358 -2.0715 0.9436
13.1023 2.7963 -1.9329 0.9473
12.9808 2.8544 -1.9175 0.9477
12.9057 2.9216 -1.9090 0.9479
12.8707 2.9975 -1.9066 0.9480
12.8533 3.0774 -1.9068 0.9480
12.8620 3.3329 -1.9169 0.9477
12.8599 3.4174 -1.9197 0.9476
12.8549 3.5869 -1.9255 0.9475
12.8541 3.6725 -1.9287 0.9474
12.8545 3.7587 -1.9322 0.9473
12.8552 4.0192 -1.9432 0.9470
12.8541 4.1063 -1.9468 0.9469
14.7168 5.2080 -2.2523 0.9389
14.6848 5.2991 -2.2523 0.9389
14.6521 5.3900 -2.2524 0.9389
14.6189 5.4806 -2.2525 0.9389
14.4446 5.9308 -2.2528 0.9388
14.4080 6.0202 -2.2528 0.9388
14.3333 6.1983 -2.2530 0.9388
14.2951 6.2870 -2.2530 0.9388
8.7047 3.8928 -1.3757 0.9622
8.3921 3.9414 -1.3376 0.9632
8.0756 4.1021 -1.3068 0.9641
8.0263 4.1397 -1.3029 0.9642
7.8386 4.2916 -1.2893 0.9645
7.7954 4.3308 -1.2866 0.9646
2.9131 1.7384 -0.4894 0.9864
2.8724 1.7382 -0.4844 0.9865
2.7933 1.7379 -0.4746 0.9868
2.7549 1.7378 -0.4699 0.9869
2.7173 1.7377 -0.4653 0.9870
2.6443 1.7374 -0.4565 0.9873
2.6088 1.7373 -0.4522 0.9874
2.5398 1.7371 -0.4439 0.9876
2.5062 1.7369 -0.4399 0.9878
2.4732 1.7368 -0.4360 0.9879
2.4408 1.7367 -0.4322 0.9880
2.3777 1.7365 -0.4248 0.9882
2.3470 1.7364 -0.4212 0.9883
2.3167 1.7363 -0.4177 0.9884
2.2870 1.7362 -0.4143 0.9885
2.2289 1.7360 -0.4076 0.9886
2.2006 1.7359 -0.4044 0.9887
2.1727 1.7358 -0.4012 0.9888
2.1182 1.7356 -0.3951 0.9890
2.0654 1.7354 -0.3892 0.9892
2.0395 1.7354 -0.3863 0.9892
2.0141 1.7353 -0.3835 0.9893
1.9642 1.7351 -0.3781 0.9895
1.9398 1.7350 -0.3755 0.9895
1.9157 1.7349 -0.3729 0.9896
1.8686 1.7348 -0.3679 0.9897
1.8455 1.7347 -0.3654 0.9898
1.7130 1.7343 -0.3517 0.9902
1.6919 1.7343 -0.3496 0.9903
1.6710 1.7342 -0.3474 0.9903
1.6504 1.7341 -0.3454 0.9904
1.5900 1.7340 -0.3394 0.9905
1.5703 1.7339 -0.3375 0.9906
1.5316 1.7338 -0.3338 0.9907
1.5126 1.7337 -0.3319 0.9907
1.4937 1.7336 -0.3301 0.9908
1.4566 1.7335 -0.3267 0.9909
1.4384 1.7335 -0.3250 0.9909
1.4025 1.7334 -0.3217 0.9910
1.3848 1.7334 -0.3201 0.9911
1.3674 1.7334 -0.3185 0.9911
1.2994 1.7337 -0.3126 0.9913
1.2828 1.7338 -0.3112 0.9913
1.2664 1.7339 -0.3098 0.9914
1.2500 1.7340 -0.3084 0.9914
1.2020 1.7343 -0.3044 0.9915
1.1862 1.7344 -0.3031 0.9915
1.1397 1.7346 -0.2994 0.9916
1.0646 1.7349 -0.2937 0.9918
0.9923 1.7352 -0.2884 0.9920
0.9782 1.7353 -0.2874 0.9920
0.9363 1.7354 -0.2845 0.9921
0.9225 1.7355 -0.2836 0.9921
0.9088 1.7356 -0.2826 0.9921
0.8817 1.7357 -0.2809 0.9922
0.8682 1.7357 -0.2800 0.9922
0.8549 1.7358 -0.2791 0.9922
0.8416 1.7358 -0.2783 0.9922
0.8284 1.7359 -0.2775 0.9923
0.8153 1.7359 -0.2767 0.9923
0.8022 1.7360 -0.2759 0.9923
0.7635 1.7361 -0.2736 0.9924
0.7508 1.7361 -0.2729 0.9924
0.7381 1.7362 -0.2722 0.9924
0.7129 1.7362 -0.2708 0.9924
0.6756 1.7364 -0.2688 0.9925
0.6633 1.7364 -0.2682 0.9925
0.6510 1.7364 -0.2675 0.9925
0.6388 1.7365 -0.2669 0.9926
0.6025 1.7366 -0.2652 0.9926
0.5905 1.7366 -0.2646 0.9926
0.5785 1.7366 -0.2641 0.9926
0.5430 1.7367 -0.2625 0.9927
0.5195 1.7368 -0.2615 0.9927
0.5078 1.7368 -0.2611 0.9927
0.4962 1.7368 -0.2606 0.9927
0.4501 1.7369 -0.2589 0.9928
0.4045 1.7370 -0.2573 0.9928
0.3483 1.7371 -0.2556 0.9929
0.3260 1.7371 -0.2550 0.9929
0.2928 1.7371 -0.2542 0.9929
0.2707 1.7371 -0.2536 0.9929
0.2378 1.7372 -0.2530 0.9929
0.2269 1.7372 -0.2528 0.9929
0.1833 1.7372 -0.2520 0.9930
0.1725 1.7372 -0.2519 0.9930
0.1400 1.7372 -0.2514 0.9930
0.0752 1.7372 -0.2509 0.9930
0.0645 1.7372 -0.2508 0.9930
0.0537 1.7372 -0.2508 0.9930
0.0430 1.7372 -0.2507 0.9930
0.0215 1.7372 -0.2506 0.9930
0.0107 1.7372 -0.2506 0.9930
-0.0000 1.7372 -0.2506 0.9930
-0.0322 1.7371 -0.2507 0.9930
-0.0430 1.7371 -0.2507 0.9930
-0.0645 1.7371 -0.2508 0.9930
-0.0752 1.7371 -0.2509 0.9930
-0.0860 1.7371 -0.2509 0.9930
-0.0968 1.7371 -0.2510 0.9930
-0.1076 1.7371 -0.2511 0.9930
-0.1291 1.7370 -0.2513 0.9930
-0.1400 1.7370 -0.2514 0.9930
-0.1508 1.7370 -0.2515 0.9930
-0.2050 1.7369 -0.2523 0.9930
-0.2159 1.7369 -0.2525 0.9930
-0.2268 1.7369 -0.2527 0.9929
-0.2487 1.7368 -0.2531 0.9929
-0.2707 1.7368 -0.2536 0.9929
-0.2927 1.7367 -0.2541 0.9929
-0.3038 1.7367 -0.2544 0.9929
-0.3149 1.7367 -0.2546 0.9929
-0.3260 1.7367 -0.2549 0.9929
-0.3371 1.7366 -0.2552 0.9929
-0.3706 1.7365 -0.2562 0.9928
-0.4385 1.7364 -0.2584 0.9928
-0.4499 1.7363 -0.2588 0.9928
-0.4614 1.7363 -0.2592 0.9928
-0.4729 1.7362 -0.2596 0.9928
-0.5077 1.7361 -0.2610 0.9927
-0.5193 1.7361 -0.2614 0.9927
-0.5310 1.7361 -0.2619 0.9927
-0.5546 1.7360 -0.2629 0.9927
-0.6022 1.7358 -0.2651 0.9926
-0.6263 1.7357 -0.2662 0.9926
-0.6507 1.7356 -0.2674 0.9925
-0.6629 1.7355 -0.2680 0.9925
-0.6876 1.7354 -0.2693 0.9925
-0.7000 1.7354 -0.2700 0.9925
-0.7251 1.7353 -0.2713 0.9924
-0.7377 1.7352 -0.2720 0.9924
-0.7504 1.7352 -0.2727 0.9924
-0.8279 1.7348 -0.2773 0.9923
-0.8411 1.7347 -0.2781 0.9922
-0.8543 1.7347 -0.2790 0.9922
-0.8677 1.7346 -0.2798 0.9922
-0.8946 1.7345 -0.2816 0.9921
-0.9082 1.7344 -0.2825 0.9921
-0.9219 1.7343 -0.2834 0.9921
-0.9356 1.7342 -0.2843 0.9921
-0.9495 1.7342 -0.2852 0.9920
-1.0491 1.7336 -0.2923 0.9918
-1.0934 1.7334 -0.2957 0.9918
-1.1084 1.7333 -0.2968 0.9917
-1.1387 1.7331 -0.2992 0.9917
-1.1541 1.7330 -0.3004 0.9916
-1.1696 1.7329 -0.3016 0.9916
-1.2327 1.7325 -0.3068 0.9914
-1.3149 1.7320 -0.3137 0.9913
-1.3318 1.7319 -0.3152 0.9912
-1.3488 1.7318 -0.3167 0.9912
-1.4010 1.7316 -0.3213 0.9910
-1.4188 1.7316 -0.3230 0.9910
-1.4368 1.7316 -0.3246 0.9909
-1.4734 1.7316 -0.3280 0.9909
-1.5108 1.7317 -0.3315 0.9908
-1.5683 1.7317 -0.3371 0.9906
-1.5880 1.7317 -0.3390 0.9905
-1.6895 1.7318 -0.3491 0.9903
-1.7106 1.7319 -0.3512 0.9902
-1.7319 1.7319 -0.3534 0.9902
-1.8199 1.7320 -0.3625 0.9899
-1.8656 1.7320 -0.3673 0.9898
-1.9126 1.7321 -0.3723 0.9896
-1.9855 1.7322 -0.3801 0.9894
-2.0616 1.7323 -0.3885 0.9892
-2.2530 1.7325 -0.4100 0.9886
-2.3724 1.7326 -0.4238 0.9882
-2.4035 1.7327 -0.4275 0.9881
-2.4674 1.7328 -0.4350 0.9879
-2.5002 1.7328 -0.4389 0.9878
-2.5676 1.7329 -0.4469 0.9876
-2.6375 1.7330 -0.4553 0.9873
-2.7101 1.7331 -0.4641 0.9871
-2.8245 1.7332 -0.4781 0.9867
-2.9047 1.7334 -0.4880 0.9864
-2.9460 1.7334 -0.4931 0.9863
-3.0314 1.7335 -0.5038 0.9860
-3.1205 1.7337 -0.5150 0.9857
-3.1666 1.7337 -0.5208 0.9855
-3.3114 1.7339 -0.5393 0.9850
-3.3620 1.7340 -0.5458 0.9848
-3.4669 1.7342 -0.5593 0.9845
-3.6931 1.7345 -0.5887 0.9836
-3.7535 1.7346 -0.5966 0.9834
-3.8792 1.7348 -0.6131 0.9830
-4.0799 1.7345 -0.6396 0.9822
-4.2238 1.7343 -0.6587 0.9817
-4.2995 1.7344 -0.6689 0.9814
-4.3776 1.7344 -0.6793 0.9812
-4.8078 1.7349 -0.7374 0.9796
-4.9029 1.7351 -0.7503 0.9792
-5.0014 1.7352 -0.7637 0.9788
-5.1032 1.7352 -0.7776 0.9785
-5.3151 1.7342 -0.8066 0.9777
-5.7903 1.7321 -0.8720 0.9759
-5.9215 1.7314 -0.8901 0.9754
-6.0581 1.7308 -0.9090 0.9749
-6.2008 1.7302 -0.9288 0.9743
-6.3497 1.7295 -0.9495 0.9738
-6.6686 1.7280 -0.9939 0.9725
-16.1490 4.0783 -2.4030 0.9349
-16.2204 3.7776 -2.4028 0.9349
-16.2429 3.6771 -2.4027 0.9349
-16.2861 3.4757 -2.4025 0.9349
-16.3068 3.3748 -2.4025 0.9349
-16.3269 3.2739 -2.4024 0.9349
-16.3463 3.1727 -2.4023 0.9349
-16.3833 2.9701 -2.4022 0.9349
-16.4008 2.8687 -2.4021 0.9349
-16.4177 2.7671 -2.4020 0.9349
-16.4340 2.6654 -2.4020 0.9349
-16.4647 2.4618 -2.4018 0.9349
-16.5522 1.7466 -2.4013 0.9349
-16.5883 1.3364 -2.4010 0.9350
-16.6025 1.1311 -2.4008 0.9350
-16.6087 1.0284 -2.4008 0.9350
-16.6191 0.8228 -2.4006 0.9350
-16.6234 0.7200 -2.4005 0.9350
-16.6299 0.5144 -2.4004 0.9350
-16.6340 0.3086 -2.4002 0.9350
-16.6355 0.1028 -2.4001 0.9350
-15.8043 -0.0001 -2.4000 0.9381
-15.8035 -0.0978 -2.4000 0.9381
-15.8022 -0.1955 -2.3999 0.9381
-15.8002 -0.2932 -2.3998 0.9381
-15.7944 -0.4886 -2.3997 0.9381
-15.7906 -0.5863 -2.3996 0.9381
-15.7862 -0.6839 -2.3995 0.9381
-15.7812 -0.7815 -2.3995 0.9381
-15.7756 -0.8790 -2.3994 0.9381
-15.7694 -0.9765 -2.3993 0.9381
-15.7552 -1.1715 -2.3992 0.9381
-15.7472 -1.2688 -2.3991 0.9381
-15.7386 -1.3661 -2.3990 0.9381
-15.6865 -1.8518 -2.3987 0.9381
-15.6481 -2.1423 -2.3985 0.9381
-15.6341 -2.2389 -2.3984 0.9381
-15.6195 -2.3355 -2.3983 0.9381
-15.5552 -2.7208 -2.3981 0.9381
-15.4813 -3.1043 -2.3978 0.9381
-15.4408 -3.2954 -2.3976 0.9381
-15.4197 -3.3907 -2.3976 0.9381
-15.3757 -3.5810 -2.3974 0.9381
-15.2807 -3.9597 -2.3972 0.9381
-15.2297 -4.1482 -2.3970 0.9381
-15.2033 -4.2422 -2.3970 0.9381
-15.1764 -4.3360 -2.3969 0.9381
-15.1488 -4.4297 -2.3968 0.9381
-15.1207 -4.5231 -2.3968 0.9381
-15.0920 -4.6164 -2.3967 0.9381
-15.0330 -4.8024 -2.3966 0.9381
-14.8082 -5.4475 -2.3961 0.9382
-14.7389 -5.6299 -2.3960 0.9382
-14.7034 -5.7208 -2.3959 0.9382
-14.6307 -5.9019 -2.3958 0.9382
-14.5935 -5.9921 -2.3957 0.9382
-14.5558 -6.0820 -2.3956 0.9382
-14.4393 -6.3505 -2.3954 0.9382
-14.3994 -6.4395 -2.3954 0.9382
-14.3589 -6.5283 -2.3953 0.9382
-14.3179 -6.6168 -2.3953 0.9382
-14.1915 -6.8807 -2.3951 0.9382
-14.0603 -7.1423 -2.3949 0.9382
-13.7836 -7.6578 -2.3945 0.9382
-13.7356 -7.7427 -2.3944 0.9382
-13.6871 -7.8272 -2.3944 0.9382
-13.6381 -7.9116 -2.3943 0.9382
-13.5886 -7.9955 -2.3943 0.9382
-13.4880 -8.1626 -2.3941 0.9382
-13.4369 -8.2456 -2.3941 0.9382
-13.1740 -8.6561 -2.3938 0.9382
-12.7274 -9.2952 -2.3933 0.9382
-12.6694 -9.3736 -2.3933 0.9382
-12.5519 -9.5291 -2.3932 0.9382
-12.3721 -9.7596 -2.3930 0.9382
-12.3112 -9.8357 -2.3930 0.9382
-12.2499 -9.9114 -2.3929 0.9382
-12.0631 -10.1363 -2.3927 0.9382
-11.9999 -10.2105 -2.3927 0.9382
-11.8722 -10.3577 -2.3926 0.9382
-11.8077 -10.4307 -2.3925 0.9382
-11.6773 -10.5755 -2.3924 0.9382
-11.5451 -10.7187 -2.3923 0.9383
-11.4784 -10.7896 -2.3923 0.9383
-11.4112 -10.8602 -2.3922 0.9383
-11.2755 -11.0000 -2.3921 0.9383
-11.0689 -11.2066 -2.3920 0.9383
-10.9290 -11.3422 -2.3919 0.9383
-10.8584 -11.4094 -2.3919 0.9383
-10.7160 -11.5423 -2.3918 0.9383
-10.5721 -11.6736 -2.3917 0.9383
-10.4995 -11.7385 -2.3916 0.9383
-10.4265 -11.8030 -2.3916 0.9383
-10.2793 -11.9306 -2.3915 0.9383
-10.2052 -11.9937 -2.3914 0.9383
-10.1306 -12.0564 -2.3914 0.9383
-9.9803 -12.1803 -2.3913 0.9383
-9.9047 -12.2416 -2.3913 0.9383
-9.8286 -12.3024 -2.3912 0.9383
-9.7521 -12.3627 -2.3912 0.9383
-9.6754 -12.4226 -2.3912 0.9383
-9.5982 -12.4820 -2.3911 0.9383
-9.4427 -12.5993 -2.3910 0.9383
-9.3645 -12.6572 -2.3910 0.9383
-8.9680 -12.9397 -2.3908 0.9383
-8.8876 -12.9947 -2.3908 0.9383
-8.8070 -13.0492 -2.3907 0.9383
-8.7260 -13.1032 -2.3907 0.9383
-8.6446 -13.1567 -2.3906 0.9383
-8.5630 -13.2097 -2.3906 0.9383
-8.4810 -13.2622 -2.3906 0.9383
-8.1499 -13.4671 -2.3904 0.9383
-7.9825 -13.5665 -2.3904 0.9383
-7.8983 -13.6154 -2.3903 0.9383
-7.8139 -13.6638 -2.3903 0.9383
-7.7291 -13.7117 -2.3903 0.9383
-7.5587 -13.8059 -2.3902 0.9383
-7.3872 -13.8979 -2.3901 0.9383
-7.3010 -13.9432 -2.3901 0.9383
-7.1278 -14.0321 -2.3900 0.9383
-7.0408 -14.0757 -2.3900 0.9383
-6.9536 -14.1188 -2.3900 0.9383
-6.6902 -14.2449 -2.3899 0.9383
-6.6019 -14.2858 -2.3899 0.9383
-6.5133 -14.3262 -2.3899 0.9383
-6.3355 -14.4054 -2.3898 0.9383
-5.7964 -14.6295 -2.3896 0.9383
-5.7058 -14.6650 -2.3896 0.9383
-5.6149 -14.6999 -2.3896 0.9383
-5.4326 -14.7679 -2.3896 0.9383
-5.2494 -14.8337 -2.3895 0.9383
-5.0655 -14.8972 -2.3895 0.9383
-4.8808 -14.9585 -2.3894 0.9383
-4.6953 -15.0174 -2.3894 0.9383
-4.5091 -15.0741 -2.3894 0.9383
-4.4158 -15.1016 -2.3893 0.9383
-4.3223 -15.1285 -2.3893 0.9383
-3.9467 -15.2304 -2.3893 0.9383
-3.8524 -15.2544 -2.3892 0.9383
-3.7580 -15.2779 -2.3892 0.9383
-3.6634 -15.3007 -2.3892 0.9383
-3.5687 -15.3230 -2.3892 0.9383
-3.4738 -15.3447 -2.3892 0.9383
-3.3788 -15.3658 -2.3892 0.9383
-3.2837 -15.3863 -2.3892 0.9383
-3.0931 -15.4256 -2.3891 0.9383
-2.9977 -15.4444 -2.3891 0.9383
-2.9021 -15.4625 -2.3891 0.9383
-2.8064 -15.4801 -2.3891 0.9383
-2.7106 -15.4971 -2.3891 0.9383
-2.6147 -15.5135 -2.3891 0.9383
-2.5187 -15.5294 -2.3891 0.9383
-2.4226 -15.5446 -2.3891 0.9383
-2.3264 -15.5592 -2.3891 0.9383
-2.0374 -15.5996 -2.3890 0.9383
-1.9409 -15.6118 -2.3890 0.9383
-1.8443 -15.6235 -2.3890 0.9383
-1.5541 -15.6549 -2.3890 0.9383
-1.2634 -15.6810 -2.3890 0.9383
-1.0694 -15.6954 -2.3890 0.9383
-0.9723 -15.7017 -2.3890 0.9383
-0.8752 -15.7074 -2.3890 0.9383
-0.7780 -15.7125 -2.3890 0.9383
-0.6808 -15.7170 -2.3890 0.9383
-0.5836 -15.7209 -2.3890 0.9383
-0.4864 -15.7242 -2.3890 0.9383
-0.2919 -15.7290 -2.3890 0.9383
-0.1946 -15.7305 -2.3890 0.9383
-0.0973 -15.7314 -2.3890 0.9383
0.1946 -15.7306 -2.3890 0.9383
0.2919 -15.7291 -2.3890 0.9383
0.3891 -15.7271 -2.3890 0.9383
0.6808 -15.7172 -2.3890 0.9383
1.2634 -15.6814 -2.3891 0.9383
1.4573 -15.6647 -2.3891 0.9383
1.6509 -15.6456 -2.3891 0.9383
1.7477 -15.6352 -2.3891 0.9383
1.9409 -15.6125 -2.3891 0.9383
2.2302 -15.5740 -2.3892 0.9383
2.3265 -15.5600 -2.3892 0.9383
2.6148 -15.5145 -2.3892 0.9383
2.9023 -15.4636 -2.3893 0.9383
2.9979 -15.4454 -2.3893 0.9383
3.2840 -15.3875 -2.3893 0.9383
3.3791 -15.3670 -2.3894 0.9383
3.5689 -15.3243 -2.3894 0.9383
3.6637 -15.3020 -2.3894 0.9383
3.8527 -15.2557 -2.3895 0.9383
4.0412 -15.2072 -2.3895 0.9383
4.3227 -15.1300 -2.3896 0.9383
4.4162 -15.1032 -2.3896 0.9383
4.8813 -14.9601 -2.3897 0.9383
5.1581 -14.8675 -2.3898 0.9383
5.2500 -14.8354 -2.3898 0.9383
5.4332 -14.7697 -2.3899 0.9383
5.5245 -14.7360 -2.3899 0.9383
5.6156 -14.7017 -2.3899 0.9383
5.7065 -14.6669 -2.3899 0.9383
5.8876 -14.5955 -2.3900 0.9383
6.0678 -14.5219 -2.3901 0.9383
6.3364 -14.4074 -2.3901 0.9383
6.5143 -14.3283 -2.3902 0.9383
6.9546 -14.1211 -2.3904 0.9383
7.0419 -14.0780 -2.3904 0.9383
7.3022 -13.9455 -2.3905 0.9383
7.5600 -13.8083 -2.3906 0.9383
7.6454 -13.7614 -2.3907 0.9383
7.7305 -13.7141 -2.3907 0.9383
7.8997 -13.6179 -2.3908 0.9383
8.2347 -13.4192 -2.3909 0.9383
8.3176 -13.3682 -2.3910 0.9383
8.4003 -13.3167 -2.3910 0.9383
8.5646 -13.2123 -2.3911 0.9383
8.6463 -13.1593 -2.3911 0.9383
8.7277 -13.1058 -2.3912 0.9383
8.8894 -12.9973 -2.3912 0.9383
8.9698 -12.9423 -2.3913 0.9383
9.0498 -12.8868 -2.3913 0.9383
9.2088 -12.7743 -2.3914 0.9383
9.5227 -12.5436 -2.3916 0.9383
9.6003 -12.4847 -2.3916 0.9383
9.7543 -12.3654 -2.3917 0.9383
9.9069 -12.2444 -2.3918 0.9383
10.1329 -12.0592 -2.3920 0.9383
10.2075 -11.9965 -2.3920 0.9383
10.2817 -11.9334 -2.3921 0.9383
10.3555 -11.8698 -2.3921 0.9383
10.4290 -11.8058 -2.3922 0.9383
10.5746 -11.6764 -2.3922 0.9383
10.7186 -11.5452 -2.3923 0.9383
10.7901 -11.4789 -2.3924 0.9383
11.1410 -11.1411 -2.3927 0.9382
11.2784 -11.0029 -2.3928 0.9382
11.3465 -10.9331 -2.3928 0.9382
11.4142 -10.8630 -2.3929 0.9382
11.6804 -10.5783 -2.3931 0.9382
11.8108 -10.4335 -2.3932 0.9382
12.0664 -10.1391 -2.3934 0.9382
12.1292 -10.0645 -2.3935 0.9382
12.1915 -9.9896 -2.3935 0.9382
12.4960 -9.6090 -2.3938 0.9382
12.7886 -9.2192 -2.3941 0.9382
12.8457 -9.1402 -2.3942 0.9382
12.9023 -9.0608 -2.3942 0.9382
12.9584 -8.9811 -2.3943 0.9382
13.1238 -8.7398 -2.3945 0.9382
13.1781 -8.6587 -2.3945 0.9382
13.2316 -8.5772 -2.3946 0.9382
13.2847 -8.4954 -2.3946 0.9382
13.3373 -8.4134 -2.3947 0.9382
13.4410 -8.2482 -2.3948 0.9382
13.5427 -8.0817 -2.3949 0.9382
13.7879 -7.6602 -2.3953 0.9382
13.8354 -7.5749 -2.3953 0.9382
13.8823 -7.4894 -2.3954 0.9382
14.0200 -7.2312 -2.3956 0.9382
14.0649 -7.1446 -2.3956 0.9382
14.1529 -6.9704 -2.3958 0.9382
14.1961 -6.8829 -2.3958 0.9382
14.2388 -6.7952 -2.3959 0.9382
14.2809 -6.7072 -2.3960 0.9382
14.3225 -6.6189 -2.3960 0.9382
14.6356 -5.9038 -2.3966 0.9381
14.7083 -5.7227 -2.3967 0.9381
14.7788 -5.5407 -2.3968 0.9381
14.8132 -5.4493 -2.3969 0.9381
14.8470 -5.3577 -2.3970 0.9381
15.0077 -4.8969 -2.3973 0.9381
15.0381 -4.8041 -2.3974 0.9381
15.1259 -4.5247 -2.3976 0.9381
15.1541 -4.4312 -2.3976 0.9381
15.2860 -3.9612 -2.3980 0.9381
15.3107 -3.8666 -2.3981 0.9381
15.3811 -3.5822 -2.3983 0.9381
15.4034 -3.4872 -2.3983 0.9381
15.4251 -3.3919 -2.3984 0.9381
15.4463 -3.2966 -2.3985 0.9381
15.4668 -3.2011 -2.3986 0.9381
15.5249 -2.9138 -2.3988 0.9381
15.5431 -2.8179 -2.3988 0.9381
15.5607 -2.7218 -2.3989 0.9381
15.5940 -2.5293 -2.3990 0.9381
15.6251 -2.3363 -2.3992 0.9381
15.6397 -2.2397 -2.3993 0.9381
15.6537 -2.1430 -2.3993 0.9381
15.6671 -2.0462 -2.3994 0.9381
15.6799 -1.9494 -2.3995 0.9381
15.7038 -1.7554 -2.3996 0.9381
15.7148 -1.6583 -2.3997 0.9381
15.7251 -1.5611 -2.3998 0.9381
15.7443 -1.3666 -2.3999 0.9381
15.7529 -1.2692 -2.4000 0.9381
15.7683 -1.0743 -2.4001 0.9381
15.7751 -0.9768 -2.4002 0.9381
15.7813 -0.8793 -2.4003 0.9381
15.7919 -0.6841 -2.4004 0.9381
15.8001 -0.4887 -2.4005 0.9380
15.8033 -0.3911 -2.4006 0.9380
15.8059 -0.2933 -2.4007 0.9380
15.8078 -0.1956 -2.4008 0.9380
15.8092 -0.0978 -2.4008 0.9380
15.8048 0.4888 -2.4012 0.9380
15.8019 0.5866 -2.4013 0.9380
15.7985 0.6843 -2.4014 0.9380
15.7944 0.7820 -2.4015 0.9380
15.7897 0.8797 -2.4015 0.9380
15.7844 0.9774 -2.4016 0.9380
15.7786 1.0750 -2.4017 0.9380
15.7721 1.1726 -2.4017 0.9380
15.7650 1.2701 -2.4018 0.9380
15.7490 1.4651 -2.4020 0.9380
15.7306 1.6599 -2.4021 0.9380
15.7098 1.8544 -2.4022 0.9380
15.6985 1.9516 -2.4023 0.9380
15.6741 2.1457 -2.4025 0.9380
15.6609 2.2427 -2.4025 0.9380
15.6472 2.3396 -2.4026 0.9380
15.6180 2.5330 -2.4027 0.9380
15.6025 2.6296 -2.4028 0.9380
15.5524 2.9189 -2.4030 0.9380
15.5345 3.0151 -2.4031 0.9380
13.1180 2.7996 -2.0369 0.9472
12.9203 2.9249 -2.0117 0.9478
12.8769 2.9990 -2.0078 0.9479
12.8625 3.0796 -2.0085 0.9479
12.8603 3.1633 -2.0112 0.9478
12.8585 3.3320 -2.0172 0.9477
12.8605 3.4176 -2.0208 0.9476
12.8627 3.5890 -2.0279 0.9474
12.8661 3.8486 -2.0394 0.9471
12.8680 3.9361 -2.0435 0.9470
12.9230 4.2166 -2.0643 0.9465
13.1871 4.3932 -2.1108 0.9453
14.0359 4.8696 -2.2561 0.9417
13.9497 5.0339 -2.2521 0.9418
13.9187 5.1202 -2.2522 0.9418
13.8872 5.2063 -2.2522 0.9418
13.8225 5.3780 -2.2524 0.9418
13.7893 5.4635 -2.2524 0.9418
13.7214 5.6339 -2.2525 0.9418
13.6867 5.7188 -2.2526 0.9418
8.5644 3.7667 -1.4208 0.9629
8.4664 3.7862 -1.4084 0.9632
8.3590 3.8004 -1.3944 0.9635
8.1715 3.8378 -1.3710 0.9641
8.0221 3.8895 -1.3539 0.9646
7.9719 3.9262 -1.3495 0.9647
7.8773 4.0014 -1.3417 0.9649
7.6712 4.2000 -1.3281 0.9652
7.6293 4.2386 -1.3254 0.9653
7.5925 4.2798 -1.3236 0.9654
2.9142 1.7390 -0.5154 0.9864
2.7943 1.7386 -0.4998 0.9868
2.7559 1.7384 -0.4948 0.9869
2.6097 1.7379 -0.4761 0.9874
2.5748 1.7378 -0.4717 0.9875
2.5406 1.7376 -0.4674 0.9876
2.5070 1.7375 -0.4632 0.9877
2.4740 1.7374 -0.4591 0.9878
2.4416 1.7373 -0.4551 0.9879
2.4098 1.7371 -0.4511 0.9881
2.3785 1.7370 -0.4473 0.9882
2.3477 1.7369 -0.4435 0.9883
2.2584 1.7366 -0.4326 0.9885
2.2296 1.7365 -0.4292 0.9886
2.1733 1.7363 -0.4224 0.9888
2.1188 1.7361 -0.4160 0.9890
2.0660 1.7359 -0.4098 0.9891
2.0401 1.7359 -0.4068 0.9892
1.9403 1.7355 -0.3953 0.9895
1.9163 1.7354 -0.3926 0.9896
1.8925 1.7354 -0.3899 0.9897
1.8232 1.7351 -0.3822 0.9899
1.7784 1.7350 -0.3773 0.9900
1.7135 1.7348 -0.3703 0.9902
1.6508 1.7346 -0.3636 0.9904
1.5129 1.7341 -0.3495 0.9907
1.4754 1.7339 -0.3457 0.9908
1.4386 1.7337 -0.3421 0.9909
1.4205 1.7336 -0.3404 0.9910
1.4027 1.7336 -0.3386 0.9910
1.3850 1.7336 -0.3370 0.9911
1.3502 1.7336 -0.3337 0.9911
1.3330 1.7335 -0.3321 0.9912
1.2992 1.7335 -0.3290 0.9913
1.2825 1.7334 -0.3275 0.9913
1.2496 1.7333 -0.3245 0.9914
1.2333 1.7333 -0.3231 0.9914
1.2172 1.7333 -0.3216 0.9915
1.1699 1.7333 -0.3176 0.9916
1.1544 1.7334 -0.3163 0.9916
1.0788 1.7338 -0.3101 0.9918
1.0640 1.7338 -0.3089 0.9918
1.0493 1.7339 -0.3078 0.9918
1.0348 1.7340 -0.3066 0.9919
1.0060 1.7341 -0.3044 0.9919
0.9917 1.7342 -0.3034 0.9919
0.9776 1.7343 -0.3023 0.9920
0.9496 1.7344 -0.3003 0.9920
0.8812 1.7347 -0.2955 0.9922
0.8544 1.7348 -0.2937 0.9922
0.8411 1.7348 -0.2928 0.9922
0.8279 1.7349 -0.2919 0.9923
0.8148 1.7349 -0.2911 0.9923
0.7888 1.7350 -0.2894 0.9923
0.7759 1.7351 -0.2886 0.9923
0.7504 1.7352 -0.2871 0.9924
0.7251 1.7352 -0.2856 0.9924
0.7000 1.7353 -0.2842 0.9925
0.6876 1.7354 -0.2835 0.9925
0.6752 1.7354 -0.2828 0.9925
0.6629 1.7354 -0.2821 0.9925
0.6506 1.7355 -0.2815 0.9925
0.6142 1.7356 -0.2796 0.9926
0.6022 1.7356 -0.2790 0.9926
0.5902 1.7356 -0.2784 0.9926
0.5782 1.7357 -0.2778 0.9926
0.5545 1.7357 -0.2767 0.9927
0.5427 1.7358 -0.2762 0.9927
0.5192 1.7358 -0.2751 0.9927
0.5076 1.7358 -0.2746 0.9927
0.4960 1.7359 -0.2742 0.9927
0.4844 1.7359 -0.2737 0.9927
0.4728 1.7359 -0.2732 0.9927
0.4613 1.7360 -0.2728 0.9928
0.4498 1.7360 -0.2723 0.9928
0.4270 1.7360 -0.2715 0.9928
0.4157 1.7361 -0.2711 0.9928
0.3930 1.7361 -0.2703 0.9928
0.3818 1.7361 -0.2699 0.9928
0.3481 1.7361 -0.2689 0.9929
0.3370 1.7362 -0.2686 0.9929
0.3258 1.7362 -0.2683 0.9929
0.3148 1.7362 -0.2680 0.9929
0.3037 1.7362 -0.2677 0.9929
0.2926 1.7362 -0.2674 0.9929
0.2596 1.7362 -0.2666 0.9929
0.2486 1.7363 -0.2664 0.9929
0.2268 1.7363 -0.2659 0.9929
0.2159 1.7363 -0.2657 0.9929
0.2050 1.7363 -0.2655 0.9930
0.1832 1.7363 -0.2651 0.9930
0.1615 1.7363 -0.2648 0.9930
0.1399 1.7363 -0.2645 0.9930
0.1183 1.7363 -0.2643 0.9930
0.1075 1.7363 -0.2642 0.9930
0.0752 1.7363 -0.2639 0.9930
0.0537 1.7363 -0.2638 0.9930
0.0430 1.7363 -0.2638 0.9930
0.0215 1.7363 -0.2637 0.9930
0.0107 1.7363 -0.2637 0.9930
-0.0215 1.7363 -0.2637 0.9930
-0.0322 1.7362 -0.2637 0.9930
-0.0430 1.7362 -0.2637 0.9930
-0.0645 1.7362 -0.2638 0.9930
-0.0752 1.7362 -0.2639 0.9930
-0.1183 1.7362 -0.2643 0.9930
-0.1507 1.7361 -0.2646 0.9930
-0.1615 1.7361 -0.2648 0.9930
-0.1723 1.7361 -0.2649 0.9930
-0.1832 1.7361 -0.2651 0.9930
-0.2049 1.7360 -0.2655 0.9930
-0.2377 1.7360 -0.2661 0.9929
-0.2486 1.7359 -0.2663 0.9929
-0.2596 1.7359 -0.2665 0.9929
-0.2705 1.7359 -0.2668 0.9929
-0.2815 1.7359 -0.2671 0.9929
-0.2926 1.7358 -0.2673 0.9929
-0.3036 1.7358 -0.2676 0.9929
-0.3147 1.7358 -0.2679 0.9929
-0.3258 1.7358 -0.2682 0.9929
-0.3369 1.7357 -0.2685 0.9929
-0.3480 1.7357 -0.2688 0.9929
-0.3592 1.7357 -0.2692 0.9929
-0.3704 1.7356 -0.2695 0.9928
-0.3817 1.7356 -0.2699 0.9928
-0.3929 1.7356 -0.2702 0.9928
-0.4042 1.7355 -0.2706 0.9928
-0.4155 1.7355 -0.2710 0.9928
-0.4269 1.7355 -0.2714 0.9928
-0.4383 1.7354 -0.2718 0.9928
-0.4612 1.7354 -0.2727 0.9928
-0.5074 1.7352 -0.2745 0.9927
-0.5307 1.7351 -0.2755 0.9927
-0.5543 1.7350 -0.2766 0.9927
-0.5661 1.7350 -0.2771 0.9926
-0.5899 1.7349 -0.2783 0.9926
-0.6019 1.7348 -0.2789 0.9926
-0.6260 1.7347 -0.2801 0.9926
-0.6503 1.7346 -0.2813 0.9925
-0.6626 1.7346 -0.2820 0.9925
-0.6872 1.7345 -0.2833 0.9925
-0.6996 1.7344 -0.2840 0.9925
-0.7247 1.7343 -0.2854 0.9924
-0.7373 1.7343 -0.2862 0.9924
-0.7627 1.7341 -0.2877 0.9924
-0.7755 1.7341 -0.2885 0.9923
-0.7884 1.7340 -0.2893 0.9923
-0.8143 1.7339 -0.2909 0.9923
-0.8274 1.7338 -0.2917 0.9923
-0.8406 1.7337 -0.2926 0.9922
-0.8538 1.7337 -0.2935 0.9922
-0.8672 1.7336 -0.2944 0.9922
-0.8941 1.7335 -0.2962 0.9921
-0.9077 1.7334 -0.2971 0.9921
-0.9489 1.7332 -0.3001 0.9920
-0.9629 1.7331 -0.3011 0.9920
-0.9910 1.7329 -0.3032 0.9920
-1.0632 1.7325 -0.3087 0.9918
-1.0779 1.7324 -0.3099 0.9918
-1.1077 1.7322 -0.3122 0.9917
-1.1688 1.7318 -0.3173 0.9916
-1.1844 1.7317 -0.3186 0.9915
-1.2002 1.7317 -0.3200 0.9915
-1.2647 1.7317 -0.3256 0.9914
-1.2812 1.7317 -0.3271 0.9913
-1.2979 1.7318 -0.3286 0.9913
-1.3488 1.7318 -0.3333 0.9912
-1.3661 1.7318 -0.3350 0.9911
-1.4371 1.7319 -0.3418 0.9909
-1.5110 1.7320 -0.3490 0.9907
-1.5300 1.7320 -0.3509 0.9907
-1.5686 1.7320 -0.3549 0.9906
-1.5882 1.7320 -0.3569 0.9905
-1.6081 1.7321 -0.3589 0.9905
-1.6898 1.7321 -0.3675 0.9903
-1.7322 1.7322 -0.3720 0.9901
-1.7538 1.7322 -0.3743 0.9901
-1.7756 1.7322 -0.3767 0.9900
-1.7978 1.7323 -0.3791 0.9900
-1.8429 1.7323 -0.3841 0.9898
-1.8659 1.7323 -0.3867 0.9898
-1.8893 1.7324 -0.3893 0.9897
-1.9129 1.7324 -0.3919 0.9896
-1.9858 1.7325 -0.4002 0.9894
-2.0109 1.7325 -0.4031 0.9893
-2.0362 1.7326 -0.4060 0.9892
-2.0881 1.7326 -0.4120 0.9891
-2.2248 1.7328 -0.4282 0.9887
-2.2535 1.7329 -0.4317 0.9886
-2.2826 1.7329 -0.4352 0.9885
-2.3423 1.7330 -0.4425 0.9883
-2.3729 1.7330 -0.4462 0.9882
-2.4041 1.7330 -0.4501 0.9881
-2.4357 1.7331 -0.4540 0.9880
-2.5682 1.7333 -0.4705 0.9875
-2.6381 1.7334 -0.4794 0.9873
-2.7108 1.7335 -0.4886 0.9871
-2.7863 1.7336 -0.4983 0.9868
-2.8252 1.7337 -0.5034 0.9867
-2.9054 1.7338 -0.5138 0.9864
-2.9890 1.7339 -0.5247 0.9861
-3.0321 1.7340 -0.5304 0.9860
-3.1675 1.7342 -0.5484 0.9855
-3.3123 1.7344 -0.5678 0.9850
-3.4147 1.7346 -0.5816 0.9846
-3.6942 1.7350 -0.6198 0.9836
-3.7546 1.7351 -0.6281 0.9834
-3.8804 1.7353 -0.6455 0.9829
-3.9459 1.7354 -0.6546 0.9827
-4.2250 1.7347 -0.6936 0.9817
-4.4594 1.7350 -0.7266 0.9808
-4.6285 1.7352 -0.7507 0.9802
-5.0027 1.7357 -0.8041 0.9788
-5.1031 1.7352 -0.8185 0.9784
-5.3150 1.7342 -0.8490 0.9776
-5.5434 1.7332 -0.8820 0.9768
-5.6644 1.7326 -0.8995 0.9763
-5.7902 1.7320 -0.9178 0.9758
-6.3496 1.7294 -0.9994 0.9737
-6.5054 1.7287 -1.0222 0.9731
-6.6684 1.7280 -1.0461 0.9725
-15.3871 3.6841 -2.4027 0.9380
-15.4092 3.5887 -2.4027 0.9380
-15.4515 3.3976 -2.4025 0.9380
-15.5290 3.0141 -2.4022 0.9380
-15.5642 2.8216 -2.4021 0.9380
-15.6125 2.5321 -2.4019 0.9380
-15.6274 2.4354 -2.4018 0.9380
-15.6417 2.3387 -2.4017 0.9380
-15.6684 2.1450 -2.4016 0.9380
-15.6810 2.0479 -2.4015 0.9380
-15.6929 1.9509 -2.4015 0.9380
-15.7149 1.7565 -2.4013 0.9380
-15.7250 1.6593 -2.4012 0.9380
-15.7344 1.5620 -2.4012 0.9380
-15.7516 1.3672 -2.4010 0.9380
-15.7729 1.0746 -2.4008 0.9380
-15.7840 0.8794 -2.4007 0.9380
-15.7962 0.5863 -2.4005 0.9380
-15.7991 0.4886 -2.4004 0.9381
-15.8013 0.3909 -2.4003 0.9381
-15.8030 0.2932 -2.4002 0.9381
-15.8040 0.1954 -2.4002 0.9381
-15.0508 -0.0000 -2.4000 0.9409
-15.0500 -0.0931 -2.4000 0.9409
-15.0414 -0.4653 -2.3997 0.9409
-15.0379 -0.5583 -2.3996 0.9409
-15.0290 -0.7442 -2.3995 0.9409
-15.0177 -0.9300 -2.3994 0.9409
-15.0113 -1.0228 -2.3993 0.9409
-15.0043 -1.1155 -2.3992 0.9409
-14.9885 -1.3010 -2.3991 0.9409
-14.9797 -1.3936 -2.3990 0.9409
-14.9704 -1.4862 -2.3990 0.9409
-14.9605 -1.5787 -2.3989 0.9409
-14.9390 -1.7635 -2.3988 0.9409
-14.9274 -1.8559 -2.3987 0.9409
-14.8892 -2.1322 -2.3985 0.9409
-14.8753 -2.2242 -2.3984 0.9409
-14.8608 -2.3161 -2.3984 0.9409
-14.8141 -2.5912 -2.3982 0.9409
-14.7973 -2.6827 -2.3981 0.9409
-14.7801 -2.7741 -2.3980 0.9409
-14.7248 -3.0475 -2.3978 0.9409
-14.6852 -3.2292 -2.3977 0.9409
-14.6646 -3.3199 -2.3976 0.9409
-14.5290 -3.8610 -2.3973 0.9409
-14.5044 -3.9507 -2.3972 0.9409
-14.4793 -4.0402 -2.3971 0.9409
-14.4007 -4.3077 -2.3969 0.9409
-14.2883 -4.6621 -2.3967 0.9409
-14.2287 -4.8382 -2.3965 0.9409
-14.1354 -5.1009 -2.3964 0.9409
-14.1032 -5.1881 -2.3963 0.9409
-14.0705 -5.2751 -2.3962 0.9409
-14.0373 -5.3619 -2.3962 0.9410
-14.0035 -5.4485 -2.3961 0.9410
-13.9343 -5.6209 -2.3960 0.9410
-13.7896 -5.9633 -2.3957 0.9410
-13.7521 -6.0483 -2.3957 0.9410
-13.7141 -6.1331 -2.3956 0.9410
-13.5969 -6.3860 -2.3954 0.9410
-13.5568 -6.4698 -2.3954 0.9410
-13.5162 -6.5533 -2.3953 0.9410
-13.4335 -6.7196 -2.3952 0.9410
-13.3913 -6.8024 -2.3951 0.9410
-13.3055 -6.9672 -2.3950 0.9410
-13.2618 -7.0492 -2.3950 0.9410
-13.2177 -7.1309 -2.3949 0.9410
-13.1730 -7.2123 -2.3948 0.9410
-13.0360 -7.4549 -2.3947 0.9410
-12.8945 -7.6949 -2.3945 0.9410
-12.5984 -8.1668 -2.3942 0.9410
-12.5474 -8.2444 -2.3941 0.9410
-12.4439 -8.3986 -2.3940 0.9410
-12.1770 -8.7783 -2.3937 0.9410
-11.8984 -9.1495 -2.3935 0.9410
-11.6675 -9.4402 -2.3933 0.9410
-11.4896 -9.6544 -2.3931 0.9410
-11.3689 -9.7954 -2.3930 0.9410
-11.1845 -10.0040 -2.3929 0.9410
-11.1222 -10.0728 -2.3928 0.9410
-11.0595 -10.1412 -2.3928 0.9410
-10.9328 -10.2768 -2.3927 0.9410
-10.6744 -10.5432 -2.3925 0.9410
-10.4764 -10.7388 -2.3924 0.9410
-10.4096 -10.8032 -2.3923 0.9410
-10.3424 -10.8671 -2.3923 0.9410
-10.2748 -10.9307 -2.3922 0.9410
-10.2068 -10.9938 -2.3922 0.9410
-10.1384 -11.0565 -2.3921 0.9410
-9.9310 -11.2421 -2.3920 0.9410
-9.7909 -11.3637 -2.3919 0.9411
-9.3616 -11.7178 -2.3917 0.9411
-9.2157 -11.8324 -2.3916 0.9411
-8.9941 -12.0007 -2.3915 0.9411
-8.8447 -12.1107 -2.3914 0.9411
-8.6181 -12.2721 -2.3913 0.9411
-8.5419 -12.3249 -2.3913 0.9411
-8.4654 -12.3773 -2.3912 0.9411
-8.3886 -12.4293 -2.3912 0.9411
